-26.32875061 0.27904010 1.26495731 -0.99676287 0.02114192 0.53179359
-25.21163177 1.22954953 1.06525958 -0.95447057 0.09315880 0.44783980
-26.37584305 1.83836150 1.89351749 -0.99854571 0.13928641 0.79604310
-26.27530861 0.18447708 -0.52779555 -0.99473965 0.01397720 -0.22188757
-25.28907967 1.14884090 -0.66337520 -0.95740265 0.08704378 -0.27888584
-26.01378059 -0.14749862 0.33945444 -0.98483860 -0.01117547 0.14270814
-26.02019310 0.81451368 0.19346911 -0.98508137 0.06171294 0.08133526
-26.37991333 0.11378413 1.26761782 -0.99869978 0.00862104 0.53291208
-25.01528168 1.06230605 1.05554605 -0.94703710 0.08048733 0.44375619
-23.04905701 -0.21963783 1.87968135 -0.87259912 -0.01664121 0.79022628
-26.02863312 1.65017068 1.86593461 -0.98540092 0.12502784 0.78444713
-26.34994125 0.01937919 -0.52889359 -0.99756509 0.00146830 -0.22234918
-24.93216705 0.97540039 -0.65582079 -0.94389051 0.07390278 -0.27570993
-25.70241928 -0.30699697 0.33376735 -0.97305101 -0.02326012 0.14031726
-26.07877541 0.65240139 0.19415632 -0.98729920 0.04943024 0.08162417
-23.03087044 -0.04278697 1.08915401 -0.87191057 -0.00324182 0.45788512
-25.02944756 0.90540588 1.05592692 -0.94757342 0.06859953 0.44391632
-22.00336075 -0.34702578 1.78827775 -0.83301079 -0.02629297 0.75179982
-26.11557388 -0.14470306 -0.52542138 -0.98869234 -0.01096366 -0.22088946
-24.62005043 0.80803740 -0.64922106 -0.93207431 0.06122226 -0.27293539
-25.41408157 -0.46304497 0.32852054 -0.96213502 -0.03508335 0.13811147
-26.16233826 0.49009222 0.19517441 -0.99046278 0.03713262 0.08205218
-25.76355171 1.41380739 0.09373812 -0.97536540 0.10711939 0.03940792
-22.74282837 -0.14917302 1.07382977 -0.86100578 -0.01130233 0.45144275
-26.09567642 0.82172489 1.10659003 -0.98793906 0.06225931 0.46521533
-25.80865288 -0.26439238 -0.52088088 -0.97707283 -0.02003211 -0.21898061
-24.30778503 0.68287361 -0.64266288 -0.92025244 0.05173902 -0.27017829
-21.86721230 -0.49867401 0.26346746 -0.82785642 -0.03778284 0.11076288
-26.24034309 0.36792445 0.19614160 -0.99341589 0.02787639 0.08245879
-25.52024078 1.28005958 0.09149433 -0.96615404 0.09698577 0.03846462
-25.50526047 -0.33003405 1.22111297 -0.96558690 -0.02500556 0.51336128
-26.17022133 0.65956169 1.10992324 -0.99076122 0.04997275 0.46661660
-21.58395958 -0.57746589 1.75199544 -0.81713295 -0.04375263 0.73654658
-23.21558189 0.24566148 1.77578247 -0.87890345 0.01861294 0.74654675
-25.84307480 1.56899512 0.97588789 -0.97837597 0.11887744 0.41026756
-25.50656128 -0.42135292 -0.51642936 -0.96563613 -0.03192448 -0.21710917
-24.00374222 0.52316022 -0.63627064 -0.90874189 0.03963808 -0.26749098
-21.58981705 -0.62783784 0.25844082 -0.81735468 -0.04756914 0.10864966
-26.31812668 0.20369220 0.19710879 -0.99636066 0.01543307 0.08286540
-25.65166092 1.12502170 0.09260724 -0.97112936 0.08523908 0.03893249
-21.93645859 -0.41887662 1.03104949 -0.83047795 -0.03173686 0.43345773
-26.22977448 0.49621880 1.11258972 -0.99301577 0.03759681 0.46773762
-21.45844078 -0.70894146 1.74135494 -0.81238103 -0.05371409 0.73207325
-23.07714272 0.09906786 1.76427937 -0.87366235 0.00750604 0.74171078
-25.49925804 1.38765144 0.96067226 -0.96535963 0.10513765 0.40387085
-21.95278931 -0.49780169 -0.46372351 -0.83109623 -0.03771675 -0.19495140
-23.71265793 0.36752367 -0.63016903 -0.89772195 0.02784602 -0.26492584
-21.39960098 -0.75672877 0.25502855 -0.81015342 -0.05733477 0.10721512
-26.38688278 0.03847916 0.19797418 -0.99896365 0.00291544 0.08322921
-25.93802261 0.97411489 0.09512029 -0.98197055 0.07380538 0.03998899
-21.58600807 -0.54755890 1.01253271 -0.81721050 -0.04148668 0.42567319
-26.33424950 0.33276957 1.11744642 -0.99697107 0.02521282 0.46977937
-21.50134087 -0.84567839 1.74554133 -0.81400514 -0.06407418 0.73383325
-23.08727646 -0.04594215 1.76510096 -0.87404603 -0.00348088 0.74205619
-25.15818787 1.21087992 0.94562858 -0.95244730 0.09174427 0.39754641
-24.36022949 0.81693470 1.73476267 -0.92223793 0.06189637 0.72930187
-21.56944084 -0.62437236 -0.45808494 -0.81658328 -0.04730657 -0.19258092
-23.43057442 0.21566652 -0.62427497 -0.88704270 0.01634032 -0.26244795
-21.44037437 -0.89312840 0.25587246 -0.81169707 -0.06766931 0.10756990
-26.10262871 -0.12616290 0.19435994 -0.98820227 -0.00955894 0.08170977
-25.35860825 1.15180469 -0.76626784 -0.96003491 0.08726834 -0.32214236
-26.00759888 0.81307310 0.09569470 -0.98460460 0.06160379 0.04023047
-21.45239449 -0.67894667 1.00561547 -0.81215209 -0.05144149 0.42276517
-26.39175606 0.16769965 1.12011302 -0.99914813 0.01270603 0.47090045
-21.64486885 -0.98770952 1.75862396 -0.81943887 -0.07483540 0.73933321
-22.69985390 -0.18814348 1.73322082 -0.85937887 -0.01425499 0.72865367
-24.98761368 1.04549372 0.93797779 -0.94598967 0.07921351 0.39432999
-24.09576797 0.65675205 1.71407545 -0.91222584 0.04975988 0.72060484
-26.09833908 1.70703602 1.70913792 -0.98803985 0.12933633 0.71852911
-21.47316170 -0.75655788 -0.45671982 -0.81293833 -0.05732182 -0.19200702
-23.14553070 0.06736117 -0.61833936 -0.87625146 0.00510373 -0.25995257
-21.74591446 -1.04306042 0.26159623 -0.82326430 -0.07902915 0.10997620
-25.78336334 -0.28688005 0.19031303 -0.97611541 -0.02173593 0.08000843
-25.00172424 0.97851479 -0.75726002 -0.94652385 0.07413875 -0.31835544
-26.09616661 0.65167910 0.09644862 -0.98795760 0.04937552 0.04054742
-21.42176056 -0.81271285 1.00423205 -0.81099236 -0.06157650 0.42218357
-26.27841759 0.00177731 1.11468482 -0.99485737 0.00013466 0.46861839
-21.93070793 -1.13915133 1.78426576 -0.83026028 -0.08630963 0.75011319
-22.20793343 -0.32406089 1.69279540 -0.84075558 -0.02455300 0.71165860
-25.15743828 0.89415997 0.94502681 -0.95241892 0.06774747 0.39729342
-25.75805283 1.52203476 1.68433714 -0.97515720 0.11531942 0.70810270
-21.23821640 -0.88170290 -0.45330700 -0.80404365 -0.06680364 -0.19057226
-22.88355446 -0.07741354 -0.61290187 -0.86633343 -0.00586536 -0.25766665
-21.84874535 -1.18573451 0.26361424 -0.82715732 -0.08983909 0.11082458
-25.48311806 -0.44392267 0.18652064 -0.96474862 -0.03363451 0.07841410
-24.69963074 0.81154805 -0.74963808 -0.93508708 0.06148824 -0.31515115
-26.16373253 0.48884603 0.09702303 -0.99051553 0.03703821 0.04078891
-25.83339691 1.44474888 -0.07846972 -0.97800958 0.10946372 -0.03298901
-21.64715004 -0.92365748 1.01647019 -0.81952524 -0.06998239 0.42732853
-22.88401413 -0.10891836 0.95288646 -0.86635083 -0.00825237 0.40059766
-20.44322968 -1.15713084 1.65431225 -0.77394682 -0.08767188 0.69548017
-21.87932396 -0.42269889 1.66584516 -0.82831496 -0.03202646 0.70032865
-26.07411766 0.80299604 0.98431236 -0.98712289 0.06084029 0.41380924
-21.20985603 -0.98064417 -0.45295087 -0.80296999 -0.07430008 -0.19042253
-22.62499809 -0.18338962 -0.60754734 -0.85654491 -0.01389481 -0.25541556
-20.47959137 -1.20697618 0.23855431 -0.77532339 -0.09144849 0.10028928
-25.33478737 -0.56088954 0.18466261 -0.95913309 -0.04249670 0.07763297
-24.39139175 0.68662828 -0.74191713 -0.92341769 0.05202350 -0.31190524
-26.23773766 0.36649716 0.09766924 -0.99331725 0.02776825 0.04106057
-25.51635551 1.30617487 -0.07921324 -0.96600693 0.09896444 -0.03330160
-21.08440208 -1.03187776 0.98677945 -0.79822052 -0.07818188 0.41484642
-22.54727745 -0.24929196 0.93688762 -0.85360259 -0.01888801 0.39387167
-20.22877121 -1.27234113 1.63617098 -0.76582778 -0.09640098 0.68785346
-21.62715721 -0.55401522 1.64530385 -0.81876832 -0.04197586 0.69169295
-26.13657761 0.64052737 0.98680532 -0.98948753 0.04853059 0.41485730
-25.93770218 1.61718392 0.81335872 -0.98195845 0.12252855 0.34193957
-21.56671524 -1.13333142 -0.45835203 -0.81648010 -0.08586868 -0.19269320
-22.36347771 -0.32203564 -0.60215133 -0.84664422 -0.02439955 -0.25314707
-20.28404617 -1.32320499 0.23510537 -0.76792037 -0.10025475 0.09883933
-21.57849884 -0.61641139 0.13688865 -0.81692618 -0.04670340 0.05754859
-24.07339478 0.52659220 -0.73394871 -0.91137886 0.03989810 -0.30855528
-26.32751656 0.20224242 0.09845905 -0.99671614 0.01532322 0.04139262
-25.58199883 1.14847338 -0.07908014 -0.96849209 0.08701593 -0.03324564
-20.85816002 -1.15200520 0.97507346 -0.78965539 -0.08728353 0.40992516
-22.07586098 -0.38323846 0.91450822 -0.83575553 -0.02903668 0.38446328
-20.01765251 -1.38518167 1.61837876 -0.75783515 -0.10495052 0.68037355
-21.43995857 -0.68421543 1.63018537 -0.81168133 -0.05184068 0.68533707
-26.20801353 0.47747967 0.98972809 -0.99219197 0.03617702 0.41608605
-25.59415817 1.43411028 0.80040914 -0.96895242 0.10865767 0.33649552
-25.93315506 0.09407872 1.85459495 -0.98178625 0.00712803 0.77967983
-20.57304001 -1.20984745 -0.44369173 -0.77886122 -0.09166604 -0.18652995
-22.12111282 -0.45779806 -0.59717041 -0.83746868 -0.03468581 -0.25105307
-19.83456421 -1.41864789 0.22699666 -0.75090373 -0.10748614 0.09543040
-21.39031982 -0.74574423 0.13454704 -0.80980206 -0.05650251 0.05656417
-26.40226364 0.03686517 0.09912321 -0.99954593 0.00279315 0.04167183
-25.91445541 1.00054812 -0.07833202 -0.98107833 0.07580814 -0.03293113
-20.27493858 -1.20849502 2.34002638 -0.76757556 -0.09156357 0.98375738
-20.31830597 -1.24976790 0.94665968 -0.76921737 -0.09469067 0.39797989
-19.82579041 -1.49694061 1.60233080 -0.75057155 -0.11341812 0.67362690
-21.45714760 -0.81972855 1.63199306 -0.81233203 -0.06210805 0.68609703
-23.63304138 0.28404179 0.87883455 -0.89470780 0.02152088 0.36946592
-25.27130890 1.25652766 0.78826439 -0.95672989 0.09520284 0.33138981
-26.02895164 -0.06919413 1.86195040 -0.98541296 -0.00524260 0.78277212
-20.35950279 -1.32550025 -0.44063503 -0.77077705 -0.10042866 -0.18524490
-21.81396675 -0.58886069 -0.59086126 -0.82584065 -0.04461598 -0.24840067
-19.46244812 -1.51462781 0.22031890 -0.73681605 -0.11475822 0.09262303
-21.43716621 -0.88221675 0.13520880 -0.81157559 -0.06684257 0.05684237
-25.50023842 1.18678856 -0.93485343 -0.96539676 0.08991894 -0.39301649
-26.11199188 -0.12738426 0.09652042 -0.98855674 -0.00965147 0.04057761
-25.99419022 0.84015250 -0.07816221 -0.98409694 0.06365550 -0.03285974
-20.06688118 -1.32247341 2.31555438 -0.75969887 -0.10019933 0.97346926
-21.18219185 -0.65700787 2.32811379 -0.80192268 -0.04977926 0.97874928
-20.10283661 -1.36314499 0.93559217 -0.76106006 -0.10328087 0.39332706
-21.55410576 -0.64566761 0.88993847 -0.81600273 -0.04892005 0.37413403
-19.59360886 -1.60305333 1.58279407 -0.74178153 -0.12145791 0.66541356
-21.77018929 -0.96840578 1.65828598 -0.82418329 -0.07337283 0.69715071
-26.37379265 0.14889999 0.99669117 -0.99846810 0.01128165 0.41901335
-24.96921539 1.08403087 0.77692437 -0.94529313 0.08213335 0.32662243
-22.69199562 -0.20029972 1.60558271 -0.85908133 -0.01517603 0.67499405
-26.08115005 0.76138532 1.70476961 -0.98738915 0.05768758 0.71669263
-26.14390755 1.70808589 1.57225490 -0.98976499 0.12941587 0.66098285
-20.15131760 -1.43895137 -0.43766737 -0.76289546 -0.10902447 -0.18399729
-21.58600235 -0.71866822 -0.58621240 -0.81721026 -0.05445106 -0.24644627
-19.27322578 -1.62160587 0.21701671 -0.72965240 -0.12286358 0.09123478
-21.73085213 -1.03082561 0.13902664 -0.82269406 -0.07810216 0.05844741
-23.20931244 0.07085954 -0.71241909 -0.87866610 0.00536879 -0.29950410
-25.17363548 1.01285326 -0.92443150 -0.95303214 0.07674046 -0.38863507
-25.79870987 -0.28772199 0.09372017 -0.97669643 -0.02179972 0.03940037
-26.05693436 0.67836535 -0.07802910 -0.98647237 0.05139744 -0.03280378
-19.84829903 -1.43316042 2.28987074 -0.75142372 -0.10858571 0.96267170
-21.12404251 -0.78813738 2.32187009 -0.79972124 -0.05971450 0.97612441
-19.90268517 -1.47506142 0.92537600 -0.75348270 -0.11176040 0.38903213
-21.44979858 -0.77755845 0.88517690 -0.81205380 -0.05891297 0.37213224
-19.40057564 -1.70984805 1.56674612 -0.73447365 -0.12954938 0.65866697
-21.80348969 -1.10715652 1.66157258 -0.82544398 -0.08388550 0.69853240
-26.20236588 -0.01657122 0.98929828 -0.99197817 -0.00125555 0.41590536
-24.99151230 0.92773038 0.77750969 -0.94613725 0.07029098 0.32686847
-22.13400078 -0.33396807 1.56282926 -0.83795661 -0.02530363 0.65702027
-25.77557182 1.52173662 1.54750001 -0.97582042 0.11529683 0.65057582
-19.92656898 -1.54858351 -0.43446228 -0.75438690 -0.11733092 -0.18264985
-21.33529663 -0.84478527 -0.58110696 -0.80771899 -0.06400651 -0.24429992
-19.08343697 -1.72626638 0.21371453 -0.72246730 -0.13079335 0.08984652
-21.85175705 -1.17409158 0.14065559 -0.82727128 -0.08895694 0.05913223
-22.93938446 -0.07386092 -0.70573753 -0.86844707 -0.00559619 -0.29669517
-24.82588768 0.84237522 -0.91338557 -0.93986696 0.06382392 -0.38399130
-25.49045563 -0.44423741 0.09097376 -0.96502644 -0.03365836 0.03824577
-26.11267281 0.51569974 -0.07790978 -0.98858249 0.03907282 -0.03275361
-19.65923309 -1.51247895 2.26757956 -0.74426597 -0.11459540 0.95330042
-25.84940338 1.54478300 -0.22395110 -0.97861558 0.11704297 -0.09415003
-19.54313850 -1.54068637 0.90653992 -0.73987085 -0.11673258 0.38111335
-21.33211708 -0.87407571 0.87974870 -0.80759859 -0.06622575 0.36985022
-19.22964478 -1.78597188 1.55244255 -0.72800249 -0.13531703 0.65265369
-20.50037003 -1.13907683 1.55442894 -0.77611005 -0.08630399 0.65348876
-25.89828300 -0.13818726 0.97623175 -0.98046607 -0.01046998 0.41041210
-26.00637054 0.84352624 0.81452930 -0.98455811 0.06391113 0.34243169
-21.88496399 -0.43314531 1.54382765 -0.82852846 -0.03281795 0.64903194
-25.43768501 1.38180327 1.52496004 -0.96302861 0.10469455 0.64109993
-19.62012291 -1.61751270 -0.43001077 -0.74278533 -0.12255345 -0.18077841
-21.12132263 -0.93622023 -0.57674861 -0.79961830 -0.07093423 -0.24246764
-18.86211014 -1.79566920 0.20978859 -0.71408826 -0.13605176 0.08819605
-21.91386414 -1.28095698 0.14152096 -0.82962257 -0.09705377 0.05949603
-22.68686867 -0.17973737 -0.69950134 -0.85888726 -0.01361809 -0.29407343
-25.32612801 -0.56063783 0.08951979 -0.95880526 -0.04247763 0.03763451
-26.23079681 0.39447558 -0.07764357 -0.99305451 0.02988808 -0.03264170
-19.45151520 -1.61929476 2.24334979 -0.73640215 -0.12268847 0.94311410
-25.51507759 1.36424375 -0.22280729 -0.96595854 0.10336412 -0.09366916
-19.35399055 -1.64801049 0.89696229 -0.73271000 -0.12486417 0.37708688
-21.15059090 -0.99995768 0.87136835 -0.80072629 -0.07576340 0.36632708
-19.02178192 -1.88707793 1.53517354 -0.72013313 -0.14297749 0.64539367
-20.28589630 -1.25526547 1.53733850 -0.76799041 -0.09510721 0.64630383
-25.61518669 -0.29741251 0.96411085 -0.96974850 -0.02253394 0.40531644
-26.10506058 0.68263656 0.81796789 -0.98829436 0.05172106 0.34387729
-21.61668968 -0.56348264 1.52344704 -0.81837207 -0.04269317 0.64046383
-25.78320122 0.30674687 1.68306887 -0.97610927 0.02324117 0.70756954
-26.01206207 1.63298512 0.69008076 -0.98477358 0.12372574 0.29011297
-19.45222282 -1.72662497 -0.42766631 -0.73642892 -0.13082051 -0.17979279
-20.86538315 -1.05651331 -0.57156020 -0.78992885 -0.08004843 -0.24028642
-18.66346931 -1.89495695 0.20633964 -0.70656800 -0.14357446 0.08674609
-20.31075859 -1.31683338 0.12118458 -0.76893169 -0.09977200 0.05094653
-22.41740417 -0.31823274 -0.69286925 -0.84868580 -0.02411142 -0.29128528
-21.58585167 -0.61055315 0.05597064 -0.81720459 -0.04625954 0.02353030
-26.28675652 0.23017052 -0.07751966 -0.99517304 0.01743924 -0.03258960
-19.26103592 -1.72517347 2.22130084 -0.72919089 -0.13071054 0.93384463
-20.43082047 -1.11669993 2.24301457 -0.77347702 -0.08460857 0.94297320
-25.55910683 1.20556951 -0.22292699 -0.96762544 0.09134191 -0.09371948
-19.10859108 -1.74786639 0.88440490 -0.72341961 -0.13242991 0.37180769
-21.08204651 -1.12957633 0.86841619 -0.79813135 -0.08558417 0.36508599
-18.83719063 -1.98817837 1.51999772 -0.71314484 -0.15063754 0.63901371
-20.07276726 -1.36893797 1.52041245 -0.75992173 -0.10371979 0.63918805
-22.04074097 -0.39159009 0.81040728 -0.83442593 -0.02966945 0.34069878
-26.17477608 0.51996237 0.82038218 -0.99093366 0.03939579 0.34489226
-21.43334961 -0.69331974 1.50965559 -0.81143111 -0.05253049 0.63466585
-25.88437080 0.14537986 1.69011462 -0.97993940 0.01101494 0.71053159
-25.68450165 1.45073080 0.67934835 -0.97237265 0.10991696 0.28560102
-19.26780701 -1.83216059 -0.42508444 -0.72944725 -0.13881660 -0.17870736
-20.66068649 -1.17653239 -0.56745094 -0.78217936 -0.08914187 -0.23855887
-18.59752274 -2.00633550 0.20534900 -0.70407140 -0.15201324 0.08632962
-20.08862495 -1.42945039 0.11846118 -0.76052207 -0.10830461 0.04980160
-22.16509628 -0.45373398 -0.68668258 -0.83913380 -0.03437788 -0.28868437
-21.45567513 -0.74169594 0.05483977 -0.81227630 -0.05619579 0.02305488
-26.35568237 0.06522326 -0.07736360 -0.99778247 0.00494175 -0.03252400
-19.06604767 -1.82833982 2.19876719 -0.72180897 -0.13852711 0.92437136
-20.25087738 -1.23470247 2.22289586 -0.76666468 -0.09354922 0.93451518
-25.89591026 1.05816865 -0.22402425 -0.98037624 0.08017385 -0.09418078
-21.56060028 -0.46382913 2.28670597 -0.81624860 -0.03514276 0.96134126
-18.89252281 -1.84765220 0.87344378 -0.71523958 -0.13999034 0.36719960
-20.40246391 -1.22241938 0.83632314 -0.77240348 -0.09261857 0.35159391
-18.64812660 -2.08658695 1.50447309 -0.70598716 -0.15809362 0.63248712
-19.85702896 -1.47983611 1.50332201 -0.75175422 -0.11212216 0.63200319
-21.63035011 -0.51988995 0.79287058 -0.81888920 -0.03939030 0.33332628
-26.24147797 0.35641038 0.82272333 -0.99345887 0.02700401 0.34587651
-21.44849586 -0.82876372 1.51118791 -0.81200451 -0.06279261 0.63531005
-23.00794029 -0.01760056 1.48691702 -0.87104249 -0.00133353 0.62510645
-25.32374763 1.27108026 0.66759986 -0.95871514 0.09630544 0.28066191
-19.20021439 -1.94747770 -0.42425349 -0.72688830 -0.14755379 -0.17835803
-20.43535423 -1.29277861 -0.56292659 -0.77364862 -0.09794945 -0.23665681
-18.31041336 -2.09152675 0.20028564 -0.69320190 -0.15846789 0.08420096
-19.51494026 -1.51249540 0.11125819 -0.73880333 -0.11459665 0.04677343
-21.82803726 -0.58375430 -0.67841721 -0.82637334 -0.04422908 -0.28520957
-21.42861176 -0.87557143 0.05464231 -0.81125176 -0.06633908 0.02297187
-26.16157341 -0.09978544 -0.07780880 -0.99043381 -0.00756040 -0.03271116
-18.87448120 -1.92953289 2.17671824 -0.71455657 -0.14619416 0.91510189
-20.03062057 -1.34786093 2.19815254 -0.75832611 -0.10212285 0.92411298
-25.96401215 0.89753348 -0.22423041 -0.98295450 0.06800307 -0.09426745
-23.04305077 0.22410066 2.29520488 -0.87237173 0.01697935 0.96491420
-18.74150658 -1.95168984 0.86599451 -0.70952237 -0.14787292 0.36406791
-20.19503021 -1.33758450 0.82679999 -0.76455039 -0.10134424 0.34759036
-18.47835922 -2.18506026 1.49069273 -0.69956005 -0.16555461 0.62669379
-19.64666176 -1.58855379 1.48672462 -0.74379003 -0.12035933 0.62502557
-21.55276108 -0.65347606 0.78968996 -0.81595182 -0.04951166 0.33198914
-26.33313560 0.19225043 0.82601559 -0.99692887 0.01456616 0.34726059
-21.85123062 -0.98224854 1.54260182 -0.82725137 -0.07442164 0.64851660
-22.85375977 -0.16121548 1.47606659 -0.86520547 -0.01221475 0.62054485
-25.01768303 1.09843075 0.65762955 -0.94712800 0.08322437 0.27647036
-26.12669945 0.76088852 1.56821597 -0.98911357 0.05764994 0.65928489
-26.20687103 1.74920142 1.42671692 -0.99214870 0.13253106 0.59979808
-18.92716599 -2.03972936 -0.42036584 -0.71655113 -0.15454337 -0.17672364
-20.21736526 -1.40678751 -0.55856824 -0.76539594 -0.10658752 -0.23482454
-18.24331474 -2.20000911 0.19929498 -0.69066167 -0.16668724 0.08378448
-19.30176353 -1.61825204 0.10866205 -0.73073280 -0.12260947 0.04568201
-21.56017113 -0.71193272 -0.67188406 -0.81623232 -0.05394073 -0.28246301
-23.33472061 0.09381451 -0.86639339 -0.88341385 0.00710801 -0.36423558
-21.72832108 -1.02489603 0.05738871 -0.82259822 -0.07765289 0.02412647
-25.85844421 -0.26134583 -0.07850184 -0.97895783 -0.01980129 -0.03300252
-18.70135498 -2.00074935 2.15660739 -0.70800233 -0.15158999 0.90664721
-19.82588577 -1.42816687 2.17502761 -0.75057518 -0.10820736 0.91439116
-26.02992821 0.77697283 -0.22443657 -0.98544997 0.05886860 -0.09435412
-21.25823021 -0.69096428 2.25340080 -0.80480134 -0.05235202 0.94733959
-22.71369362 0.11356439 2.26033449 -0.85990280 0.00860439 0.95025456
-18.75393867 -2.04238701 0.86716509 -0.70999306 -0.15474474 0.36456001
-19.99519539 -1.41921270 0.81756258 -0.75698495 -0.10752893 0.34370691
-18.30374908 -2.25174069 1.47621477 -0.69294959 -0.17060676 0.62060720
-19.46417618 -1.66633868 1.47226346 -0.73688143 -0.12625283 0.61894602
-21.40966225 -0.75000387 0.78367245 -0.81053436 -0.05682525 0.32945934
-26.26779366 0.06793514 0.82360131 -0.99445516 0.00514721 0.34624562
-21.16324997 -1.05063879 1.49004102 -0.80120558 -0.07960334 0.62641978
-25.49799919 -0.29768154 1.66291821 -0.96531200 -0.02255432 0.69909811
-25.04455376 0.98136902 0.65832812 -0.94814533 0.07435501 0.27676404
-26.16790390 0.63865709 1.57069147 -0.99067348 0.04838888 0.66032559
-25.86015129 1.60341525 1.40554500 -0.97902250 0.12148534 0.59089726
-18.82991600 -2.11896491 -0.41906005 -0.71286941 -0.16054678 -0.17617469
-19.99912453 -1.48654664 -0.55416846 -0.75713372 -0.11263060 -0.23297486
-18.29027748 -2.29323173 0.20035902 -0.69243962 -0.17375039 0.08423181
-19.17837524 -1.69907725 0.10718582 -0.72606152 -0.12873332 0.04506139
-21.34480095 -0.80533212 -0.66663778 -0.80807877 -0.06101728 -0.28025746
-23.05104256 -0.01619937 -0.85753167 -0.87267429 -0.00122737 -0.36051008
-25.54895592 -0.37887570 -0.07920865 -0.96724111 -0.02870613 -0.03329967
-18.51681709 -2.09857559 2.13552761 -0.70101601 -0.15900196 0.89778519
-19.61647415 -1.53723896 2.15167165 -0.74264723 -0.11647138 0.90457219
-26.11427498 0.61522967 -0.22470257 -0.98864317 0.04661386 -0.09446595
-25.97244263 1.59719121 -0.34502941 -0.98327363 0.12101376 -0.14505188
-18.40349197 -2.12093925 0.84907395 -0.69672573 -0.16069637 0.35695443
-19.57155800 -1.51321483 0.79775441 -0.74094677 -0.11465116 0.33537945
-18.11736107 -2.34426665 1.46103895 -0.68589324 -0.17761713 0.61422718
-19.26077080 -1.77110052 1.45632339 -0.72918087 -0.13419028 0.61224473
-21.48238564 -0.88780051 0.78702503 -0.81328750 -0.06726564 0.33086878
-25.96190834 -0.09621680 0.81240761 -0.98287481 -0.00729002 0.34153974
-20.48529816 -1.14540827 1.43839967 -0.77553946 -0.08678370 0.60470957
-21.87518120 -0.39575118 1.40715981 -0.82815808 -0.02998473 0.59157616
-26.02523232 0.85527050 0.68931872 -0.98527217 0.06480095 0.28979263
-25.93394279 0.47010958 1.55518699 -0.98181611 0.03561861 0.65380746
-25.49298477 1.41962063 1.38306463 -0.96512216 0.10755984 0.58144647
-18.57995033 -2.20888376 -0.41552854 -0.70340616 -0.16735964 -0.17469002
-19.79405022 -1.59661973 -0.55010068 -0.74936992 -0.12097047 -0.23126474
-18.16251945 -2.39309192 0.19826764 -0.68760288 -0.18131647 0.08335259
-18.90847969 -1.79524839 0.10387702 -0.71584368 -0.13601989 0.04367036
-22.80061150 -0.15950692 -0.84973079 -0.86319339 -0.01208530 -0.35723054
-21.90140724 -1.27472365 0.05905809 -0.82915097 -0.09658149 0.02482828
-25.29812241 -0.53435808 -0.07977777 -0.95774502 -0.04048650 -0.03353893
-18.35347366 -2.19678187 2.11711311 -0.69483209 -0.16644271 0.89004368
-19.42825699 -1.64555800 2.13085938 -0.73552161 -0.12467835 0.89582264
-26.20161247 0.45252311 -0.22498187 -0.99194962 0.03428614 -0.09458337
-25.59458351 1.41228747 -0.34194031 -0.96896851 0.10700423 -0.14375322
-18.45918274 -2.24504423 0.85279858 -0.69883406 -0.17009939 0.35852027
-19.34863281 -1.61855996 0.78756464 -0.73250717 -0.12263280 0.33109564
-17.94633102 -2.43670249 1.44725859 -0.67941833 -0.18462068 0.60843384
-19.04889107 -1.87260115 1.43972600 -0.72115946 -0.14188065 0.60526711
-21.83163452 -1.04001474 0.80232662 -0.82650948 -0.07879839 0.33730164
-25.68298912 -0.25677982 0.80223817 -0.97231543 -0.01945534 0.33726445
-20.26873207 -1.26088822 1.42230976 -0.76734060 -0.09553322 0.59794527
-21.56112289 -0.52589291 1.38517725 -0.81626838 -0.03984512 0.58233458
-26.11602020 0.69394970 0.69204944 -0.98870927 0.05257821 0.29094061
-26.23238373 1.66689682 0.51896918 -0.99311459 0.12629512 0.21817692
-25.79269791 0.30556467 1.54580629 -0.97646880 0.02315160 0.64986378
-25.16641808 1.24260545 1.36308217 -0.95275891 0.09414800 0.57304573
-18.32960892 -2.29574585 -0.41199699 -0.69392860 -0.17394088 -0.17320535
-19.59237289 -1.70451736 -0.54611593 -0.74173474 -0.12914550 -0.22958954
-17.96887589 -2.48233438 0.19496545 -0.68027186 -0.18807806 0.08196433
-18.69783974 -1.89407790 0.10133179 -0.70786923 -0.14350785 0.04260033
-20.88172722 -1.05034924 -0.65545231 -0.79054761 -0.07958140 -0.27555504
-22.53530884 -0.29949483 -0.84149313 -0.85314947 -0.02269171 -0.35376740
-20.34833145 -1.31122637 0.04516454 -0.77035409 -0.09934717 0.01898737
-21.57759094 -0.59441721 -0.08830997 -0.81689185 -0.04503698 -0.03712590
-18.16009331 -2.28926158 2.09506416 -0.68751103 -0.17344959 0.88077420
-19.23748207 -1.75139511 2.10981584 -0.72829920 -0.13269727 0.88697582
-26.27593422 0.28862077 -0.22522128 -0.99476331 0.02186782 -0.09468401
-25.52704811 1.24767470 -0.34133524 -0.96641177 0.09453208 -0.14349884
-20.57653809 -1.05672193 2.17851996 -0.77899361 -0.08006424 0.91585934
-22.08533669 -0.30645758 2.19416475 -0.83611423 -0.02321925 0.92243648
-18.19514084 -2.32875824 0.83938986 -0.68883789 -0.17644212 0.35288319
-19.12715340 -1.72134113 0.77747011 -0.72412235 -0.13042018 0.32685184
-17.76499939 -2.52566910 1.43260610 -0.67255342 -0.19136138 0.60227388
-18.88210487 -1.97623312 1.42690825 -0.71484518 -0.14973249 0.59987849
-21.90248108 -1.18143499 0.80567926 -0.82919163 -0.08951332 0.33871111
-25.37710762 -0.41343933 0.79111767 -0.96073526 -0.03132490 0.33258933
-20.06147766 -1.37438393 1.40698588 -0.75949430 -0.10413241 0.59150302
-21.45369720 -0.65827078 1.37784970 -0.81220144 -0.04987494 0.57925409
-26.19781113 0.53136569 0.69452614 -0.99180573 0.04025977 0.29198185
-25.71738625 1.47158766 0.50582874 -0.97361761 0.11149721 0.21265262
-25.89589119 0.14398541 1.55245101 -0.98037553 0.01090929 0.65265721
-25.00618744 1.07710361 1.35309088 -0.94669282 0.08160849 0.56884533
-18.20777512 -2.39665699 -0.41039446 -0.68931621 -0.18158658 -0.17253163
-19.38614845 -1.80957699 -0.54204822 -0.73392743 -0.13710551 -0.22787945
-17.80056000 -2.57298684 0.19214025 -0.67389971 -0.19494648 0.08077660
-18.56824303 -1.99901986 0.09983011 -0.70296293 -0.15145895 0.04196902
-20.66312981 -1.16934907 -0.65020597 -0.78227186 -0.08859761 -0.27334943
-22.27715111 -0.43630460 -0.83350509 -0.84337604 -0.03305732 -0.35040921
-20.12824249 -1.42387986 0.04326181 -0.76202190 -0.10788255 0.01818745
-21.50746727 -0.72781080 -0.08846143 -0.81423706 -0.05514375 -0.03718957
-17.99383163 -2.38307905 2.07640719 -0.68121666 -0.18055782 0.87293071
-19.02835464 -1.85318637 2.08669090 -0.72038198 -0.14040965 0.87725401
-26.34722900 0.12379444 -0.22545403 -0.99746245 0.00937949 -0.09478187
-25.84807777 1.10086715 -0.34383518 -0.97856539 0.08340897 -0.14454982
-20.34926224 -1.17307031 2.15370846 -0.77038932 -0.08887956 0.90542847
-21.58782005 -0.43569016 2.14185929 -0.81727910 -0.03301077 0.90044707
-18.00599098 -2.41943502 0.83002508 -0.68167698 -0.18331239 0.34894618
-18.91708755 -1.82254040 0.76794696 -0.71616960 -0.13808770 0.32284826
-17.60888100 -2.61629009 1.42022133 -0.66664308 -0.19822744 0.59706730
-18.68901634 -2.07501221 1.41195405 -0.70753521 -0.15721664 0.59359169
-20.39481926 -1.22727740 0.74103433 -0.77211404 -0.09298664 0.31153408
-21.80324745 -0.49512348 0.66037846 -0.82543480 -0.03751383 0.27762601
-19.85360527 -1.48532557 1.39166200 -0.75162458 -0.11253808 0.58506083
-21.41324997 -0.79176164 1.37531328 -0.81067014 -0.05998909 0.57818776
-26.27059174 0.36767557 0.69674885 -0.99456108 0.02785753 0.29291627
-25.49850082 1.29820168 0.50013292 -0.96533096 0.09836034 0.21025808
-22.97251129 -0.01431467 1.36157775 -0.86970121 -0.00108457 0.57241327
-18.02399826 -2.48758388 -0.40787193 -0.68235868 -0.18847579 -0.17147115
-19.18933487 -1.91309452 -0.53818798 -0.72647643 -0.14494869 -0.22625659
-17.62391090 -2.66041994 0.18916827 -0.66721207 -0.20157100 0.07952718
-18.38640404 -2.09657454 0.09766666 -0.69607878 -0.15885034 0.04105949
-20.44387054 -1.28564382 -0.64495969 -0.77397108 -0.09740888 -0.27114388
-22.00818253 -0.56963289 -0.82520503 -0.83319330 -0.04315915 -0.34691980
-19.57856560 -1.50813556 0.03839727 -0.74121207 -0.11426631 0.01614238
-21.43252373 -0.86019009 -0.08862207 -0.81139982 -0.06517369 -0.03725711
-17.82318115 -2.47434807 2.05726576 -0.67475611 -0.18747297 0.86488354
-18.84440613 -1.95505702 2.06657243 -0.71341801 -0.14812805 0.86879611
-26.19548798 -0.04139323 -0.22494863 -0.99171776 -0.00313622 -0.09456939
-25.93442726 0.94140285 -0.34447211 -0.98183441 0.07132690 -0.14481759
-20.14712715 -1.28827965 2.13180304 -0.76273686 -0.09760858 0.89621937
-21.57471657 -0.57106715 2.14080906 -0.81678301 -0.04326782 0.90000552
-23.09492302 0.22315992 2.18674278 -0.87433553 0.01690807 0.91931629
-17.82829094 -2.50951147 0.82129872 -0.67494953 -0.19013718 0.34527758
-18.76415062 -1.92702520 0.76118553 -0.71037966 -0.14600417 0.32000574
-17.52319717 -2.71611738 1.41411614 -0.66339922 -0.20579100 0.59450066
-18.48950005 -2.17075300 1.39650702 -0.69998181 -0.16447060 0.58709770
-20.19132996 -1.34221208 0.73260987 -0.76441032 -0.10169486 0.30799240
-21.58393669 -0.62605155 0.65247709 -0.81713206 -0.04743380 0.27430424
-19.65706253 -1.59468973 1.37725770 -0.74418384 -0.12082423 0.57900518
-21.65302277 -0.93666357 1.39264572 -0.81974757 -0.07096782 0.58547437
-26.36833191 0.20327206 0.69979709 -0.99826133 0.01540123 0.29419777
-25.73983955 1.14857781 0.50597864 -0.97446769 0.08702385 0.21271564
-22.74046898 -0.15685019 1.34646428 -0.86091650 -0.01188401 0.56605947
-26.00950241 0.79383510 1.41220582 -0.98467666 0.06014619 0.59369755
-17.86750793 -2.58032966 -0.40576491 -0.67643422 -0.19550283 -0.17058535
-18.82295799 -1.99646580 -0.53079963 -0.71260601 -0.15126544 -0.22315049
-17.47649765 -2.75043321 0.18674667 -0.66163123 -0.20839100 0.07850912
-18.23982048 -2.19618750 0.09596135 -0.69052941 -0.16639768 0.04034258
-20.24391937 -1.40063000 -0.64020836 -0.76640123 -0.10612099 -0.26914641
-21.56859398 -0.69429201 -0.81160039 -0.81655121 -0.05260415 -0.34120038
-19.40329742 -1.61716104 0.03690739 -0.73457670 -0.12252681 0.01551603
-21.57853699 -1.00174248 -0.08827325 -0.81692767 -0.07589863 -0.03711046
-17.66200066 -2.53668976 2.03885126 -0.66865408 -0.19219638 0.85714203
-18.64536285 -2.02346683 2.04437256 -0.70588255 -0.15331122 0.85946321
-25.86101151 -0.16247465 -0.22383805 -0.97905505 -0.01231015 -0.09410249
-25.98854828 0.82079720 -0.34487018 -0.98388338 0.06218902 -0.14498495
-19.93860054 -1.36911273 2.10900354 -0.75484240 -0.10373303 0.88663435
-21.34117317 -0.66575468 2.11644173 -0.80794144 -0.05044197 0.88976139
-22.82508850 0.11322428 2.15949583 -0.86412001 0.00857862 0.90786153
-17.67597008 -2.57291245 0.81374305 -0.66918296 -0.19494085 0.34210116
-18.77472687 -2.01754045 0.76213783 -0.71078002 -0.15286221 0.32040608
-17.58495140 -2.81069779 1.42074466 -0.66573709 -0.21295704 0.59728730
-18.31878281 -2.23845196 1.38319623 -0.69351876 -0.16959992 0.58150178
-19.95758438 -1.42093813 0.72280997 -0.75556105 -0.10765966 0.30387250
-21.37699318 -0.72107714 0.64501458 -0.80929756 -0.05463357 0.27116695
-19.44073296 -1.66917431 1.36116767 -0.73599392 -0.12646767 0.57224089
-21.84964371 -1.04815817 1.40687799 -0.82719129 -0.07941539 0.59145766
-26.34500885 0.07895905 0.69903505 -0.99737835 0.00598246 0.29387739
-25.92476273 1.03458571 0.51047534 -0.98146856 0.07838705 0.21460608
-22.50998306 -0.26114023 1.33148098 -0.85219067 -0.01978571 0.55976045
-24.18284798 0.62260282 1.30313456 -0.91552258 0.04717251 0.54784352
-17.71276665 -2.64308763 -0.40362817 -0.67057598 -0.20025779 -0.16968706
-17.53044128 -2.84372187 0.18799417 -0.66367346 -0.21545917 0.07903358
-18.36025429 -2.29836655 0.09764121 -0.69508880 -0.17413944 0.04104879
-20.00780869 -1.47883034 -0.63451660 -0.75746250 -0.11204596 -0.26675355
-21.40326500 -0.79010397 -0.80654544 -0.81029212 -0.05986350 -0.33907524
-19.25402832 -1.69597065 0.03563292 -0.72892559 -0.12849794 0.01498024
-21.73537254 -1.11153996 -0.08790149 -0.82286519 -0.08421762 -0.03695417
-17.46512032 -2.62030554 2.01655984 -0.66120052 -0.19853167 0.84777063
-18.49016380 -2.12440729 2.02772284 -0.70000696 -0.16095914 0.85246360
-25.57550621 -0.32116801 -0.22289373 -0.96824628 -0.02433381 -0.09370551
-26.07116318 0.65952450 -0.34549120 -0.98701102 0.04996993 -0.14524601
-19.73539352 -1.47960174 2.08709812 -0.74714929 -0.11210441 0.87742519
-21.38824654 -0.80171913 2.12190342 -0.80972356 -0.06074354 0.89205754
-22.82136917 -0.03018246 2.15909529 -0.86397922 -0.00228682 0.90769315
-17.49954987 -2.65943313 0.80512315 -0.66250396 -0.20149623 0.33847731
-18.42618942 -2.09764504 0.74604368 -0.69758499 -0.15893145 0.31364003
-17.65340424 -2.93560982 1.42841971 -0.66832864 -0.22242120 0.60051394
-18.15606499 -2.33460641 1.37087142 -0.68735856 -0.17688522 0.57632035
-19.52197075 -1.51282609 0.70441371 -0.73906946 -0.11462170 0.29613861
-21.44593430 -0.85826474 0.64772159 -0.81190753 -0.06502781 0.27230501
-19.27697754 -1.77703476 1.34936833 -0.72979444 -0.13463990 0.56728035
-20.75687981 -1.12750971 1.33008003 -0.78582108 -0.08542759 0.55917150
-26.03914261 -0.08533086 0.68931872 -0.98579878 -0.00646523 0.28979263
-26.00268555 0.87415087 0.51227403 -0.98441857 0.06623144 0.21536225
-21.85939407 -0.39038351 1.28913713 -0.82756042 -0.02957804 0.54195893
-23.88488007 0.46452767 1.28517413 -0.90424198 0.03519569 0.54029286
-17.53973579 -2.72985291 -0.40128371 -0.66402531 -0.20683169 -0.16870144
-18.62508011 -2.18301558 -0.52714694 -0.70511466 -0.16539969 -0.22161488
-17.57925606 -2.96519685 0.18924166 -0.66552150 -0.22466291 0.07955803
-18.19275665 -2.39376235 0.09568138 -0.68874764 -0.18136726 0.04022487
-19.80481720 -1.58880651 -0.62971574 -0.74977756 -0.12037848 -0.26473525
-21.13823700 -0.91359645 -0.79843259 -0.80025864 -0.06922010 -0.33566457
-18.94436264 -1.78839946 0.03294037 -0.71720219 -0.13550097 0.01384828
-21.77588463 -1.25079238 -0.08779134 -0.82439893 -0.09476830 -0.03690786
-17.60127449 -2.75410295 2.03545904 -0.66635507 -0.20866904 0.85571593
-18.29893494 -2.21921206 2.00691056 -0.69276738 -0.16814217 0.84371400
-25.28104210 -0.47612315 -0.22192281 -0.95709836 -0.03607424 -0.09329733
-26.14677620 0.49712721 -0.34606442 -0.98987365 0.03766564 -0.14548700
-19.53555298 -1.58791780 2.06563973 -0.73958367 -0.12031115 0.86840403
-22.81873894 -0.17355491 2.15889478 -0.86387962 -0.01314967 0.90760887
-17.51799393 -2.77499795 0.80703866 -0.66320223 -0.21025218 0.33928260
-18.35313416 -2.20629048 0.74318677 -0.69481927 -0.16716315 0.31243899
-17.69742393 -3.05739570 1.43400168 -0.66999513 -0.23164850 0.60286063
-17.96718216 -2.42536759 1.35641026 -0.68020773 -0.18376188 0.57024086
-19.29107857 -1.61670065 0.69487166 -0.73032826 -0.12249193 0.29212710
-21.77954102 -1.00839376 0.66015899 -0.82453734 -0.07640257 0.27753374
-19.07692337 -1.87934697 1.33481061 -0.72222072 -0.14239174 0.56116027
-20.32718849 -1.23272538 1.30020630 -0.76955366 -0.09339942 0.54661244
-25.75225258 -0.24598080 0.68023741 -0.97493762 -0.01863713 0.28597480
-26.06762314 0.71244043 0.51377296 -0.98687702 0.05397920 0.21599241
-23.59387589 0.31033355 1.26768935 -0.89322501 0.02351292 0.53294218
-17.48473740 -2.83388162 -0.40071985 -0.66194320 -0.21471360 -0.16846439
-18.44626236 -2.27981997 -0.52370179 -0.69834495 -0.17273423 -0.22016653
-17.63314247 -3.08843851 0.19059922 -0.66756153 -0.23400052 0.08012875
-17.99705315 -2.48334885 0.09336522 -0.68133861 -0.18815492 0.03925115
-19.61319351 -1.69733751 -0.62521189 -0.74252301 -0.12860151 -0.26284182
-20.94239616 -1.03718328 -0.79250395 -0.79284441 -0.07858386 -0.33317214
-18.81337357 -1.89523864 0.03186335 -0.71224314 -0.14359580 0.01339549
-20.36037254 -1.29920185 -0.09102706 -0.77080995 -0.09843612 -0.03826817
-17.66198540 -2.87749815 2.04515100 -0.66865349 -0.21801828 0.85979044
-18.12893105 -2.31444168 1.98864186 -0.68633127 -0.17535740 0.83603376
-21.63679504 -0.54057401 -0.20981291 -0.81913322 -0.04095746 -0.08820627
-26.21937561 0.33377874 -0.34662175 -0.99262214 0.02528928 -0.14572130
-19.32920074 -1.69325519 2.04351068 -0.73177153 -0.12829220 0.85910088
-21.15995026 -1.05978477 2.09900641 -0.80108064 -0.08029630 0.88243151
-22.03523636 -0.30536658 2.08015895 -0.83421755 -0.02313659 0.87450796
-17.58493042 -2.89907742 0.81161463 -0.66573632 -0.21965326 0.34120637
-18.25763893 -2.31136513 0.73928225 -0.69120395 -0.17512430 0.31079751
-17.77198029 -3.18550968 1.44237447 -0.67281771 -0.24135527 0.60638058
-17.80946732 -2.51827788 1.34457850 -0.67423689 -0.19080138 0.56526673
-19.08553123 -1.72009337 0.68644720 -0.72254658 -0.13032565 0.28858542
-21.87058067 -1.15027070 0.66374391 -0.82798392 -0.08715211 0.27904084
-18.88229942 -1.97984636 1.32071269 -0.71485257 -0.15000625 0.55523342
-20.10802650 -1.34650326 1.28526938 -0.76125658 -0.10201999 0.54033291
-25.45038986 -0.40279645 0.67071164 -0.96350956 -0.03051852 0.28197011
-26.15154076 0.55038470 0.51577151 -0.99005401 0.04170078 0.21683261
-21.49370384 -0.65377724 1.26568520 -0.81371599 -0.04953448 0.53209960
-23.32384872 0.15998459 1.25151300 -0.88300228 0.01212149 0.52614158
-17.52179146 -2.95305395 -0.40155080 -0.66334599 -0.22374289 -0.16881372
-18.24317360 -2.37139726 -0.51975858 -0.69065630 -0.17967273 -0.21850879
-17.68420410 -3.21211457 0.19192010 -0.66949469 -0.24337102 0.08068405
-17.81084633 -2.57198954 0.09117632 -0.67428911 -0.19487092 0.03833093
-20.69394684 -1.15549874 -0.78495276 -0.78343856 -0.08754822 -0.32999760
-18.57840347 -1.98931801 0.02985292 -0.70334756 -0.15072387 0.01255030
-20.13632202 -1.41220903 -0.09152274 -0.76232779 -0.10699829 -0.03847656
-17.72183800 -3.00176477 2.05484271 -0.67091942 -0.22743353 0.86386490
-17.94664383 -2.40605307 1.96898580 -0.67943019 -0.18229848 0.82777029
-21.50903702 -0.67251813 -0.20940061 -0.81429648 -0.05095442 -0.08803294
-26.28894997 0.16952312 -0.34716314 -0.99525607 0.01284419 -0.14594892
-19.13417244 -1.79719043 2.02272272 -0.72438806 -0.13616702 0.85036153
-20.42603874 -1.15243185 2.02212358 -0.77329600 -0.08731585 0.85010964
-21.57728767 -0.43421337 2.03427982 -0.81688035 -0.03289887 0.85522020
-17.62147522 -3.01901460 0.81459439 -0.66711986 -0.22874050 0.34245905
-18.08629036 -2.40540290 0.73175901 -0.68471700 -0.18224922 0.30763471
-17.82015991 -3.30992198 1.44847965 -0.67464173 -0.25078157 0.60894722
-17.64735413 -2.60872412 1.33241796 -0.66809958 -0.19765417 0.56015438
-18.86553192 -1.81960988 0.67742103 -0.71421778 -0.13786568 0.28479078
-20.44425392 -1.20543051 0.61172622 -0.77398556 -0.09133139 0.25717241
-18.70500946 -2.07997775 1.30799389 -0.70814067 -0.15759286 0.54988641
-19.88824654 -1.45757639 1.27033257 -0.75293607 -0.11043562 0.53405339
-21.90407562 -0.48151457 0.55811667 -0.82925200 -0.03648273 0.23463470
-26.22245216 0.38711613 0.51747024 -0.99273860 0.02933048 0.21754676
-21.44130707 -0.78701007 1.26255822 -0.81173235 -0.05962908 0.53078502
-23.02492523 0.01300071 1.23367155 -0.87168550 0.00098502 0.51864094
-17.60136414 -3.08043671 -0.40303463 -0.66635847 -0.23339425 -0.16943753
-18.08127975 -2.46614170 -0.51668698 -0.68452728 -0.18685119 -0.21721748
-17.74619293 -3.33878517 0.19346112 -0.67184144 -0.25296843 0.08133190
-17.65984344 -2.66371751 0.08944557 -0.66857243 -0.20182084 0.03760331
-20.48475266 -1.27317417 -0.77864969 -0.77551877 -0.09646409 -0.32734776
-18.47413826 -2.09554076 0.02902720 -0.69940025 -0.15877202 0.01220316
-19.57262802 -1.49687707 -0.09279867 -0.74098724 -0.11341330 -0.03901296
-17.76909256 -3.12481999 2.06308079 -0.67270839 -0.23675701 0.86732823
-17.78950691 -2.49902940 1.95233595 -0.67348123 -0.18934299 0.82077062
-21.36648941 -0.80233967 -0.20894174 -0.80889988 -0.06079056 -0.08784003
-26.25749779 0.00431247 -0.34690836 -0.99406534 0.00032674 -0.14584179
-18.95442963 -1.90034556 2.00372314 -0.71758330 -0.14398274 0.84237403
-20.21789360 -1.26837242 2.00090718 -0.76541597 -0.09610028 0.84119016
-21.53434944 -0.56868976 2.03027296 -0.81525481 -0.04308769 0.85353565
-23.20884514 0.25998807 2.01950073 -0.87864840 0.01969841 0.84900695
-17.68865967 -3.14515471 0.81927681 -0.66966337 -0.23829770 0.34442756
-17.91844368 -2.49792671 0.72442615 -0.67836261 -0.18925944 0.30455193
-17.88508034 -3.43847013 1.45615482 -0.67709953 -0.26052123 0.61217386
-17.53013039 -2.70417094 1.32403708 -0.66366166 -0.20488586 0.55663103
-18.68280411 -1.92035317 0.67002809 -0.70730001 -0.14549865 0.28168276
-20.20889854 -1.31924677 0.60338587 -0.76507539 -0.09995485 0.25366607
-18.49750900 -2.17443538 1.29297662 -0.70028502 -0.16474959 0.54357302
-19.67185020 -1.56625402 1.25567746 -0.74474365 -0.11866976 0.52789229
-21.60489273 -0.61049664 0.54871786 -0.81792545 -0.04625526 0.23068340
-26.30233955 0.22307061 0.51941884 -0.99576300 0.01690130 0.21836597
-21.63930893 -0.93065113 1.27584767 -0.81922835 -0.07051228 0.53637195
-22.75104141 -0.13034596 1.21737623 -0.86131674 -0.00987587 0.51179034
-17.64461136 -3.20246720 -0.40398428 -0.66799575 -0.24264008 -0.16983676
-17.89318466 -2.55530024 -0.51307583 -0.67740631 -0.19360644 -0.21569933
-17.79354858 -3.46367097 0.19474530 -0.67363429 -0.26243061 0.08187178
-17.49456596 -2.75149131 0.08753664 -0.66231525 -0.20847116 0.03680079
-20.27291107 -1.38813245 -0.77228421 -0.76749879 -0.10517409 -0.32467169
-18.21043968 -2.18132734 0.02676546 -0.68941706 -0.16527177 0.01125232
-19.44522858 -1.61020982 -0.09306946 -0.73616415 -0.12200014 -0.03912681
-17.84401894 -3.22486186 2.07422662 -0.67554498 -0.24433684 0.87201399
-17.62416267 -2.56072736 1.93429863 -0.66722161 -0.19401763 0.81318766
-21.43640137 -0.90621322 -0.20918781 -0.81154662 -0.06866071 -0.08794347
-25.94323921 -0.11823780 -0.34440842 -0.98216802 -0.00895848 -0.14479081
-18.77134323 -1.97119176 1.98405290 -0.71065193 -0.14935051 0.83410454
-20.00331306 -1.34978402 1.97885072 -0.75729227 -0.10226855 0.83191752
-21.41607475 -0.66646183 2.01865292 -0.81077713 -0.05049555 0.84865057
-22.89119530 0.14826965 1.98987699 -0.86662275 0.01123389 0.83655304
-17.74435425 -3.24147534 0.82310784 -0.67177182 -0.24559559 0.34603816
-17.75222015 -2.56026936 0.71699810 -0.67206961 -0.19398293 0.30142915
-17.93121719 -3.53511477 1.46173668 -0.67884618 -0.26784366 0.61452055
-17.58413315 -2.79732013 1.32962441 -0.66570616 -0.21194346 0.55897993
-18.73910141 -2.01549435 0.67286491 -0.70943135 -0.15270717 0.28287536
-20.00107193 -1.40056729 0.59599656 -0.75720745 -0.10611624 0.25055957
-18.32872772 -2.24203420 1.28071749 -0.69389528 -0.16987133 0.53841925
-19.49128342 -1.64452505 1.24341798 -0.73790771 -0.12460009 0.52273840
-21.41797447 -0.70606631 0.54287535 -0.81084901 -0.05349625 0.22822718
-26.36907768 0.09942139 0.52106762 -0.99828959 0.00753282 0.21905911
-21.86591721 -1.04386759 1.29096115 -0.82780737 -0.07909030 0.54272574
-25.60498238 -0.26481330 1.38746560 -0.96936220 -0.02006401 0.58329666
-17.70991135 -3.30069304 -0.40520105 -0.67046791 -0.25008231 -0.17034830
-17.73453903 -2.61814713 -0.51000428 -0.67140025 -0.19836813 -0.21440804
-17.85349083 -3.56282997 0.19617625 -0.67590356 -0.26994354 0.08247335
-17.50904655 -2.83835006 0.08789298 -0.66286349 -0.21505216 0.03695060
-18.81663704 -2.07529020 -0.60650343 -0.71236670 -0.15723771 -0.25497672
-20.09866142 -1.47155786 -0.76704204 -0.76090199 -0.11149495 -0.32246783
-18.38648224 -2.29056239 0.02845279 -0.69608176 -0.17354815 0.01196168
-19.30193138 -1.69010437 -0.09338155 -0.73073912 -0.12805347 -0.03925801
-17.90924644 -3.35308576 2.08488750 -0.67801440 -0.25405192 0.87649584
-17.54879189 -2.66253948 1.92736125 -0.66436815 -0.20173159 0.81027114
-21.74389839 -1.05641377 -0.21023187 -0.82318795 -0.08004089 -0.08838240
-25.66200638 -0.27842480 -0.34217915 -0.97152102 -0.02109530 -0.14385362
-18.57688522 -2.06866193 1.96348858 -0.70329010 -0.15673549 0.82545924
-19.80400276 -1.46158254 1.95868468 -0.74974674 -0.11073915 0.82343966
-21.49497986 -0.80421269 2.02706742 -0.81376433 -0.06093247 0.85218805
-23.01514244 0.00457169 2.00135612 -0.87131518 0.00034638 0.84137893
-17.79034424 -3.36559868 0.82672608 -0.67351294 -0.25500000 0.34755927
-17.58364868 -2.64901686 0.70966530 -0.66568780 -0.20070702 0.29834640
-18.00038910 -3.66650128 1.46993506 -0.68146491 -0.27779835 0.61796713
-17.64291763 -2.92035580 1.33603323 -0.66793162 -0.22126545 0.56167424
-18.35486031 -2.09050274 0.65678966 -0.69488460 -0.15839030 0.27611727
-19.47369194 -1.48717904 0.57697463 -0.73724169 -0.11267851 0.24256267
-18.15805435 -2.33686996 1.26861167 -0.68743384 -0.17705671 0.53332990
-19.27391243 -1.74843144 1.22876298 -0.72967839 -0.13247272 0.51657736
-21.45705795 -0.84239137 0.54427248 -0.81232864 -0.06382514 0.22881454
-26.06727600 -0.06573550 0.51352316 -0.98686385 -0.00498056 0.21588740
-21.66961670 -1.17082703 1.27858377 -0.82037580 -0.08870959 0.53752226
-22.00963402 -0.36880022 1.17336714 -0.83324826 -0.02794274 0.49328870
-17.78109169 -3.42980695 -0.40659586 -0.67316264 -0.25986484 -0.17093468
-17.57740021 -2.70806718 -0.50705719 -0.66545123 -0.20518106 -0.21316907
-17.90711594 -3.69076324 0.19760720 -0.67793375 -0.27963662 0.08307493
-17.57370949 -2.96217203 0.08896197 -0.66531152 -0.22443374 0.03740000
-18.61657333 -2.17149973 -0.60185105 -0.70479262 -0.16452718 -0.25302082
-19.83791542 -1.57809472 -0.75917882 -0.75103062 -0.11956689 -0.31916210
-18.19328499 -2.38247323 0.02683726 -0.68876761 -0.18051192 0.01128250
-19.04399490 -1.78842270 -0.09395067 -0.72097409 -0.13550273 -0.03949727
-17.82741737 -3.45377302 2.07737637 -0.67491651 -0.26168066 0.87333816
-17.59255600 -2.78229928 1.93452990 -0.66602504 -0.21080539 0.81328487
-21.77277565 -1.19501936 -0.21035157 -0.82428122 -0.09054256 -0.08843272
-25.37179756 -0.43495184 -0.33988622 -0.96053421 -0.03295483 -0.14288966
-18.41352844 -2.16751933 1.94650066 -0.69710565 -0.16422559 0.81831741
-19.58624077 -1.56951904 1.93662810 -0.74150264 -0.11891714 0.81416696
-21.63263512 -0.94564450 2.04149246 -0.81897575 -0.07164828 0.85825241
-22.99281120 -0.13992192 1.99931955 -0.87046975 -0.01060141 0.84052271
-17.85898590 -3.49505687 0.83162135 -0.67611164 -0.26480860 0.34961727
-17.52717972 -2.75329018 0.70776063 -0.66354996 -0.20860747 0.29754567
-18.06666374 -3.79848361 1.47795904 -0.68397397 -0.28779823 0.62134045
-17.70477676 -3.04491162 1.34277081 -0.67027348 -0.23070262 0.56450677
-18.34929657 -2.20675087 0.65713352 -0.69467396 -0.16719803 0.27626181
-19.28069687 -1.59454310 0.57024378 -0.72993523 -0.12081312 0.23973300
-17.99482346 -2.43072701 1.25711882 -0.68125421 -0.18416794 0.52849829
-19.06196976 -1.85024381 1.21453071 -0.72165459 -0.14018670 0.51059407
-21.75685692 -0.99139994 0.55398881 -0.82367855 -0.07511501 0.23289934
-25.77244949 -0.22716016 0.50617850 -0.97570223 -0.01721115 0.21279967
-20.34909439 -1.22651899 1.19272339 -0.77038300 -0.09292918 0.50142616
-21.56377792 -0.49728221 1.14696157 -0.81636888 -0.03767738 0.48218769
-17.81801224 -3.55325913 -0.40748614 -0.67456043 -0.26921839 -0.17130896
-17.45538139 -2.80177975 -0.50485730 -0.66083181 -0.21228135 -0.21224423
-17.97547913 -3.82285547 0.19933167 -0.68052185 -0.28964481 0.08379991
-17.62568092 -3.08486295 0.08987825 -0.66727906 -0.23372960 0.03778521
-18.44382858 -2.26872563 -0.59789157 -0.69825280 -0.17189364 -0.25135624
-19.64834023 -1.68749774 -0.75356221 -0.74385363 -0.12785599 -0.31680086
-18.02937889 -2.47616243 0.02549099 -0.68256241 -0.18761043 0.01071652
-18.91694832 -1.89659512 -0.09421688 -0.71616429 -0.14369859 -0.03960919
-17.87737465 -3.58022141 2.08634138 -0.67680776 -0.27126125 0.87710708
-17.67863846 -2.90976262 1.94678605 -0.66928393 -0.22046284 0.81843740
-20.40346909 -1.24722016 -0.20581618 -0.77244151 -0.09449764 -0.08652603
-21.83158302 -0.51432663 -0.31171805 -0.82650757 -0.03896879 -0.13104764
-18.23586273 -2.26267815 1.92794812 -0.69037956 -0.17143545 0.81051785
-19.39565659 -1.67714727 1.91751242 -0.73428744 -0.12707177 0.80613065
-21.10557747 -1.05501640 1.98900187 -0.79902220 -0.07993501 0.83618510
-22.16708755 -0.27491856 1.92266810 -0.83920920 -0.02082965 0.80829811
-17.89929962 -3.61993670 0.83502674 -0.67763782 -0.27427033 0.35104892
-17.56474876 -2.87232590 0.71042717 -0.66497231 -0.21762639 0.29866672
-18.13198853 -3.93144274 1.48598301 -0.68644702 -0.29787210 0.62471378
-17.74024773 -3.16583586 1.34737206 -0.67161638 -0.23986465 0.56644112
-18.24389648 -2.31035018 0.65317917 -0.69068366 -0.17504740 0.27459940
