2.89286256 8.54526043 2.11249924 0.57282650 0.89220858 0.92141211
0.73799020 8.41965485 -0.26328698 0.14613220 0.87909412 -0.11483829
0.38138932 8.35955334 1.42421973 0.07552032 0.87281895 0.62120420
1.03628182 8.41120911 -0.31379738 0.20519803 0.87821227 -0.13686951
0.81465936 8.40839863 1.39388847 0.16131374 0.87791884 0.60797453
0.62982476 8.40962315 0.01686752 0.12471396 0.87804669 0.00735713
0.18095204 8.33697224 1.85924315 0.03583099 0.87046123 0.81094903
0.91504592 8.40270233 -0.03028205 0.18119167 0.87732410 -0.01320817
0.62635100 8.35275078 1.81927121 0.12402610 0.87210864 0.79351437
1.39446580 8.53877926 -0.35205823 0.27612337 0.89153183 -0.15355779
1.34500539 8.56198692 1.36872745 0.26632956 0.89395493 0.59700000
1.77467942 8.93124390 -0.42218316 0.35141090 0.93250901 -0.18414429
1.91601241 9.05708122 1.37986028 0.37939677 0.94564766 0.60185581
1.26890099 8.52308464 -0.06050901 0.25125983 0.88989317 -0.02639231
1.14510989 8.39741135 1.77835643 0.22674748 0.87677169 0.77566856
1.62364388 8.56449509 1.75157964 0.32150379 0.89421684 0.76398927
0.72811627 8.40756035 0.89109051 0.14417702 0.87783134 0.38866836
0.99779272 8.39131546 0.84489006 0.19757667 0.87613517 0.36851704
2.02952099 8.95246506 -0.16836926 0.40187302 0.93472469 -0.07343788
2.74893665 8.80808258 1.68311107 0.54432720 0.91964972 0.73412520
1.38602936 8.55739212 0.83625108 0.27445287 0.89347523 0.36474895
1.77919352 8.99099827 0.82938790 0.35230476 0.93874794 0.36175543
1.25994408 8.56015396 1.12424791 0.24948624 0.89376360 0.49036500
1.65652037 9.03988457 1.15637505 0.32801378 0.94385213 0.50437796
2.20115066 9.23201370 0.81698054 0.43585807 0.96391231 0.35634369
2.53880882 9.20142365 0.74901241 0.50271904 0.96071839 0.32669792
2.04024410 9.12731552 1.12647045 0.40399635 0.95298076 0.49133441
0.71256250 8.40147305 0.31123501 0.14109716 0.87719572 0.13575187
1.00902295 8.40229607 0.26541042 0.19980040 0.87728167 0.11576448
0.59573048 8.41496181 0.60020548 0.11796282 0.87860411 0.26179257
0.88521713 8.39849186 0.55792695 0.17528515 0.87688446 0.24335188
1.36450350 8.55447102 0.23470658 0.27019045 0.89317024 0.10237234
1.78735983 8.50517559 2.21376729 0.35392180 0.88802332 0.96558237
1.23848426 8.56520844 0.52678508 0.24523690 0.89429134 0.22976868
1.62132919 8.97529316 0.50601643 0.32104546 0.93710816 0.22070999
2.82925105 8.53374100 2.10509062 0.56023055 0.89100581 0.91818070
0.68412995 8.41216373 -0.26310894 0.13546713 0.87831193 -0.11476064
0.32863960 8.35587788 1.42318976 0.06507515 0.87243515 0.62075496
0.98341256 8.41755390 -0.31379738 0.19472919 0.87887472 -0.13686951
0.76199466 8.41531467 1.39422178 0.15088540 0.87864095 0.60811990
0.57604951 8.39944744 0.01661068 0.11406571 0.87698424 0.00724511
0.12904702 8.37499809 1.86765814 0.02555308 0.87443149 0.81461942
0.86223245 8.40828609 -0.03028205 0.17073387 0.87790710 -0.01320817
0.57385707 8.35652161 1.81927121 0.11363158 0.87250239 0.79351437
1.33865142 8.53354073 -0.35171178 0.26507136 0.89098489 -0.15340668
1.29089320 8.56831646 1.36840785 0.25561458 0.89461583 0.59686059
1.71738315 8.93633175 -0.42199594 0.34006545 0.93304020 -0.18406263
1.85946894 9.07087708 1.38016224 0.36820039 0.94708806 0.60198754
1.21365976 8.51900482 -0.06061671 0.24032131 0.88946718 -0.02643929
1.09133554 8.39667988 1.77668321 0.21609943 0.87669528 0.77493870
1.50083363 8.46175766 -0.11812448 0.29718569 0.88349003 -0.05152254
1.56729853 8.56104279 1.74876988 0.31034663 0.89385641 0.76276374
0.68880302 8.41485596 0.89157510 0.13639246 0.87859303 0.38887972
0.95800865 8.39395046 0.84465885 0.18969887 0.87641031 0.36841619
1.99159765 8.98146439 -0.16843577 0.39436370 0.93775249 -0.07346690
2.31801677 8.95696735 -0.21151325 0.45899916 0.93519479 -0.09225607
2.71146655 8.83408833 1.68567252 0.53690761 0.92236501 0.73524243
1.34356105 8.55007935 0.83468640 0.26604354 0.89271170 0.36406648
1.73756731 9.00318623 0.82980806 0.34406221 0.94002044 0.36193869
1.22123754 8.57775497 1.12598193 0.24182181 0.89560127 0.49112132
1.54876602 8.68704987 1.10472620 0.30667695 0.90701276 0.48185018
2.11369443 9.05228138 0.79734671 0.41854054 0.94514650 0.34777999
2.48440123 9.17294312 0.74512434 0.49194556 0.95774472 0.32500207
1.97751594 9.04578304 1.11386538 0.39157531 0.94446802 0.48583642
0.67249995 8.39876461 0.31091577 0.13316423 0.87691295 0.13561262
0.96918339 8.40497398 0.26531520 0.19191162 0.87756127 0.11572295
0.55644906 8.42364025 0.60072881 0.11018456 0.87951022 0.26202083
0.84522176 8.39860439 0.55759829 0.16736552 0.87689620 0.24320853
1.32297337 8.55290413 0.23436274 0.26196691 0.89300662 0.10222237
1.74332345 8.49454498 2.20875788 0.34520200 0.88691336 0.96339744
1.18127966 8.44846439 0.51728427 0.23390959 0.88210207 0.22562470
1.50661290 8.57625866 0.47684729 0.29833004 0.89544505 0.20798723
2.78900552 8.54697895 2.10509062 0.55226141 0.89238799 0.91818070
0.64418530 8.41130543 -0.26304957 0.12755755 0.87822235 -0.11473475
0.28945005 8.36324120 1.42421973 0.05731509 0.87320399 0.62120420
0.94259787 8.41216183 -0.31358987 0.18664733 0.87831175 -0.13677900
0.72302336 8.42666912 1.39555514 0.14316855 0.87982649 0.60870147
0.53695214 8.41005230 0.01675745 0.10632390 0.87809151 0.00730912
0.09024052 8.45547485 1.88581657 0.01786886 0.88283408 0.82253957
0.82259989 8.41225529 -0.03028205 0.16288608 0.87832153 -0.01320817
0.53434235 8.35718441 1.81883907 0.10580713 0.87257159 0.79332590
1.29605627 8.52393532 -0.35131586 0.25663695 0.88998199 -0.15323399
1.24657702 8.54694366 1.36393452 0.24683937 0.89238429 0.59490949
1.67115629 8.92272091 -0.42130947 0.33091190 0.93161911 -0.18376322
1.80846763 9.03884506 1.37382162 0.35810143 0.94374359 0.59922194
1.15554202 8.39184475 -0.06181938 0.22881319 0.87619048 -0.02696386
1.04889584 8.37843513 1.77166367 0.20769578 0.87479037 0.77274936
1.47128189 8.52783871 -0.11798678 0.29133403 0.89038956 -0.05146248
1.52345574 8.54905224 1.74475598 0.30166516 0.89260447 0.76101297
0.63504916 8.40713787 0.89012134 0.12574846 0.87778723 0.38824564
0.90329081 8.38203239 0.84257758 0.17886399 0.87516594 0.36750838
2.64566064 8.81707382 1.67908585 0.52387714 0.92058849 0.73236954
1.28864682 8.55048847 0.83379227 0.25516978 0.89275444 0.36367649
1.67616832 8.98851871 0.82707721 0.33190435 0.93848902 0.36074758
1.14845240 8.44402504 1.10517347 0.22740935 0.88163859 0.48204526
1.47070467 8.56198692 1.08546257 0.29121974 0.89395493 0.47344792
2.04805493 9.02655220 0.79333979 0.40554300 0.94246012 0.34603226
2.42517948 9.18259907 0.74456888 0.48021886 0.95875293 0.32475978
1.92064095 9.05803013 1.11386538 0.38031328 0.94574672 0.48583642
0.61886352 8.39087105 0.31027725 0.12254348 0.87608880 0.13533412
0.91458547 8.39501381 0.26455334 0.18110049 0.87652135 0.11539065
0.50305498 8.41901398 0.60003108 0.09961180 0.87902719 0.26171651
0.79205161 8.39978123 0.55726963 0.15683711 0.87701911 0.24306518
1.26747775 8.54918480 0.23384695 0.25097799 0.89261830 0.10199739
1.69182551 8.51482201 2.21126270 0.33500469 0.88903046 0.96448994
1.12713730 8.44781113 0.51667136 0.22318867 0.88203388 0.22535737
1.44324934 8.53049946 0.47290170 0.28578320 0.89066738 0.20626628
2.71915293 8.51432705 2.09258890 0.53842962 0.88897878 0.91272783
0.59145850 8.41718197 -0.26307926 0.11711691 0.87883592 -0.11474770
0.23664191 8.35504723 1.42250299 0.04685835 0.87234843 0.62045538
0.88929451 8.41394234 -0.31350684 0.17609254 0.87849766 -0.13674277
0.66893637 8.41728783 1.39322186 0.13245860 0.87884694 0.60768378
0.48343965 8.40128040 0.01653730 0.09572769 0.87717563 0.00721310
0.03711952 8.45977592 1.88670242 0.00735017 0.88328314 0.82292598
0.76860678 8.40531158 -0.03043476 0.15219469 0.87759650 -0.01327478
0.48170534 8.35842800 1.81840694 0.09538428 0.87270141 0.79313743
1.24133968 8.52399349 -0.35111788 0.24580231 0.88998806 -0.15314764
1.19285071 8.55460739 1.36393452 0.23620082 0.89318448 0.59490949
1.54484951 8.54961014 -0.40914017 0.30590144 0.89266270 -0.17845531
1.75505936 9.06749153 1.37653899 0.34752586 0.94673455 0.60040718
1.10304761 8.40092278 -0.06180143 0.21841858 0.87713832 -0.02695603
0.99623227 8.38486004 1.77166367 0.19726768 0.87546116 0.77274936
1.41534519 8.52310944 -0.11801891 0.28025779 0.88989580 -0.05147649
1.46870232 8.55266476 1.74355173 0.29082322 0.89298165 0.76048774
0.58274263 8.41888523 0.89109051 0.11539105 0.87901372 0.38866836
0.85060745 8.38754272 0.84257758 0.16843197 0.87574130 0.36750838
2.21682334 9.03197765 -0.21189542 0.43896148 0.94302660 -0.09242276
2.59466887 8.84860706 1.68201327 0.51378006 0.92388088 0.73364639
1.23238456 8.54070663 0.83178055 0.24402907 0.89173311 0.36279905
1.62108576 9.00669956 0.82791752 0.32099724 0.94038731 0.36111408
1.09537470 8.45107460 1.10517347 0.21689923 0.88237464 0.48204526
1.41556919 8.56324673 1.08434582 0.28030214 0.89408648 0.47296083
1.99299479 9.04701900 0.79414117 0.39464036 0.94459707 0.34638181
2.36643481 9.19379997 0.74419856 0.46858659 0.95992243 0.32459825
1.85974360 9.05049610 1.11118340 0.36825478 0.94496006 0.48466662
2.22358561 9.18740749 1.07318282 0.44030049 0.95925498 0.46809185
0.56664848 8.40256596 0.31070292 0.11220419 0.87730986 0.13551979
0.86265498 8.40854168 0.26493427 0.17081754 0.87793380 0.11555680
0.44994408 8.41802883 0.59968221 0.08909511 0.87892431 0.26156434
0.73872066 8.39863682 0.55677664 0.14627683 0.87689960 0.24285015
1.20656216 8.50552559 0.23161188 0.23891588 0.88805985 0.10102252
1.14419687 8.37142658 2.22946167 0.22656670 0.87405860 0.97242785
1.51724756 8.55415630 0.18007469 0.30043587 0.89313740 0.07854346
1.63274443 8.49677563 2.20374870 0.32330582 0.88714623 0.96121258
1.07378972 8.45274734 0.51651812 0.21262512 0.88254929 0.22529052
1.39124787 8.54924107 0.47360626 0.27548620 0.89262414 0.20657359
2.66852498 8.54052258 2.09490418 0.52840459 0.89171386 0.91373765
0.53745502 8.40276814 -0.26281217 0.10642347 0.87733096 -0.11463120
0.18487495 8.39379787 1.42902660 0.03660778 0.87639439 0.62330079
0.83438641 8.39947033 -0.31309175 0.16521998 0.87698662 -0.13656172
0.61469865 8.40362644 1.39022183 0.12171878 0.87742060 0.60637528
0.43005863 8.39216805 0.01631716 0.08515751 0.87622422 0.00711708
-0.01591781 8.43253708 1.88050187 -0.00315194 0.88043910 0.82022148
0.71438468 8.39403725 -0.03063838 0.14145797 0.87641937 -0.01336359
0.42875925 8.35348988 1.81667840 0.08490022 0.87218583 0.79238349
1.16987073 8.40088272 -0.34785131 0.23165047 0.87713408 -0.15172285
1.11989546 8.41510773 1.33996975 0.22175469 0.87861931 0.58445674
1.48658049 8.53355598 -0.40832889 0.29436335 0.89098650 -0.17810147
1.69400680 9.05697155 1.37321770 0.33543661 0.94563615 0.59895855
1.04683781 8.37989616 -0.06205274 0.20728827 0.87494290 -0.02706564
0.94074917 8.36568165 1.76622581 0.18628126 0.87345880 0.77037752
1.36080575 8.52591133 -0.11803268 0.26945823 0.89018834 -0.05148250
1.41234374 8.54626560 1.74034071 0.27966347 0.89231348 0.75908715
0.52923471 8.41247272 0.88987905 0.10479574 0.87834424 0.38813996
0.79769772 8.39074421 0.84234637 0.15795511 0.87607557 0.36740756
1.16322124 8.43405247 0.81881613 0.23033379 0.88059735 0.35714433
1.48284781 8.55244827 0.77813262 0.29362422 0.89295906 0.33939934
1.03916812 8.43224812 1.10141647 0.20576957 0.88040894 0.48040655
1.35826886 8.55046463 1.08127487 0.26895589 0.89275193 0.47162136
1.93199563 9.03989410 0.79213768 0.38256168 0.94385314 0.34550795
2.30227304 9.18338966 0.74179167 0.45588169 0.95883548 0.32354844
1.80054665 9.05033398 1.10957432 0.35653296 0.94494313 0.48396477
2.17453074 9.23786736 1.07801616 0.43058696 0.96452349 0.47020000
0.51314056 8.39399815 0.31006441 0.10160888 0.87641531 0.13524128
0.80882502 8.40385532 0.26445812 0.16015847 0.87744451 0.11534911
0.39668736 8.41272831 0.59898448 0.07854955 0.87837088 0.26126000
0.68493450 8.39119530 0.55579066 0.13562644 0.87612265 0.24242009
1.14071155 8.41984558 0.22757158 0.22587655 0.87911403 0.09926026
1.08961570 8.36312008 2.22532010 0.21575888 0.87319130 0.97062141
1.45732725 8.52807331 0.17875780 0.28857082 0.89041406 0.07796907
1.57574666 8.48783779 2.19873953 0.31201950 0.88621306 0.95902771
1.01901972 8.44546509 0.51544541 0.20177990 0.88178897 0.22482264
1.33468997 8.54008102 0.47233805 0.26428694 0.89166778 0.20602043
2.61137414 8.54596424 2.09212589 0.51708794 0.89228201 0.91252583
0.48497945 8.41196918 -0.26290119 0.09603259 0.87829167 -0.11467002
0.13249917 8.42237473 1.43383348 0.02623666 0.87937808 0.62539744
0.78254461 8.41450024 -0.31329930 0.15495458 0.87855589 -0.13665225
0.56229407 8.41322517 1.39122188 0.11134195 0.87842280 0.60681146
0.37808552 8.41268539 0.01664737 0.07486613 0.87836641 0.00726111
-0.06916866 8.45762444 1.88625944 -0.01369634 0.88305849 0.82273275
0.66179150 8.40035343 -0.03061293 0.13104381 0.87707883 -0.01335249
0.37617204 8.35406780 1.81624627 0.07448723 0.87224615 0.79219502
1.11680508 8.40608501 -0.34780183 0.22114274 0.87767726 -0.15170127
1.06724346 8.42393780 1.34028935 0.21132886 0.87954128 0.58459610
1.43326890 8.54469872 -0.40839130 0.28380692 0.89214993 -0.17812867
1.63564479 9.05965710 1.37200999 0.32388014 0.94591659 0.59843177
0.99462640 8.39028168 -0.06201684 0.19694969 0.87602729 -0.02704998
0.88917601 8.38115406 1.76831734 0.17606907 0.87507427 0.77128977
1.30843925 8.54219723 -0.11801432 0.25908893 0.89188874 -0.05147449
1.35768294 8.54916763 1.73913646 0.26883987 0.89261651 0.75856191
0.47615266 8.41166687 0.88939446 0.09428477 0.87826008 0.38792858
0.74496174 8.39559078 0.84234637 0.14751266 0.87658155 0.36740756
2.05612922 8.85856724 -0.21025532 0.40714183 0.92492086 -0.09170740
1.10715246 8.41754055 0.81613380 0.21923140 0.87887335 0.35597438
1.42410147 8.53218174 0.77498168 0.28199166 0.89084303 0.33802497
0.98526657 8.43074608 1.10026038 0.19509631 0.88025212 0.47990230
1.30633628 8.57057285 1.08294988 0.25867254 0.89485139 0.47235197
1.87475920 9.04990482 0.79193735 0.37122807 0.94489837 0.34542057
2.24024057 9.18027115 0.74012530 0.44359842 0.95850986 0.32282162
1.74031472 9.04394531 1.10716057 0.34460622 0.94427609 0.48291197
2.04901743 8.95948792 1.03960383 0.40573359 0.93545794 0.45344564
0.46018067 8.39306736 0.30985159 0.09112209 0.87631810 0.13514845
0.75416958 8.38887882 0.26350582 0.14933594 0.87588078 0.11493375
0.34366807 8.41107273 0.59863555 0.06805100 0.87819803 0.26110780
0.63235235 8.39732075 0.55595499 0.12521446 0.87676221 0.24249177
1.09054768 8.44865227 0.22851717 0.21594343 0.88212174 0.09967270
1.03681457 8.36788368 2.22480249 0.20530352 0.87368870 0.97039562
1.40272868 8.53114796 0.17853831 0.27775955 0.89073509 0.07787333
1.52100146 8.48995018 2.19673586 0.30117917 0.88643360 0.95815372
0.96549213 8.44773769 0.51513898 0.19118071 0.88202620 0.22468899
1.28070486 8.54632568 0.47219715 0.25359714 0.89231980 0.20595898
2.54528236 8.52121735 2.08193922 0.50400084 0.88969821 0.90808272
0.43162757 8.40486431 -0.26275280 0.08546819 0.87754983 -0.11460531
0.07945284 8.40530872 1.43074334 0.01573275 0.87759620 0.62404960
0.72824013 8.40331745 -0.31296724 0.14420155 0.87738830 -0.13650742
0.50781089 8.39100647 1.38688862 0.10055353 0.87610292 0.60492140
0.32406157 8.38292122 0.01606032 0.06416864 0.87525874 0.00700505
-0.12194594 8.43557167 1.88138771 -0.02414697 0.88075596 0.82060784
0.60795236 8.39038563 -0.03079109 0.12038292 0.87603813 -0.01343020
0.32303217 8.34065819 1.81278920 0.06396481 0.87084609 0.79068714
1.06224370 8.39904690 -0.34745535 0.21033885 0.87694246 -0.15155014
1.01290679 8.41871262 1.33837211 0.20056947 0.87899572 0.58375990
1.37600088 8.53183556 -0.40770483 0.27246708 0.89080685 -0.17782927
1.49010861 8.56742001 1.29411137 0.29506198 0.89452225 0.56445462
0.94058043 8.38443756 -0.06212454 0.18624784 0.87541705 -0.02709696
0.83555138 8.37684250 1.76622581 0.16545065 0.87462407 0.77037752
1.25090599 8.52453423 -0.11807398 0.24769656 0.89004451 -0.05150052
1.30334103 8.55365658 1.73833370 0.25807944 0.89308518 0.75821173
0.42329153 8.41449261 0.88939446 0.08381754 0.87855512 0.38792858
0.69118875 8.38822937 0.84095889 0.13686487 0.87581295 0.36680236
1.05496812 8.43024921 0.81680435 0.20889817 0.88020027 0.35626686
1.36918557 8.53310871 0.77414143 0.27111754 0.89093977 0.33765849
0.93248820 8.43873787 1.10054934 0.18464547 0.88108653 0.48002833
1.24722779 8.54335022 1.07792461 0.24696824 0.89200908 0.47016007
1.81515050 9.04784203 0.79053497 0.35942474 0.94468296 0.34480888
1.68202400 9.04690456 1.10608780 0.33306387 0.94458508 0.48244408
2.00310850 9.01864052 1.04570913 0.39664301 0.94163406 0.45610860
0.40743676 8.39579296 0.30985159 0.08067808 0.87660271 0.13514845
0.70195973 8.39942265 0.26379150 0.13899767 0.87698168 0.11505836
0.29106939 8.42103100 0.59933335 0.05763574 0.87923777 0.26141217
0.57943630 8.39913940 0.55579066 0.11473635 0.87695211 0.24242009
1.03243136 8.41367722 0.22671193 0.20443559 0.87847000 0.09888530
0.98421746 8.37423325 2.22480249 0.19488858 0.87435162 0.97039562
1.34751594 8.52992535 0.17817250 0.26682666 0.89060742 0.07771378
1.46629202 8.49171066 2.19473219 0.29034597 0.88661742 0.95727980
0.91155773 8.44570446 0.51452601 0.18050095 0.88181394 0.22442162
1.22755754 8.55815220 0.47247896 0.24307325 0.89355457 0.20608190
2.48949456 8.52957535 2.08008718 0.49295413 0.89057088 0.90727490
0.37881008 8.40740967 -0.26275280 0.07500960 0.87781560 -0.11460531
0.02664985 8.41943455 1.43314683 0.00527704 0.87907112 0.62509793
0.67592126 8.41370487 -0.31309175 0.13384169 0.87847286 -0.13656172
0.45574808 8.40584469 1.38888860 0.09024438 0.87765217 0.60579371
0.27174312 8.39678478 0.01628046 0.05380887 0.87670624 0.00710108
-0.17485516 8.43073940 1.88050187 -0.03462372 0.88025147 0.82022148
0.55549604 8.39803028 -0.03074019 0.10999585 0.87683630 -0.01340800
0.27082443 8.34837818 1.81408560 0.05362696 0.87165213 0.79125261
1.00921667 8.40356922 -0.34740588 0.19983876 0.87741458 -0.15152857
0.96020955 8.42687225 1.33869171 0.19013467 0.87984765 0.58389926
1.32236695 8.54031277 -0.40770483 0.26184681 0.89169198 -0.17782927
1.43558669 8.57271481 1.29350746 0.28426588 0.89507508 0.56419122
0.88726425 8.38421345 -0.06217839 0.17569052 0.87539369 -0.02712045
0.78237045 8.37608433 1.76497090 0.15492010 0.87454492 0.76983017
1.18234205 8.42728996 -0.11831724 0.23411997 0.87989128 -0.05160662
1.24813390 8.55198669 1.73632669 0.24714765 0.89291084 0.75733638
0.38303533 8.40251064 0.88769835 0.07584625 0.87730408 0.38718879
0.65149403 8.38941288 0.84072763 0.12900476 0.87593657 0.36670148
1.95642626 8.87087917 -0.21017571 0.38739929 0.92620635 -0.09167267
1.01360059 8.42131042 0.81523973 0.20070684 0.87926698 0.35558441
1.32740676 8.52964306 0.77309114 0.26284477 0.89057797 0.33720037
0.89250797 8.44107056 1.10026038 0.17672884 0.88133013 0.47990230
1.20188808 8.51384735 1.07289934 0.23799035 0.88892871 0.46796820
1.76871443 9.03675842 0.78853148 0.35022974 0.94352573 0.34393501
2.11596084 9.10547352 0.73068273 0.41898930 0.95070028 0.31870306
1.63762915 9.04497528 1.10474682 0.32427308 0.94438368 0.48185918
1.95633435 9.00860310 1.04316521 0.38738108 0.94058603 0.45499903
0.36770296 8.39362907 0.30963874 0.07281024 0.87637675 0.13505562
0.66139990 8.39069080 0.26322010 0.13096626 0.87606996 0.11480913
0.25116459 8.41434288 0.59863555 0.04973404 0.87853950 0.26110780
0.53918695 8.39183235 0.55496901 0.10676643 0.87618917 0.24206170
0.99345928 8.42440319 0.22696982 0.19671859 0.87958986 0.09899779
0.94241399 8.35765553 2.21910787 0.18661092 0.87262076 0.96791178
1.30976260 8.55198002 0.17875780 0.25935099 0.89291012 0.07796907
1.42333484 8.48134708 2.19022393 0.28183985 0.88553536 0.95531344
0.86894989 8.42212868 0.51238066 0.17206402 0.87935239 0.22348589
1.16464806 8.40382767 0.46106493 0.23061632 0.87744159 0.20110342
2.44332576 8.52065277 2.07499385 0.48381206 0.88963926 0.90505338
1.53249621 8.56894302 0.43014261 0.30345529 0.89468122 0.18761598
0.33903551 8.40510464 -0.26269346 0.06713369 0.87757492 -0.11457942
-0.01299472 8.41158581 1.43177342 -0.00257313 0.87825161 0.62449890
0.63486546 8.39885521 -0.31271821 0.12571208 0.87692243 -0.13639879
0.41541588 8.39411354 1.38655531 0.08225805 0.87642735 0.60477602
0.23358315 8.45394516 0.01730781 0.04625267 0.88267434 0.00754918
-0.22767612 8.89967251 1.98723841 -0.04508300 0.92921263 0.86677694
0.51540554 8.39257145 -0.03084200 0.10205738 0.87626636 -0.01345240
0.23171626 8.35736847 1.81581414 0.04588300 0.87259078 0.79200655
0.96713775 8.38637733 -0.34686145 0.19150656 0.87561959 -0.15129110
0.91881186 8.41559887 1.33613539 0.18193737 0.87867063 0.58278430
1.27939618 8.52866364 -0.40714318 0.25333801 0.89047569 -0.17758428
1.39291954 8.56573009 1.29139400 0.27581722 0.89434576 0.56326938
0.84794116 8.39029217 -0.06216044 0.16790400 0.87602836 -0.02711262
0.74272251 8.37772942 1.76455259 0.14706926 0.87471670 0.76964772
1.13851738 8.40304947 -0.11838608 0.22544208 0.87736034 -0.05163664
1.20809829 8.55971241 1.73672807 0.23922005 0.89371747 0.75751144
0.33023360 8.40475082 0.88769835 0.06539079 0.87753797 0.38718879
0.59730780 8.37352848 0.83841515 0.11827515 0.87427807 0.36569285
1.52851570 8.59883499 -0.16688628 0.30266711 0.89780223 -0.07279105
1.92179179 8.98073292 -0.21097186 0.38054118 0.93767613 -0.09201993
0.95978683 8.41961193 0.81434560 0.19005097 0.87908959 0.35519442
1.27259517 8.52994919 0.77225089 0.25199133 0.89060992 0.33683389
0.83926290 8.44454193 1.09997141 0.16618559 0.88169253 0.47977626
1.13491344 8.42312813 1.05894017 0.22472845 0.87945676 0.46187961
1.70860958 9.03008842 0.78672838 0.33832815 0.94282931 0.34314856
2.02727008 8.98073769 0.71753722 0.40142733 0.93767661 0.31296936
1.49764657 8.57265568 1.03850317 0.29655460 0.89506888 0.45296556
1.89762807 9.01101589 1.04189324 0.37575641 0.94083798 0.45444423
0.31509742 8.39976597 0.30985159 0.06239362 0.87701750 0.13514845
0.60821909 8.38870430 0.26293442 0.12043574 0.87586254 0.11468452
0.19947043 8.47152901 0.60351974 0.03949789 0.88451028 0.26323816
0.48620898 8.39107609 0.55464035 0.09627605 0.87611020 0.24191836
0.94007438 8.42650700 0.22679789 0.18614765 0.87980956 0.09892280
0.88988304 8.36341190 2.21910787 0.17620906 0.87322181 0.96791178
1.25069690 8.52445793 0.17744090 0.24765517 0.89003658 0.07739468
1.36970425 8.48821163 2.18972301 0.27122027 0.88625211 0.95509493
0.81639010 8.43139362 0.51268715 0.16165645 0.88031977 0.22361957
1.11395204 8.42679787 0.46219227 0.22057781 0.87983990 0.20159513
1.89394963 8.49662590 2.13183856 0.37502804 0.88713062 0.92984742
1.46892834 8.52134418 0.42636421 0.29086798 0.88971144 0.18596795
0.28590226 8.39707565 -0.26254508 0.05661257 0.87673664 -0.11451470
-0.06578510 8.40542698 1.43074334 -0.01302635 0.87760860 0.62404960
0.58222473 8.40467262 -0.31275970 0.11528850 0.87752980 -0.13641690
0.36302572 8.40443802 1.38788867 0.07188408 0.87750530 0.60535759
0.18076408 8.47124004 0.01760134 0.03579377 0.88448012 0.00767720
-0.28565356 8.95849228 2.00096798 -0.05656333 0.93535399 0.87276536
0.46208930 8.38566208 -0.03096926 0.09150003 0.87554491 -0.01350791
0.17859527 8.33328152 1.81019640 0.03536432 0.87007588 0.78955621
0.91548479 8.40222931 -0.34710890 0.18127856 0.87727469 -0.15139903
0.86591727 8.42120552 1.33613539 0.17146352 0.87925601 0.58278430
1.20932269 8.42378426 -0.40358600 0.23946251 0.87952524 -0.17603274
1.33845305 8.57040787 1.29079008 0.26503208 0.89483416 0.56300592
0.79336917 8.37553978 -0.06233994 0.15709800 0.87448806 -0.02719091
0.68975788 8.37833118 1.76371598 0.13658154 0.87477952 0.76928282
1.08621895 8.41400242 -0.11837690 0.21508627 0.87850392 -0.05163264
1.13619161 8.43513680 1.70943356 0.22498155 0.88071054 0.74560636
0.27747950 8.40864468 0.88794065 0.05494475 0.87794453 0.38729447
0.54521871 8.38504410 0.83934015 0.10796079 0.87548041 0.36609632
1.45847106 8.51361084 -0.16656709 0.28879732 0.88890404 -0.07265183
0.90541065 8.41164017 0.81278092 0.17928374 0.87825727 0.35451195
1.21840358 8.53384018 0.77183074 0.24126065 0.89101619 0.33665064
0.78493774 8.43585205 1.09794831 0.15542845 0.88078523 0.47889385
1.08171046 8.42812920 1.05866098 0.21419352 0.87997890 0.46175784
1.64936519 9.02693748 0.78532594 0.32659698 0.94250035 0.34253687
1.96391344 8.96218872 0.71457481 0.38888183 0.93573993 0.31167722
1.44051135 8.56234360 1.03582132 0.28524104 0.89399219 0.45179582
1.83616257 8.99944687 1.03884065 0.36358541 0.93963003 0.45311278
0.26185429 8.38560867 0.30900022 0.05185075 0.87553936 0.13477711
0.55495262 8.38438797 0.26255348 0.10988824 0.87541187 0.11451837
0.14626826 8.47460747 0.60369420 0.02896313 0.88483167 0.26331425
0.43240091 8.37406158 0.55299705 0.08562132 0.87433374 0.24120159
0.88731515 8.43423462 0.22688386 0.17570059 0.88061637 0.09896029
0.83637857 8.35922527 2.21651959 0.16561444 0.87278467 0.96678287
1.18016934 8.41343117 0.17305121 0.23368974 0.87844431 0.07548002
1.31453884 8.48517418 2.18671751 0.26029673 0.88593495 0.95378405
0.76339835 8.43635654 0.51268715 0.15116335 0.88083792 0.22361957
1.05743074 8.40592670 0.46021947 0.20938581 0.87766075 0.20073466
1.83890307 8.50076580 2.12990665 0.36412808 0.88756287 0.92900473
1.42083311 8.56388855 0.42857912 0.28134447 0.89415354 0.18693404
0.23470677 8.46067905 -0.26346505 0.04647516 0.88337743 -0.11491597
-0.11846605 8.39696789 1.42936993 -0.02345791 0.87672538 0.62345052
0.52823126 8.39020729 -0.31238613 0.10459705 0.87601948 -0.13625395
0.30982482 8.39669991 1.38622200 0.06134957 0.87669736 0.60463065
0.12733211 8.45621300 0.01730781 0.02521351 0.88291115 0.00754918
-0.34209308 8.96041775 2.00185370 -0.06773913 0.93555504 0.87315172
0.40867561 8.37441921 -0.03114742 0.08092339 0.87437105 -0.01358562
0.12863618 8.47091103 1.84044588 0.02547173 0.88444573 0.80275017
0.86068141 8.38792133 -0.34661397 0.17042674 0.87578082 -0.15118316
0.81150949 8.41075516 1.33357918 0.16069002 0.87816489 0.58166933
1.15167272 8.39755917 -0.40252507 0.22804701 0.87678713 -0.17557000
1.28190124 8.56105709 1.28807271 0.25383407 0.89385790 0.56182069
0.74055749 8.37836647 -0.06235789 0.14664055 0.87478322 -0.02719874
0.63609749 8.36884689 1.76078796 0.12595604 0.87378925 0.76800567
1.03035080 8.39684772 -0.11843199 0.20402361 0.87671280 -0.05165667
1.08240795 8.43628120 1.70822930 0.21433164 0.88083005 0.74508107
0.22473772 8.41419125 0.88842523 0.04450116 0.87852365 0.38750583
0.49155357 8.37244129 0.83749014 0.09733436 0.87416452 0.36528939
1.40751541 8.53839874 -0.16662028 0.27870739 0.89149213 -0.07267503
1.64484632 8.56579018 1.66937113 0.32570216 0.89435208 0.72813225
0.85293227 8.42111874 0.81322795 0.16889231 0.87924695 0.35470691
1.14507627 8.39948273 0.75670624 0.22674084 0.87698793 0.33005375
0.73125362 8.43272877 1.09679234 0.14479826 0.88045913 0.47838965
1.02775609 8.42689800 1.05754423 0.20350982 0.87985039 0.46127075
1.51929545 8.61561489 0.74225169 0.30084136 0.89955425 0.32374910
1.90714562 8.97240448 0.71438968 0.37764102 0.93680656 0.31159648
1.38606060 8.56731129 1.03528488 0.27445903 0.89451087 0.45156184
1.77997017 9.01275158 1.03909504 0.35245854 0.94101918 0.45322374
0.21055460 8.44898510 0.31229919 0.04169270 0.88215649 0.13621603
0.50263405 8.39369106 0.26283917 0.09952845 0.87638324 0.11464298
0.09312070 8.48731327 0.60474080 0.01843918 0.88615829 0.26377076
0.38034755 8.38855934 0.55398303 0.07531404 0.87584740 0.24163166
0.83276969 8.42373180 0.22619615 0.16489984 0.87951976 0.09866033
0.78348869 8.36046696 2.21548414 0.15514152 0.87291431 0.96633124
1.12512374 8.40483761 0.17246592 0.22278996 0.87754703 0.07522473
1.25917673 8.47986412 2.18321109 0.24933429 0.88538057 0.95225465
0.70923918 8.42707348 0.51161450 0.14043911 0.87986869 0.22315170
1.00531816 8.41834545 0.46064222 0.19906680 0.87895739 0.20091905
1.49414909 8.55860710 0.13809225 0.29586205 0.89360207 0.06023192
1.77915156 8.48174667 2.12217855 0.35229644 0.88557708 0.92563397
1.36575830 8.56476021 0.42805797 0.27043891 0.89424449 0.18670672
0.18192336 8.48198128 -0.26376182 0.03602332 0.88560158 -0.11504541
-0.17194216 8.42757416 1.43486357 -0.03404691 0.87992096 0.62584668
0.47609359 8.40334129 -0.31259367 0.09427307 0.87739080 -0.13634448
0.25706103 8.39848137 1.38622200 0.05090161 0.87688339 0.60463065
0.07408338 8.43884945 0.01697759 0.01466953 0.88109821 0.00740514
-0.39838591 8.95809174 2.00185370 -0.07888588 0.93531215 0.87315172
0.35604987 8.37682152 -0.03114742 0.07050277 0.87462187 -0.01358562
0.07525521 8.45788288 1.83742094 0.01490156 0.88308549 0.80143082
0.80777514 8.39117336 -0.34656450 0.15995057 0.87612033 -0.15116158
0.75830245 8.41175461 1.33294010 0.15015431 0.87826926 0.58139062
1.10073435 8.41850090 -0.40296194 0.21796052 0.87897360 -0.17576055
1.22666013 8.55916023 1.28656304 0.24289556 0.89365983 0.56116223
0.68758291 8.37886715 -0.06239379 0.13615087 0.87483549 -0.02721440
0.58337104 8.37072659 1.76036966 0.11551548 0.87398553 0.76782322
0.97757185 8.40315533 -0.11843199 0.19357266 0.87737137 -0.05165667
1.02768779 8.42930508 1.70541966 0.20349629 0.88010168 0.74385560
0.17279495 8.46704578 0.89472497 0.03421577 0.88404220 0.39025360
0.43926495 8.38131523 0.83818388 0.08698049 0.87509108 0.36559200
1.34921587 8.51743317 -0.16652054 0.26716328 0.88930309 -0.07263152
1.58816540 8.56050968 1.66630411 0.31447858 0.89380074 0.72679448
0.79762411 8.40058422 0.81032217 0.15794054 0.87710297 0.35343951
1.09149551 8.40059662 0.75607604 0.21613111 0.87710422 0.32977888
0.67702442 8.42137241 1.09448028 0.13406013 0.87927341 0.47738120
0.97432423 8.42925549 1.05698586 0.19292958 0.88009650 0.46102720
1.45362794 8.55629921 0.73523957 0.28783831 0.89336109 0.32069060
1.84504747 8.95691681 0.71179760 0.36534473 0.93518949 0.31046587
1.33250320 8.57781029 1.03555310 0.26385394 0.89560705 0.45167884
1.71841288 8.99843693 1.03578806 0.34026936 0.93952459 0.45178130
0.15775590 8.46811390 0.31325698 0.03123784 0.88415372 0.13663380
0.44943854 8.38870525 0.26245826 0.08899500 0.87586266 0.11447684
0.03978729 8.48573780 0.60456634 0.00787843 0.88599378 0.26369464
0.32730314 8.38281727 0.55332571 0.06481051 0.87524790 0.24134494
0.78072226 8.43874836 0.22662598 0.15459374 0.88108766 0.09884781
0.72963518 8.34982586 2.21134257 0.14447778 0.87180328 0.96452481
1.07383764 8.42363358 0.17290489 0.21263461 0.87950951 0.07541620
1.19590306 8.41861916 2.16517782 0.23680523 0.87898594 0.94438905
0.65642667 8.43335247 0.51176769 0.12998150 0.88052428 0.22321852
0.95217574 8.42251396 0.46050128 0.18854387 0.87939262 0.20085758
1.43446243 8.53232861 0.13694915 0.28404325 0.89085835 0.05973333
1.72429633 8.48514652 2.12024665 0.34143436 0.88593209 0.92479134
1.30686426 8.53962326 0.42584306 0.25877708 0.89161998 0.18574063
0.12834547 8.46096134 -0.26343536 0.02541417 0.88340688 -0.11490302
-0.23778720 8.86945915 1.51211655 -0.04708513 0.92605805 0.65954226
0.42296866 8.40017605 -0.31246915 0.08375360 0.87706035 -0.13629016
0.20518330 8.43344307 1.39188850 0.04062911 0.88053375 0.60710222
0.02106061 8.45314598 0.01723443 0.00417029 0.88259089 0.00751717
-0.45424980 8.94762135 2.00008225 -0.08994770 0.93421894 0.87237906
0.30325562 8.37489700 -0.03119833 0.06004878 0.87442094 -0.01360783
0.02208222 8.45233059 1.83612454 0.00437258 0.88250577 0.80086535
0.75521052 8.39807415 -0.34661397 0.14954206 0.87684089 -0.15118316
0.70543522 8.41635323 1.33294010 0.13968587 0.87874937 0.58139062
1.04555488 8.40740204 -0.40240026 0.20703423 0.87781477 -0.17551556
1.15676320 8.45116615 1.26874900 0.22905500 0.88238418 0.55339223
0.63448507 8.37703800 -0.06244764 0.12563676 0.87464446 -0.02723789
0.53064609 8.37227440 1.75995135 0.10507522 0.87414712 0.76764077
0.92319053 8.39521980 -0.11846411 0.18280441 0.87654287 -0.05167068
0.97447544 8.43365002 1.70501816 0.19295952 0.88055533 0.74368048
0.13273485 8.45585537 0.89327121 0.02628332 0.88287377 0.38961953
0.39976421 8.38329220 0.83818388 0.07915881 0.87529749 0.36559200
1.31145501 8.53951645 -0.16657373 0.25968611 0.89160883 -0.07265473
1.54918528 8.57562828 1.66783762 0.30675995 0.89537925 0.72746336
0.75889742 8.41414928 0.81143975 0.15027212 0.87851930 0.35392696
1.05164492 8.40367317 0.75586599 0.20824014 0.87742543 0.32968727
0.63834405 8.43828583 1.09650326 0.12640089 0.88103938 0.47826356
0.93280888 8.41801071 1.05475247 0.18470897 0.87892246 0.46005306
1.41552746 8.57680321 0.73664200 0.28029388 0.89550191 0.32130229
1.80321562 8.96746349 0.71198273 0.35706148 0.93629068 0.31054664
1.28916252 8.56438923 1.03287113 0.25527188 0.89420581 0.45050904
1.67378640 8.99473858 1.03426170 0.33143270 0.93913847 0.45111555
0.11780325 8.46476936 0.31304413 0.02332666 0.88380450 0.13654095
0.40969825 8.38673973 0.26226780 0.08112588 0.87565744 0.11439376
-0.00019628 8.48383904 0.60439193 -0.00003887 0.88579553 0.26361859
0.28823581 8.39621735 0.55431169 0.05707465 0.87664700 0.24177501
0.73805845 8.40848827 0.22516458 0.14614572 0.87792820 0.09821039
0.69012517 8.35124588 2.21082497 0.13665426 0.87195152 0.96429902
1.02916753 8.38893604 0.17144167 0.20378931 0.87588674 0.07477798
1.15005708 8.38005543 2.15365672 0.22772710 0.87495953 0.93936384
0.61569411 8.42242813 0.51069504 0.12191589 0.87938368 0.22275066
0.91203612 8.42294216 0.46021947 0.18059568 0.87943733 0.20073466
1.39392149 8.53701973 0.13688564 0.27601561 0.89134812 0.05970563
1.68317282 8.48746395 2.11879778 0.33329135 0.88617402 0.92415935
1.26919949 8.56346035 0.42701566 0.25131893 0.89410877 0.18625210
0.08844066 8.45747280 -0.26337603 0.01751246 0.88304269 -0.11487714
-0.28044656 8.89383984 1.51658010 -0.05553227 0.92860365 0.66148913
0.38337919 8.40207672 -0.31246915 0.07591435 0.87725878 -0.13629016
0.16561322 8.44220257 1.39322186 0.03279369 0.88144833 0.60768378
-0.01877399 8.45315075 0.01723443 -0.00371751 0.88259143 0.00751717
-0.49674672 8.95122242 2.00141096 -0.09836268 0.93459493 0.87295860
0.26412562 8.38622665 -0.03107107 0.05230050 0.87560385 -0.01355232
-0.01774555 8.46210480 1.83828521 -0.00351386 0.88352627 0.80180776
0.71397841 8.38161469 -0.34611905 0.14137754 0.87512231 -0.15096729
0.66455930 8.40383530 1.33038390 0.13159187 0.87744236 0.58027565
1.00471389 8.40231419 -0.40208822 0.19894715 0.87728357 -0.17537946
1.11323559 8.42909145 1.26452196 0.22043593 0.88007939 0.55154854
0.59541279 8.38592052 -0.06239379 0.11789991 0.87557191 -0.02721440
0.49041846 8.36101341 1.75702333 0.09710959 0.87297136 0.76636362
0.88276273 8.39152241 -0.11848247 0.17479914 0.87615681 -0.05167869
0.93207747 8.41478634 1.70020151 0.18456414 0.87858576 0.74157959
0.07957505 8.45255184 0.89278662 0.01575695 0.88252884 0.38940814
0.34682199 8.37968445 0.83749014 0.06867552 0.87492079 0.36528939
1.25319004 8.51591778 -0.16646732 0.24814884 0.88914490 -0.07260831
1.46636319 8.41688442 1.63448417 0.29036006 0.87880486 0.71291554
1.54037476 8.42644024 -0.20605159 0.30501536 0.87980258 -0.08987385
2.03421712 8.86695862 1.65895975 0.40280294 0.92579699 0.72359109
0.70504719 8.40686607 0.81009865 0.13960902 0.87775880 0.35334200
0.99810475 8.40419197 0.75523579 0.19763845 0.87747961 0.32941240
0.58465183 8.43225670 1.09505832 0.11576910 0.88040984 0.47763333
0.88116175 8.43552113 1.05642760 0.17448214 0.88075072 0.46078369
1.36038184 8.57766342 0.73584062 0.26937428 0.89559174 0.32095277
1.74414361 8.96493816 0.71068674 0.34536439 0.93602699 0.30998135
1.23810661 8.59194279 1.03555310 0.24516211 0.89708263 0.45167884
1.61546314 8.99531841 1.03298974 0.31988388 0.93919897 0.45056078
0.06462602 8.46733952 0.31315055 0.01279684 0.88407284 0.13658737
0.35663599 8.38116550 0.26188686 0.07061882 0.87507546 0.11422761
-0.05338008 8.46972466 0.60317087 -0.01056999 0.88432187 0.26308599
0.23717485 8.45364761 0.55891293 0.04696388 0.88264328 0.24378194
0.68694359 8.43487072 0.22611019 0.13602427 0.88068277 0.09862284
0.63778180 8.35734367 2.21134257 0.12628956 0.87258822 0.96452481
0.97761667 8.40516090 0.17180747 0.19358154 0.87758082 0.07493754
1.09456730 8.36600399 2.14814663 0.21673936 0.87349242 0.93696052
0.56263453 8.42413998 0.51054180 0.11140937 0.87956238 0.22268382
0.85619664 8.40072632 0.45824668 0.16953869 0.87711775 0.19987418
1.33903432 8.53770733 0.13663162 0.26514718 0.89141995 0.05959483
1.62800622 8.48833752 2.11638260 0.32236761 0.88626522 0.92310596
1.20462286 8.49417782 0.42193440 0.23853187 0.88687503 0.18403579
1.51177347 8.53758335 0.37846705 0.29935190 0.89140701 0.16507657
0.03529586 8.45586109 -0.26334634 0.00698907 0.88287437 -0.11486419
-0.33584845 8.88008976 1.51452005 -0.06650261 0.92716801 0.66059059
0.33016306 8.39433002 -0.31226161 0.06537682 0.87644994 -0.13619964
0.11272157 8.45293522 1.39488840 0.02232042 0.88256890 0.60841066
-0.07184235 8.44886684 0.01716105 -0.01422577 0.88214409 0.00748516
-0.55297875 8.94792461 2.00141096 -0.10949739 0.93425059 0.87295860
0.21280953 8.43769741 -0.03043476 0.04213921 0.88097793 -0.01327478
-0.07090215 8.45987320 1.83785307 -0.01403960 0.88329327 0.80161929
0.66160619 8.38992214 -0.34621802 0.13100712 0.87598974 -0.15101045
0.61202067 8.41178417 1.33102298 0.12118850 0.87827235 0.58055443
0.95190108 8.40846157 -0.40208822 0.18848950 0.87792540 -0.17537946
1.06025243 8.43591976 1.26452196 0.20994455 0.88079232 0.55154854
0.54221398 8.38151169 -0.06246559 0.10736582 0.87511158 -0.02724572
0.43816787 8.36979008 1.75827813 0.08676326 0.87388772 0.76691097
0.83102787 8.40685272 -0.11845952 0.16455494 0.87775743 -0.05166868
0.88106114 8.43801022 1.70381403 0.17446221 0.88101059 0.74315524
0.02647351 8.46479702 0.89424038 0.00524212 0.88380736 0.39004225
0.29401538 8.37772846 0.83702767 0.05821908 0.87471658 0.36508769
1.18595552 8.42456818 -0.16613482 0.23483549 0.87960708 -0.07246329
1.43489861 8.55568600 1.66017008 0.28412965 0.89329708 0.72411901
1.50429296 8.53045082 -0.20681591 0.29787067 0.89066225 -0.09020723
1.97976029 8.88531971 1.66005754 0.39201972 0.92771405 0.72406995
0.65236062 8.41311169 0.81032217 0.12917636 0.87841094 0.35343951
0.94391888 8.39844131 0.75397545 0.18690890 0.87687922 0.32886267
0.53153950 8.43378830 1.09476924 0.10525212 0.88056976 0.47750723
0.82517129 8.41133404 1.05223978 0.16339526 0.87822533 0.45895708
1.30616558 8.58407402 0.73564029 0.25863874 0.89626110 0.32086539
1.68517458 8.96202660 0.70939070 0.33368772 0.93572301 0.30941606
1.16283798 8.44242954 1.01409769 0.23025790 0.88147199 0.44232059
1.47905719 8.55002689 0.97371769 0.29287365 0.89270622 0.42470798
0.01143374 8.45759201 0.31261846 0.00226404 0.88305509 0.13635530
0.30381441 8.37924767 0.26169640 0.06015943 0.87487519 0.11414453
-0.10647608 8.46125317 0.60247314 -0.02108373 0.88343740 0.26278165
0.18429555 8.46493435 0.55973458 0.03649305 0.88382173 0.24414031
0.63204896 8.41311264 0.22499266 0.12515438 0.87841105 0.09813540
0.58343577 8.33420181 2.20409513 0.11552830 0.87017196 0.96136367
0.92277771 8.39326191 0.17114902 0.18272266 0.87633842 0.07465034
1.04295599 8.38039970 2.15015030 0.20651962 0.87499547 0.93783444
0.50946218 8.42352772 0.51023531 0.10088051 0.87949848 0.22255014
0.80456436 8.41785336 0.45909214 0.15931480 0.87890601 0.20024295
1.28243768 8.52617741 0.13599657 0.25394028 0.89021611 0.05931784
1.57010233 8.47357941 2.11010385 0.31090182 0.88472438 0.92036736
1.14123046 8.42640209 0.41698343 0.22597931 0.87979859 0.18187632
1.45776045 8.54494572 0.37834811 0.28865659 0.89217567 0.16502470
-0.01785229 8.45991611 -0.26340568 -0.00353500 0.88329774 -0.11489007
-0.39273277 8.90142250 1.51864016 -0.07776649 0.92939532 0.66238767
0.27741376 8.39623928 -0.31226161 0.05493173 0.87664926 -0.13619964
0.05947779 8.43967342 1.39255512 0.01177742 0.88118422 0.60739297
-0.12496076 8.45024872 0.01719774 -0.02474395 0.88228840 0.00750117
-0.60823029 8.93065453 1.99831057 -0.12043795 0.93244743 0.87160629
0.15957667 8.42887115 -0.03056202 0.03159837 0.88005638 -0.01333029
-0.12395960 8.45145035 1.83612454 -0.02454570 0.88241386 0.80086535
0.60775936 8.37795734 -0.34582210 0.12034470 0.87474048 -0.15083776
0.55802089 8.39773083 1.32814717 0.11049580 0.87680501 0.57930005
0.89883351 8.41228867 -0.40202582 0.17798138 0.87832499 -0.17535223
1.00579393 8.43063927 1.26271033 0.19916101 0.88024098 0.55075836
0.48864716 8.36877918 -0.06260920 0.09675885 0.87378216 -0.02730835
0.38505924 8.36065388 1.75576842 0.07624702 0.87293380 0.76581627
0.77440941 8.37208748 -0.11855131 0.15334371 0.87412763 -0.05170871
0.82371664 8.40049076 1.69498348 0.16310722 0.87709320 0.73930365
-0.02675669 8.47273731 0.89520955 -0.00529819 0.88463640 0.39046496
0.24155717 8.38536739 0.83772141 0.04783164 0.87551415 0.36539027
1.12776721 8.39219666 -0.16600183 0.22331339 0.87622720 -0.07240528
1.37864995 8.54902363 1.65710318 0.27299163 0.89260149 0.72278130
1.45270252 8.55155945 -0.20691144 0.28765506 0.89286625 -0.09024889
1.92683232 8.91102982 1.66261899 0.38153926 0.93039846 0.72518718
0.59921408 8.41307926 0.80987507 0.11865262 0.87840754 0.35324448
0.89027375 8.39629745 0.75313520 0.17628643 0.87665534 0.32849616
0.47757247 8.41917706 1.09216821 0.09456591 0.87904423 0.47637275
0.77434820 8.43804073 1.05531085 0.15333158 0.88101375 0.46029660
1.24966347 8.57438278 0.73383719 0.24745053 0.89524919 0.32007894
1.62775135 8.96656132 0.70883524 0.32231712 0.93619645 0.30917379
1.11002350 8.45153522 1.01436591 0.21979991 0.88242275 0.44243759
1.41968942 8.52589798 0.96939313 0.28111801 0.89018691 0.42282173
-0.04164815 8.44950867 0.31219277 -0.00824691 0.88221115 0.13616961
0.25148383 8.39097500 0.26217255 0.04979725 0.87609965 0.11435222
-0.16595109 8.75721455 0.62846386 -0.03286060 0.91433865 0.27411807
0.13074900 8.44599628 0.55809128 0.02589010 0.88184440 0.24342355
0.57930809 8.41891193 0.22507863 0.11471096 0.87901652 0.09817290
0.53212219 8.35505676 2.20875430 0.10536750 0.87234944 0.96339583
0.87002343 8.39889431 0.17114902 0.17227659 0.87692648 0.07465034
0.98726827 8.36179733 2.14363837 0.19549268 0.87305319 0.93499416
0.45570126 8.41063023 0.50900942 0.09023511 0.87815183 0.22201544
0.74947250 8.39890194 0.45740119 0.14840585 0.87692732 0.19950540
1.22687948 8.52021217 0.13555203 0.24293900 0.88959324 0.05912394
1.51514518 8.47372150 2.10768890 0.30001956 0.88473916 0.91931403
1.52681696 8.54750824 0.07909028 0.30233073 0.89244324 0.03449693
1.08901560 8.43934631 0.41737428 0.21564005 0.88115007 0.18204680
1.40273058 8.54605961 0.37787232 0.27775991 0.89229196 0.16481717
-0.07111476 8.46963501 -0.26355407 -0.01408170 0.88431251 -0.11495479
-0.45010579 8.92632484 1.52344704 -0.08912713 0.93199539 0.66448432
0.22646116 8.45977688 -0.31354836 0.04484242 0.88328326 -0.13676088
0.00649901 8.45565605 1.39522171 0.00128689 0.88285297 0.60855603
-0.18959986 8.94107819 0.02622372 -0.03754338 0.93353581 0.01143804
-0.66462922 8.93054581 1.99919641 -0.13160571 0.93243611 0.87199265
0.10664383 8.43170643 -0.03053657 0.02111694 0.88035238 -0.01331918
-0.17723988 8.46026707 1.83828521 -0.03509593 0.88333440 0.80180776
0.55498016 8.37961578 -0.34577259 0.10989369 0.87491363 -0.15081617
0.50558698 8.40698433 1.32910585 0.10011317 0.87777120 0.57971817
0.84534615 8.41180515 -0.40183860 0.16739015 0.87827450 -0.17527057
0.95325625 8.44072056 1.26331425 0.18875784 0.88129359 0.55102175
0.43635282 8.37767601 -0.06255534 0.08640385 0.87471110 -0.02728486
0.33266634 8.36681747 1.75660503 0.06587251 0.87357736 0.76618117
0.72302669 8.39073277 -0.11851919 0.14316922 0.87607437 -0.05169470
0.77348995 8.43280983 1.70060289 0.15316163 0.88046759 0.74175465
-0.07989755 8.46446133 0.89424038 -0.01582081 0.88377231 0.39004225
0.19000538 8.43239689 0.84304011 0.03762367 0.88042450 0.36771014
1.07651043 8.41102409 -0.16604172 0.21316385 0.87819296 -0.07242268
1.32402074 8.55169582 1.65595305 0.26217431 0.89288044 0.72227967
1.39370847 8.52895069 -0.20665668 0.27597341 0.89050567 -0.09013777
0.54621774 8.41469383 0.80965155 0.10815862 0.87857610 0.35314700
0.83851129 8.41161823 0.75418550 0.16603675 0.87825501 0.32895428
0.42532840 8.43584824 1.09419119 0.08422086 0.88078487 0.47725511
0.71923566 8.41906548 1.05196059 0.14241853 0.87903255 0.45883530
1.17740583 8.44800091 0.72021365 0.23314252 0.88205373 0.31413671
1.49209225 8.52954674 0.66662139 0.29545477 0.89056790 0.29076129
1.05521202 8.44457150 1.01248848 0.20894648 0.88169563 0.44161871
1.36291051 8.51506901 0.96684927 0.26987499 0.88905627 0.42171216
-0.09460081 8.43909550 0.31166068 -0.01873226 0.88112390 0.13593753
0.20042555 8.45629501 0.26521996 0.03968701 0.88291967 0.11568141
-0.22563624 8.92528629 0.64329076 -0.04467908 0.93188697 0.28058514
0.07779466 8.45661640 0.55891293 0.01540441 0.88295323 0.24378194
0.52556056 8.40842342 0.22447687 0.10406821 0.87792140 0.09791043
0.47950968 8.35630703 2.20823669 0.09494951 0.87247998 0.96317011
0.81525248 8.38430691 0.17041741 0.16143119 0.87540340 0.07433123
0.93471038 8.36783504 2.14363837 0.18508549 0.87368363 0.93499416
0.40302819 8.41731167 0.50931591 0.07980512 0.87884945 0.22214912
0.69685584 8.40543365 0.45754209 0.13798703 0.87760925 0.19956686
1.15645063 8.40295124 0.13155119 0.22899310 0.87735009 0.05737889
1.45992327 8.47159290 2.10479093 0.28908485 0.88451695 0.91804999
1.46758044 8.52541924 0.07829086 0.29060107 0.89013696 0.03414825
1.03239501 8.41629982 0.41541997 0.20442839 0.87874383 0.18119438
1.34679747 8.54090500 0.37703973 0.26668441 0.89175379 0.16445401
-0.12398773 8.44902611 -0.26325732 -0.02455127 0.88216072 -0.11482536
-0.50536984 8.90955257 1.52104354 -0.10007017 0.93024421 0.66343594
0.17334844 8.46303177 -0.31358987 0.03432537 0.88362306 -0.13677900
-0.04659244 8.44369793 1.39322186 -0.00922594 0.88160443 0.60768378
-0.24595270 8.94570637 0.02633379 -0.04870201 0.93401903 0.01148605
-0.72105080 8.93008137 2.00008225 -0.14277796 0.93238759 0.87237906
0.05401510 8.47220516 -0.03002752 0.01069573 0.88458085 -0.01309715
-0.24256064 8.94897747 1.94675124 -0.04803034 0.93436056 0.84911758
0.50254840 8.38692951 -0.34587157 0.09951149 0.87567723 -0.15085936
0.45265335 8.40802288 1.32878625 0.08963158 0.87787962 0.57957882
0.79228473 8.41496086 -0.40177619 0.15688325 0.87860399 -0.17524336
0.89913201 8.43671608 1.26180458 0.17804049 0.88087547 0.55036330
0.38335955 8.37226009 -0.06262714 0.07591046 0.87414563 -0.02731618
0.27990782 8.36287785 1.75535011 0.05542560 0.87316602 0.76563382
0.66930830 8.38315105 -0.11854672 0.13253224 0.87528276 -0.05170671
0.71894765 8.41993713 1.69699037 0.14236151 0.87912357 0.74017900
-0.13286352 8.45188236 0.89278662 -0.02630880 0.88245898 0.38940814
0.13690847 8.42746544 0.84234637 0.02710976 0.87990957 0.36740756
1.02127481 8.39776230 -0.16597523 0.20222645 0.87680829 -0.07239368
1.26969588 8.55596161 1.65518630 0.25141722 0.89332587 0.72194523
1.34135139 8.54543877 -0.20672037 0.26560599 0.89222717 -0.09016555
1.80243802 8.87483215 1.65127516 0.35690749 0.92661905 0.72023928
0.49255577 8.40406990 0.80808687 0.09753281 0.87746686 0.35246453
0.78412640 8.40088177 0.75250500 0.15526780 0.87713403 0.32822129
0.37165657 8.42253590 1.09187925 0.07359310 0.87939489 0.47624668
0.66616231 8.42144489 1.05168140 0.13190930 0.87928098 0.45871353
1.12198424 8.43747330 0.71841055 0.22216830 0.88095450 0.31335026
1.43343902 8.50930882 0.66384417 0.28384063 0.88845485 0.28954995
1.00190401 8.44906616 1.01222026 0.19839075 0.88216496 0.44150171
1.30846477 8.51758480 0.96608609 0.25909400 0.88931894 0.42137930
-0.14925258 8.52020168 0.31602386 -0.02955406 0.88959217 0.13784063
0.14697278 8.44140911 0.26445812 0.02910263 0.88136548 0.11534911
-0.28137365 8.91373634 0.64241862 -0.05571585 0.93068105 0.28020474
0.02455292 8.43700600 0.55726963 0.00486182 0.88090575 0.24306518
0.47325534 8.42153645 0.22490670 0.09371106 0.87929058 0.09809791
0.42680863 8.35529518 2.20720124 0.08451397 0.87237430 0.96271843
0.76459962 8.41115379 0.17122218 0.15140122 0.87820649 0.07468225
0.88107812 8.36391735 2.14113379 0.17446557 0.87327456 0.93390173
0.35013303 8.41967773 0.50931591 0.06933115 0.87909651 0.22214912
0.64277244 8.39373493 0.45641479 0.12727778 0.87638783 0.19907516
1.10388625 8.41203403 0.13161470 0.21858464 0.87829840 0.05740659
1.40541399 8.47293758 2.10285878 0.27829129 0.88465732 0.91720724
1.41597366 8.54630184 0.07859065 0.28038225 0.89231730 0.03427901
0.98130000 8.43848419 0.41646227 0.19431087 0.88106006 0.18164901
1.29310715 8.54919815 0.37703973 0.25605297 0.89261967 0.16445401
