-22.96474838 -14.15369034 0.35710281 -0.86329436 -0.64736396 0.27544513
-23.09061623 -14.43246555 0.36176255 -0.86802602 -0.66011465 0.27903935
-22.85979271 -13.97205544 1.28954005 -0.85934883 -0.63905632 0.99466461
-22.91032600 -14.11591148 -0.53720307 -0.86124849 -0.64563602 -0.41436237
-23.22569656 -14.72087765 0.36667916 -0.87310398 -0.67330605 0.28283167
-22.81397057 -14.14174843 1.29220045 -0.85762632 -0.64681774 0.99671662
-23.00255966 -14.37310505 -0.54037845 -0.86471575 -0.65739959 -0.41681165
-23.34628487 -15.00397491 0.37133890 -0.87763715 -0.68625444 0.28642589
-22.79226685 -14.32737923 1.29645717 -0.85681039 -0.65530819 1.00000000
-23.14311218 -14.66415882 -0.54444420 -0.86999947 -0.67071187 -0.41994768
-23.50609016 -15.31648540 0.37691593 -0.88364458 -0.70054805 0.29072765
-23.27417946 -14.95321178 -0.54839116 -0.87492657 -0.68393260 -0.42299211
-23.65620804 -15.62717724 0.38234618 -0.88928783 -0.71475857 0.29491618
-23.44990921 -15.22296619 -0.55275369 -0.88153261 -0.69627070 -0.42635706
-23.80175209 -15.88516331 0.38718939 -0.89475912 -0.72655839 0.29865190
-22.93883896 -14.10961533 0.20489720 -0.86232036 -0.64534807 0.15804394
-23.63096237 -15.55270672 -0.55768001 -0.88833880 -0.71135241 -0.43015692
-23.95310211 -16.20489120 0.39276642 -0.90044868 -0.74118215 0.30295363
-23.06362724 -14.38666630 0.20810418 -0.86701143 -0.65801984 0.16051759
-23.71401215 -15.82198334 -0.56091475 -0.89146078 -0.72366863 -0.43265197
-24.10301399 -16.52827454 0.39838013 -0.90608424 -0.75597310 0.30728367
-23.20781517 -14.67971802 0.21164206 -0.87243176 -0.67142349 0.16324647
-22.99307060 -14.18690491 1.14992046 -0.86435908 -0.64888310 0.88697141
-23.84758568 -16.12880135 -0.56509918 -0.89648211 -0.73770195 -0.43587956
-24.24651337 -16.85188866 0.40392047 -0.91147864 -0.77077460 0.31155711
-23.34079933 -14.96975231 0.21505266 -0.87743092 -0.68468916 0.16587718
-23.08477020 -14.44434166 1.16011024 -0.86780626 -0.66065782 0.89483112
-24.00131226 -16.45376396 -0.56969905 -0.90226102 -0.75256515 -0.43942758
-24.39832878 -17.18601990 0.40971765 -0.91718572 -0.78605717 0.31602868
-23.46433830 -15.25767612 0.21836145 -0.88207501 -0.69785827 0.16842936
-23.22138977 -14.73341846 1.17296648 -0.87294209 -0.67387968 0.90474755
-24.15845299 -16.78585625 -0.57441765 -0.90816832 -0.76775444 -0.44306719
-24.56153107 -17.53318405 0.41584504 -0.92332089 -0.80193585 0.32075495
-23.60688591 -15.56203079 0.22200114 -0.88743371 -0.71177888 0.17123677
-23.35529518 -14.97299480 1.18448949 -0.87797588 -0.68483746 0.91363567
-24.35885239 -17.09615326 -0.57949239 -0.91570175 -0.78194684 -0.44698152
-24.74452019 -17.84070396 0.42186236 -0.93019980 -0.81600124 0.32539630
-23.78308105 -15.83920383 0.22581898 -0.89405727 -0.72445625 0.17418160
-23.45012093 -15.24233246 1.19525063 -0.88154054 -0.69715643 0.92193609
-24.48713303 -17.41709518 -0.58379549 -0.92052406 -0.79662615 -0.45030063
-23.85446358 -15.61811543 -0.72974598 -0.89674067 -0.71434408 -0.56287706
-24.90467834 -18.19536781 0.42806312 -0.93622053 -0.83222288 0.33017915
-23.93349266 -16.15710831 0.22966228 -0.89971155 -0.73899662 0.17714606
-23.05311584 -14.38351536 0.10603409 -0.86661631 -0.65787572 0.08178757
-24.67070580 -17.78245163 -0.58916700 -0.92742497 -0.81333685 -0.45444387
-23.68419075 -15.72019100 -0.72796118 -0.89033973 -0.71901286 -0.56150037
-25.07580376 -18.56345749 0.43459412 -0.94265348 -0.84905863 0.33521673
-24.06102562 -16.46398354 0.23320015 -0.90450579 -0.75303257 0.17987493
-23.21905327 -14.69080162 0.10876254 -0.87285423 -0.67193043 0.08389212
-23.03520012 -14.23664856 1.02703643 -0.86594278 -0.65115833 0.79218692
-24.82804680 -18.13426590 -0.59412301 -0.93333977 -0.82942820 -0.45826659
-23.77582932 -15.99692154 -0.73273456 -0.89378464 -0.73166996 -0.56518221
-25.27205658 -18.95602417 0.44178554 -0.95003104 -0.86701393 0.34076369
-24.21522903 -16.79358673 0.23719616 -0.91030264 -0.76810801 0.18295719
-23.30631828 -14.95208263 0.11068323 -0.87613469 -0.68388098 0.08537361
-23.18052292 -14.52877808 1.03898549 -0.87140578 -0.66451979 0.80140364
-25.00763512 -18.50780487 -0.59955382 -0.94009089 -0.84651321 -0.46245557
-23.92937469 -16.31931305 -0.73912674 -0.89955676 -0.74641556 -0.57011271
-25.42616081 -19.32271767 0.44809639 -0.95582414 -0.88378584 0.34563148
-24.36295891 -17.12347412 0.24114126 -0.91585612 -0.78319645 0.18600017
-23.44483185 -15.24997044 0.11317831 -0.88134176 -0.69750583 0.08729815
-23.29273415 -14.80397511 1.04938710 -0.87562406 -0.67710680 0.80942672
-25.14991570 -18.85908890 -0.60436147 -0.94543952 -0.86258030 -0.46616384
-24.07650566 -16.64198494 -0.74543589 -0.90508771 -0.76117402 -0.57497919
-25.59248161 -19.70429611 0.45477414 -0.96207649 -0.90123850 0.35078225
-24.52052498 -17.46514511 0.24529000 -0.92177933 -0.79882383 0.18920024
-23.60721207 -15.56781769 0.11596061 -0.88744593 -0.71204358 0.08944423
-23.45462418 -15.06274891 1.06125009 -0.88170987 -0.68894261 0.81857705
-25.35237122 -19.19851303 -0.60979229 -0.95305026 -0.87810493 -0.47035283
-24.25041962 -16.93136597 -0.75182807 -0.91162550 -0.77440977 -0.57990968
-25.81334686 -20.06912231 0.46207565 -0.97037929 -0.91792500 0.35641414
-24.70269394 -17.77068520 0.24943872 -0.92862749 -0.81279868 0.19240028
-23.76482391 -15.83318901 0.11845571 -0.89337093 -0.72418118 0.09136878
-22.87549782 -14.03867626 -0.07625290 -0.85993922 -0.64210343 -0.05881637
-23.54529953 -15.33097744 1.07079208 -0.88511854 -0.70121092 0.82593709
-25.51986885 -19.57915306 -0.61519349 -0.95934683 -0.89551473 -0.47451895
-24.40811729 -17.27032280 -0.75855231 -0.91755372 -0.78991306 -0.58509630
-25.99606323 -20.47484970 0.46930376 -0.97724801 -0.93648225 0.36198941
-24.86379433 -18.12444878 0.25374016 -0.93468356 -0.82897919 0.19571812
-23.91169930 -16.14914703 0.12113031 -0.89889228 -0.73863250 0.09343179
-23.01277733 -14.32251263 -0.07564247 -0.86509985 -0.65508556 -0.05834553
-23.67185783 -15.62628174 1.08231127 -0.88987613 -0.71471757 0.83482224
-25.72144890 -19.99212456 -0.62130690 -0.96692467 -0.91440326 -0.47923443
-24.55599976 -17.60726547 -0.76511055 -0.92311293 -0.80532420 -0.59015489
-26.20593262 -20.90861702 0.47726572 -0.98513746 -0.95632195 0.36813071
-25.06647682 -18.51417160 0.25875425 -0.94230288 -0.84680438 0.19958566
-24.05883217 -16.46982956 0.12384081 -0.90442336 -0.75329995 0.09552249
-23.14061546 -14.60435677 -0.07505041 -0.86990559 -0.66797662 -0.05788884
-23.79894638 -15.92600060 1.09400237 -0.89465368 -0.72842622 0.84383994
-22.97398949 -14.14510822 0.84964669 -0.86364174 -0.64697140 0.65536040
-25.90312958 -20.39600945 -0.62712353 -0.97375447 -0.93287623 -0.48372099
-24.71678352 -17.95848465 -0.77208382 -0.92915714 -0.82138830 -0.59553361
-26.38338470 -21.32317734 0.48456722 -0.99180824 -0.97528321 0.37376261
-25.19635010 -18.85566711 0.26267391 -0.94718510 -0.86242378 0.20260902
-24.21272469 -16.79984093 0.12665901 -0.91020846 -0.76839405 0.09769625
-23.28435326 -14.90021324 -0.07440785 -0.87530899 -0.68150854 -0.05739322
-23.86865044 -16.19087219 1.10285664 -0.89727396 -0.74054092 0.85066956
-23.10006714 -14.42345238 0.85893816 -0.86838126 -0.65970236 0.66252720
-26.09792519 -20.81668663 -0.63326657 -0.98107725 -0.95211726 -0.48845932
-24.89183617 -18.32543945 -0.77951372 -0.93573773 -0.83817214 -0.60126454
-25.38668442 -19.24780655 0.26761165 -0.95434016 -0.88035953 0.20641766
-23.41184616 -15.18974686 -0.07380202 -0.88010174 -0.69475126 -0.05692592
-23.23706055 -14.71247768 0.86881495 -0.87353116 -0.67292190 0.67014551
-26.28533745 -21.23809052 -0.63935030 -0.98812246 -0.97139150 -0.49315187
-25.06163788 -18.69409943 -0.78690207 -0.94212097 -0.85503399 -0.60696340
-25.56831551 -19.63942146 0.27247304 -0.96116805 -0.89827126 0.21016741
-24.51899910 -17.47337341 0.13238516 -0.92172199 -0.79920018 0.10211302
-23.55500221 -15.49354267 -0.07314570 -0.88548326 -0.70864636 -0.05641968
-23.39318085 -14.96598148 0.87861854 -0.87940007 -0.68451667 0.67770731
-25.25609589 -19.02475739 -0.79424894 -0.94943106 -0.87015766 -0.61263031
-25.78061295 -19.99605370 0.27738535 -0.96914876 -0.91458297 0.21395643
-24.71219063 -17.78752327 0.13543671 -0.92898446 -0.81356883 0.10446679
-23.71837616 -15.76138401 -0.07249396 -0.89162487 -0.72089690 -0.05591698
-23.52348328 -15.25824928 0.88842219 -0.88429838 -0.69788444 0.68526924
-25.43345451 -19.40972710 -0.80201089 -0.95609832 -0.88776547 -0.61861736
-25.97069168 -20.40579414 0.28250125 -0.97629422 -0.93332374 0.21790250
-24.86157227 -18.13353539 0.13834468 -0.93460006 -0.82939482 0.10670979
-23.86117172 -16.07306099 -0.07182387 -0.89699286 -0.73515248 -0.05540011
-23.02505493 -14.26056290 -0.22790128 -0.86556143 -0.65225214 -0.17578775
-23.67274666 -15.56700039 0.89917690 -0.88990957 -0.71200615 0.69356465
-25.61487389 -19.80377769 -0.80998039 -0.96291828 -0.90578866 -0.62476450
-26.14879990 -20.81247902 0.28748989 -0.98298973 -0.95192480 0.22175039
-23.71146774 -15.70064068 -1.02571750 -0.89136517 -0.71811861 -0.79116958
-24.00263023 -16.38827515 -0.07114919 -0.90231055 -0.74956977 -0.05487971
-23.14491081 -14.53701210 -0.22872591 -0.87006706 -0.66489637 -0.17642380
-23.77911758 -15.85164547 0.90817571 -0.89390826 -0.72502530 0.70050573
-22.98725510 -14.14148521 0.71948373 -0.86414045 -0.64680570 0.55496144
-25.79233360 -20.20086479 -0.81794983 -0.96958935 -0.92395067 -0.63091159
-26.35707855 -21.24979401 0.29303852 -0.99081933 -0.97192681 0.22603023
-23.73191261 -15.92944241 -1.03021073 -0.89213371 -0.72858363 -0.79463536
-24.16245079 -16.72067642 -0.07041484 -0.90831858 -0.76477319 -0.05431328
-23.28748512 -14.83165932 -0.22965027 -0.87542671 -0.67837304 -0.17713679
-23.96236801 -16.19189262 0.92068630 -0.90079701 -0.74058759 0.71015561
-23.10984802 -14.41806030 0.72742194 -0.86874896 -0.65945578 0.56108445
-25.96893692 -20.60343933 -0.82600236 -0.97622830 -0.94236368 -0.63712275
-23.94222641 -16.28942299 -1.04194319 -0.90003985 -0.74504846 -0.80368501
-25.36734772 -19.24617004 0.14794809 -0.95361322 -0.88028467 0.11411722
-24.30101013 -17.04310417 -0.06973098 -0.91352731 -0.77952045 -0.05378580
-23.41718674 -15.12214947 -0.23053475 -0.88030249 -0.69165951 -0.17781903
-24.11257172 -16.51475334 0.93188000 -0.90644354 -0.75535464 0.71878964
-23.22479820 -14.69351959 0.73516959 -0.87307018 -0.67205477 0.56706047
-26.17891312 -21.03906059 -0.83505100 -0.98412174 -0.96228820 -0.64410228
-24.15881920 -16.65946960 -1.05405009 -0.90818208 -0.76197374 -0.81302345
-25.53911781 -19.63084030 0.15126890 -0.96007043 -0.89787877 0.11667867
-24.45440292 -17.38066101 -0.06899663 -0.91929370 -0.79495972 -0.05321937
-23.58005142 -15.38550568 -0.23146576 -0.88642490 -0.70370495 -0.17853715
-24.26634407 -16.78837395 0.94219571 -0.91222417 -0.76786959 0.72674650
-23.38088036 -14.94724560 0.74367929 -0.87893766 -0.68365973 0.57362425
-26.40570259 -21.42658043 -0.84376764 -0.99264723 -0.98001266 -0.65082568
-25.76688194 -20.00010490 0.15491281 -0.96863258 -0.91476828 0.11948934
-24.63393402 -17.68330383 -0.06825770 -0.92604262 -0.80880201 -0.05264940
-23.72467232 -15.69352531 -0.23243003 -0.89186156 -0.71779317 -0.17928091
-24.40760803 -17.11360359 0.95324308 -0.91753459 -0.78274500 0.73526770
-23.54135132 -15.25930977 0.75333208 -0.88497013 -0.69793296 0.58106977
-26.60129547 -21.86357498 -0.85265028 -1.00000000 -1.00000000 -0.65767717
-24.80389786 -18.04225349 -0.06745909 -0.93243194 -0.82521975 -0.05203341
-23.87132454 -16.00730896 -0.23341425 -0.89737451 -0.73214507 -0.18004008
-22.95519257 -14.16049385 -0.35259295 -0.86293513 -0.64767516 -0.27196652
-24.52128220 -17.42391777 0.96319300 -0.92180783 -0.79693818 0.74294239
-23.65540123 -15.54539871 0.76133376 -0.88925749 -0.71101815 0.58724171
-24.97353745 -18.40639877 -0.06665131 -0.93880910 -0.84187508 -0.05141035
-24.01165581 -16.32129669 -0.23438516 -0.90264988 -0.74650633 -0.18078898
-23.06932259 -14.43157291 -0.35450372 -0.86722553 -0.66007382 -0.27344036
-24.66771126 -17.76199913 0.97475249 -0.92731243 -0.81240141 0.75185859
-23.81832504 -15.86791229 0.77130413 -0.89538217 -0.72576934 0.59493220
-22.93414879 -14.08330727 0.53465772 -0.86214405 -0.64414477 0.41239905
-25.15239334 -18.78294563 -0.06580681 -0.94553262 -0.85909766 -0.05075896
-24.16543388 -16.64903259 -0.23542260 -0.90843070 -0.76149637 -0.18158919
-23.20628929 -14.72069073 -0.35665336 -0.87237442 -0.67329752 -0.27509844
-23.95990372 -16.18076134 0.78057587 -0.90070438 -0.74007851 0.60208380
-23.05575562 -14.35802841 0.54085320 -0.86671549 -0.65671003 0.41717783
-25.30515099 -19.14557838 -0.06502657 -0.95127511 -0.87568378 -0.05015713
-24.32094955 -16.98277664 -0.23647997 -0.91427690 -0.77676117 -0.18240477
-23.33547592 -15.00885105 -0.35875523 -0.87723082 -0.68647742 -0.27671969
-24.11332130 -16.50618172 0.79041922 -0.90647167 -0.75496262 0.60967630
-23.19510460 -14.64762402 0.54764825 -0.87195396 -0.66995555 0.42241907
-25.48133278 -19.53153038 -0.06416830 -0.95789820 -0.89333653 -0.04949512
-24.51345634 -17.28989029 -0.23759054 -0.92151362 -0.79080802 -0.18326138
-23.51279449 -15.27975464 -0.36111188 -0.88389659 -0.69886810 -0.27853745
-24.28999901 -16.79602814 0.80026257 -0.91311342 -0.76821965 0.61726880
-23.32480049 -14.88352776 0.55354393 -0.87682950 -0.68074536 0.42696661
-25.72921753 -19.91436958 -0.06318152 -0.96721673 -0.91084689 -0.04873398
-24.66129303 -17.62749863 -0.23864126 -0.92707115 -0.80624962 -0.18407184
-23.65860176 -15.58655262 -0.36342072 -0.88937783 -0.71290046 -0.28031835
-24.43432999 -17.12401390 0.80997890 -0.91853911 -0.78322113 0.62476331
-23.47938919 -15.19034195 0.56093854 -0.88264084 -0.69477850 0.43267033
-25.66407013 -19.54075813 -1.14491403 -0.96476769 -0.89375859 -0.88310981
-25.90119171 -20.30868912 -0.06231407 -0.97368157 -0.92888236 -0.04806489
-24.82041359 -17.97820854 -0.23975183 -0.93305284 -0.82229042 -0.18492846
-23.78649521 -15.88579273 -0.36558628 -0.89418560 -0.72658718 -0.28198871
-24.59503746 -17.46837234 0.82045728 -0.92458045 -0.79897147 0.63284564
-23.60092354 -15.47996330 0.56743377 -0.88720953 -0.70802528 0.43768030
-25.54078484 -19.70162392 -1.14491403 -0.96013314 -0.90111631 -0.88310981
-26.08645058 -20.71961975 -0.06139614 -0.98064590 -0.94767755 -0.04735686
-24.98737144 -18.33989716 -0.24090895 -0.93932915 -0.83883339 -0.18582098
-23.93806648 -16.20516968 -0.36800662 -0.89988351 -0.74119484 -0.28385559
-24.74588394 -17.81074333 0.83068162 -0.93025106 -0.81463087 0.64073199
-23.74805450 -15.79050636 0.57477844 -0.89274055 -0.72222894 0.44334549
-25.71433830 -20.09416008 -1.15670896 -0.96665734 -0.91907018 -0.89220762
-26.27067375 -21.13617516 -0.06046902 -0.98757124 -0.96673006 -0.04664174
-25.16358566 -18.71394157 -0.24211928 -0.94595337 -0.85594153 -0.18675455
-24.09480095 -16.53272438 -0.37050655 -0.90577549 -0.75617665 -0.28578389
-24.90630341 -18.16512489 0.84141403 -0.93628162 -0.83083963 0.64901030
-23.90049934 -16.10908318 0.58237284 -0.89847124 -0.73680007 0.44920331
-25.91061401 -20.51072311 -1.16956472 -0.97403580 -0.93812305 -0.90212369
-25.33607483 -19.09091568 -0.24332960 -0.95243764 -0.87318361 -0.18768811
-24.21878624 -16.84234619 -0.37271988 -0.91043633 -0.77033818 -0.28749108
-25.05198669 -18.51389122 0.85170192 -0.94175816 -0.84679157 0.65694565
-24.05317116 -16.43244743 0.59006727 -0.90421051 -0.75159013 0.45513827
-26.11514091 -20.94053268 -1.18291974 -0.98172438 -0.95778173 -0.91242486
-25.54013252 -19.43433571 -0.24455987 -0.96010858 -0.88889104 -0.18863706
-24.39948463 -17.13888931 -0.37525168 -0.91722918 -0.78390151 -0.28944394
-25.20624924 -18.81243896 0.86129123 -0.94755721 -0.86044663 0.66434222
-24.21748352 -16.71237755 0.59741187 -0.91038740 -0.76439363 0.46080339
-26.33482742 -21.32103539 -1.19571304 -0.98998290 -0.97518522 -0.92229277
-25.72782516 -19.83395195 -0.24586330 -0.96716440 -0.90716875 -0.18964244
-24.57169151 -17.49115372 -0.37799048 -0.92370284 -0.80001342 -0.29155648
-25.29313660 -19.12610817 0.86948341 -0.95082349 -0.87479329 0.67066109
-24.37918663 -17.05080986 0.60555595 -0.91646612 -0.77987289 0.46708518
-26.51892090 -21.74701500 -1.20856881 -0.99690336 -0.99466878 -0.93220884
-25.91621590 -20.24038124 -0.24718668 -0.97424638 -0.92575806 -0.19066320
-24.74204445 -17.84741974 -0.38074520 -0.93010676 -0.81630838 -0.29368129
-25.22797585 -19.32723427 0.87170607 -0.94837397 -0.88399243 0.67237550
-24.54084969 -17.39423752 0.61379993 -0.92254341 -0.79558069 0.47344404
-26.10207176 -20.65119362 -0.24851671 -0.98123312 -0.94454789 -0.19168910
-24.90726471 -18.20532799 -0.38348398 -0.93631774 -0.83267844 -0.29579380
-24.68127441 -17.72754288 0.62149429 -0.92782229 -0.81082547 0.47937897
-26.29625511 -21.07514381 -0.24989994 -0.98853290 -0.96393859 -0.19275603
-25.04162025 -18.54579544 -0.38595209 -0.94136846 -0.84825081 -0.29769751
-24.85081863 -18.08680344 0.63018799 -0.93419582 -0.82725739 0.48608470
-25.23028374 -18.93183517 -0.38899341 -0.94846070 -0.86590755 -0.30004340
-25.00876045 -18.44295692 0.63863182 -0.94013315 -0.84354717 0.49259770
-25.42625427 -19.26654243 -0.39184368 -0.95582765 -0.88121647 -0.30224189
-25.20874405 -18.77418327 0.64757526 -0.94765097 -0.85869688 0.49949607
-25.60943413 -19.65954781 -0.39490092 -0.96271378 -0.89919180 -0.30460006
-25.38888168 -19.15721130 0.65691847 -0.95442277 -0.87621588 0.50670278
-25.80446053 -20.06787682 -0.39811742 -0.97004527 -0.91786802 -0.30708104
-25.56995964 -19.54687309 0.66641152 -0.96122986 -0.89403826 0.51402509
-26.01893044 -20.49797249 -0.40157276 -0.97810763 -0.93753982 -0.30974627
-25.74396706 -19.93711281 0.67580467 -0.96777117 -0.91188711 0.52127033
-26.18990326 -20.90038109 -0.40463001 -0.98453486 -0.95594525 -0.31210440
-25.91878891 -20.33399963 0.68534768 -0.97434312 -0.93004000 0.52863115
-26.36928177 -21.31578827 -0.40781465 -0.99127811 -0.97494525 -0.31456083
-26.02072334 -20.67917061 0.69269234 -0.97817504 -0.94582748 0.53429633
-26.21941566 -21.03912926 0.70218539 -0.98564434 -0.96229136 0.54161865
