27.92398453 9.81767941 1.43916440 0.96087468 0.66963780 0.72284752
28.29065704 10.46305180 0.41558820 0.97349197 0.71365696 0.20873703
27.78281021 9.96456337 1.43469477 0.95601678 0.67965639 0.72060257
28.15215302 10.20746517 -0.58225232 0.96872604 0.69622403 -0.29244724
28.42825699 10.71762657 0.41958752 0.97822684 0.73102081 0.21074577
27.84341431 10.18429375 1.44171846 0.95810223 0.69464362 0.72413033
28.52063942 10.54463100 -0.58910763 0.98140579 0.71922123 -0.29589045
28.43500137 10.92477036 0.42105517 0.97845894 0.74514955 0.21148291
28.20382500 9.64877319 0.24152306 0.97050405 0.65811718 0.12130952
28.20167732 10.51703548 1.46576905 0.97043014 0.71733904 0.73621023
28.55484581 10.76177311 -0.59071016 0.98258281 0.73403192 -0.29669535
28.45887947 11.13972187 0.42288971 0.97928059 0.75981081 0.21240436
28.07465744 9.80210686 0.24060677 0.96605939 0.66857564 0.12084930
28.49786377 10.94528484 -0.59088826 0.98062205 0.74654877 -0.29678479
28.30533028 9.63475323 -0.75855231 0.97399688 0.65716088 -0.38099724
28.47931671 11.35466099 0.42468756 0.97998387 0.77447122 0.21330737
27.95221519 9.95687771 0.23979229 0.96184605 0.67913216 0.12044021
28.12843513 9.62157726 1.27914953 0.96790987 0.65626222 0.64247704
28.58010101 11.13180161 -0.59302497 0.98345184 0.75927061 -0.29785800
28.17266083 9.73804188 -0.75664300 0.96943170 0.66420591 -0.38003826
28.50148582 11.51951313 0.42619190 0.98074669 0.78571534 0.21406294
27.97458839 10.11359787 0.24073403 0.96261597 0.68982160 0.12091321
27.98630524 9.76986599 1.27505457 0.96301913 0.66637659 0.64042026
28.56905937 11.33479404 -0.59397459 0.98307192 0.77311617 -0.29833496
28.02981377 9.88631821 -0.75485814 0.96451628 0.67431945 -0.37914178
28.32903290 10.44313717 0.24640989 0.97481251 0.71229863 0.12376403
28.37615776 11.35091400 1.49045813 0.97643411 0.77421564 0.74861079
27.86789513 9.92544556 1.27219760 0.95894462 0.67698824 0.63898528
28.61961937 11.56359863 -0.59593326 0.98481172 0.78872234 -0.29931876
28.04430389 10.08994007 -0.75655997 0.96501487 0.68820798 -0.37999654
28.46508598 10.69676685 0.24915874 0.97949415 0.72959805 0.12514469
27.76741982 10.08673191 1.27029300 0.95548719 0.68798918 0.63802868
28.39907455 10.41925240 -0.76581615 0.97722268 0.71066952 -0.38464564
28.53675652 12.16462326 0.43132862 0.98196036 0.82971662 0.21664296
28.47203636 10.90396500 0.25017685 0.97973329 0.74373043 0.12565605
28.14384651 10.42375469 1.29267240 0.96844018 0.71097660 0.64926916
28.54473495 10.67649651 -0.77050656 0.98223490 0.72821546 -0.38700148
28.51111221 12.36599731 0.43235597 0.98107791 0.84345180 0.21715896
28.48495865 11.11457443 0.25129673 0.98017800 0.75809556 0.12621853
28.37790680 11.97707939 1.50322831 0.97649431 0.81692475 0.75502485
28.65406609 12.21090603 -0.60008800 0.98599702 0.83287340 -0.30140555
28.54063225 10.87981033 -0.77191782 0.98209375 0.74208295 -0.38771033
28.51881409 12.58288670 0.43408045 0.98134297 0.85824525 0.21802512
28.48891830 11.32282543 0.25231484 0.98031425 0.77229983 0.12672989
28.37438965 12.13348103 1.50631440 0.97637326 0.82759249 0.75657487
28.08300591 9.63276291 1.13930535 0.96634662 0.65702516 0.57223767
28.66044617 12.37358379 -0.60112673 0.98621655 0.84396923 -0.30192727
28.56180000 11.04225636 -0.77353662 0.98282212 0.75316292 -0.38852340
28.51943207 12.74409962 0.43529126 0.98136425 0.86924112 0.21863326
28.50575066 11.48530388 0.25328201 0.98089343 0.78338206 0.12721568
28.39462662 12.35381508 1.51195467 0.97706962 0.84262085 0.75940782
27.96913338 9.79050159 1.13689840 0.96242821 0.66778409 0.57102871
28.67365837 12.59368515 -0.60261053 0.98667121 0.85898179 -0.30267254
28.57559967 11.25441456 -0.77540445 0.98329699 0.76763368 -0.38946155
28.53343582 12.96611977 0.43719918 0.98184609 0.88438457 0.21959156
28.36756706 12.55464363 1.51493430 0.97613847 0.85631883 0.76090437
27.82240868 9.93574429 1.13303006 0.95737940 0.67769068 0.56908578
28.65785027 12.80218697 -0.60364920 0.98612726 0.87320310 -0.30319422
28.57671928 11.46272087 -0.77702326 0.98333549 0.78184170 -0.39027461
28.53306770 13.18293762 0.43885028 0.98183346 0.89917314 0.22042085
28.50869370 11.90492344 0.25534365 0.98099470 0.81200320 0.12825118
28.49769020 10.71672440 0.13541877 0.98061609 0.73095930 0.06801664
28.26356125 9.43807125 -0.06946478 0.97255963 0.64374572 -0.03489000
28.35184669 12.76136589 1.51865900 0.97559756 0.87041885 0.76277518
28.40189552 11.49387550 1.32257509 0.97731972 0.78396666 0.66428834
27.82324982 10.13365364 1.13595283 0.95740831 0.69118959 0.57055378
28.20563507 9.52058125 1.96447361 0.97056633 0.64937353 0.98669404
28.66421509 13.02175426 -0.60507369 0.98634624 0.88817924 -0.30390969
28.55100060 13.40962505 0.44090497 0.98245049 0.91463488 0.22145286
28.53274727 12.12598610 0.25671807 0.98182243 0.82708126 0.12894151
28.51940918 10.92998219 0.13628039 0.98136342 0.74550503 0.06844940
28.19234276 9.61160374 -0.06949232 0.97010899 0.65558195 -0.03490383
28.34372520 12.97254658 1.52291572 0.97531807 0.88482291 0.76491320
28.16914940 10.46088886 1.15477896 0.96931088 0.71350938 0.58000958
28.01130676 9.65156174 1.95446873 0.96387947 0.65830737 0.98166889
28.65443039 13.23518753 -0.60626078 0.98600954 0.90273696 -0.30450594
28.55097198 13.62929344 0.44262943 0.98244953 0.92961788 0.22231899
28.53127480 12.33751583 0.25776163 0.98177171 0.84150916 0.12946565
28.47997093 11.12061596 0.13656759 0.98000634 0.75850767 0.06859366
28.06715584 9.76624775 -0.06964837 0.96580124 0.66612977 -0.03498221
28.34854507 13.19087696 1.52802384 0.97548395 0.89971465 0.76747888
28.15539742 9.45191669 0.94921917 0.96883768 0.64469010 0.47676328
27.87104607 9.79963207 1.94855034 0.95905304 0.66840684 0.97869623
28.67928314 13.46603203 -0.60804141 0.98686475 0.91848224 -0.30540028
28.55830002 13.85385895 0.44453737 0.98270166 0.94493484 0.22327730
28.53192902 12.55111313 0.25885606 0.98179424 0.85607803 0.13001534
28.31777191 9.60291481 -1.07139909 0.97442502 0.65498930 -0.53813046
28.49313927 11.33265591 0.13737535 0.98045945 0.77297032 0.06899937
27.94679832 9.92170238 -0.06979065 0.96165967 0.67673296 -0.03505367
28.36915588 13.36352348 1.53291905 0.97619319 0.91149038 0.76993757
28.42160034 12.07727432 1.33409810 0.97799778 0.82375878 0.67007601
28.36386490 10.88979721 1.16913486 0.97601110 0.74276412 0.58722007
27.76441574 9.90944290 1.94404113 0.95538384 0.67589676 0.97643143
28.64078522 13.61306477 -0.60845685 0.98554003 0.92851096 -0.30560896
28.91455841 12.39634991 -0.79092830 0.99496067 0.84552205 -0.39725870
28.58600998 14.03416634 0.44644532 0.98365521 0.95723319 0.22423559
28.54372978 12.71712112 0.25984871 0.98220032 0.86740100 0.13051394
28.20981789 9.71481514 -1.06933963 0.97071028 0.66262168 -0.53709602
28.53769875 11.50650311 0.13832672 0.98199278 0.78482795 0.06947721
27.89785194 10.05261135 -0.06979524 0.95997542 0.68566191 -0.03505598
28.43869972 12.29598522 1.33895493 0.97858620 0.83867645 0.67251545
27.90627480 9.71110058 0.94365895 0.96026528 0.66236836 0.47397056
27.63409996 10.05917549 1.93896818 0.95089960 0.68610960 0.97388345
28.63929558 13.83368492 -0.60985166 0.98548877 0.94355887 -0.30630952
28.94059944 12.62328053 -0.79329425 0.99585676 0.86100042 -0.39844704
28.58849907 14.25907612 0.44831654 0.98374087 0.97257364 0.22517546
28.55983543 12.93989468 0.26119769 0.98275453 0.88259578 0.13119148
28.04635429 9.85614967 -1.06596971 0.96508545 0.67226177 -0.53540343
28.22658730 10.37159920 -0.06883600 0.97128731 0.70741922 -0.03457418
28.43221855 12.50574875 1.34266889 0.97836316 0.85298389 0.67438084
28.39365768 11.31277275 1.17695761 0.97703630 0.77161413 0.59114921
27.76558304 9.85821629 0.94058615 0.95542401 0.67240274 0.47242719
27.90710258 10.35732460 1.96433270 0.96029371 0.70644557 0.98662323
28.64513206 14.05923367 -0.61139482 0.98568958 0.95894295 -0.30708462
28.90824890 12.82592297 -0.79437345 0.99474353 0.87482208 -0.39898908
28.58572006 14.48275948 0.45011440 0.98364520 0.98783052 0.22607847
28.56699753 13.16002750 0.26244485 0.98300099 0.89761049 0.13181789
28.01022339 10.04160118 -1.06684339 0.96384215 0.68491089 -0.53584224
28.45685768 10.65939426 -0.06811082 0.97921103 0.72704893 -0.03420995
28.42969513 12.71835899 1.34666860 0.97827631 0.86748546 0.67638975
28.38125038 11.51502991 1.17970848 0.97660935 0.78540957 0.59253091
27.64482307 10.01141930 0.93831819 0.95126861 0.68285227 0.47128806
28.13637352 10.64379501 1.98659706 0.96818304 0.72598493 0.99780595
28.17407799 9.51718044 1.80325711 0.96948045 0.64914155 0.90572000
28.64568329 14.28361320 -0.61287868 0.98570859 0.97424728 -0.30782992
28.90731049 13.04343796 -0.79619980 0.99471128 0.88965821 -0.39990640
28.25242043 14.53749657 0.44512442 0.97217625 0.99156398 0.22357215
28.55440140 13.37229061 0.26343748 0.98256755 0.91208839 0.13231646
28.34845924 10.36401367 -1.08019841 0.97548097 0.70690179 -0.54255009
28.53101540 12.13406754 0.14042690 0.98176283 0.82763249 0.07053207
28.45099640 10.86148071 -0.06795937 0.97900933 0.74083269 -0.03413388
28.30178833 9.59334183 -0.23721148 0.97387505 0.65433633 -0.11914395
28.40619087 14.26426029 1.55569255 0.97746754 0.97292727 0.78137600
28.43289375 12.93473434 1.35104930 0.97838640 0.88224381 0.67859006
27.85518074 10.28581142 0.94899970 0.95850706 0.70156783 0.47665304
28.12666512 10.84257698 1.99096537 0.96784896 0.73954332 1.00000000
28.04015732 9.66859150 1.79817581 0.96487218 0.65946889 0.90316778
28.60887527 14.49045753 -0.61376899 0.98444200 0.98835558 -0.30827707
28.89932251 13.25894833 -0.79790163 0.99443638 0.90435761 -0.40076119
27.85933113 14.55709839 0.43888697 0.95864993 0.99290097 0.22043929
28.57458115 13.60122204 0.26491371 0.98326194 0.92770320 0.13305792
28.55070877 10.64158535 -1.08912253 0.98244047 0.72583425 -0.54703236
28.54595757 12.35286617 0.14132442 0.98227698 0.84255618 0.07098286
28.46422577 11.07187462 -0.06775742 0.97946453 0.75518310 -0.03403245
28.15592194 9.74149132 -0.23691222 0.96885568 0.66444123 -0.11899364
28.43993378 13.15416241 1.35571563 0.97862864 0.89721042 0.68093383
28.18291664 10.60821819 0.96436357 0.96978462 0.72355837 0.48436984
27.90168762 9.81736946 1.79283392 0.96010739 0.66961664 0.90048474
28.23283195 14.52337837 -0.60902071 0.97150218 0.99060100 -0.30589217
28.78462791 13.42591667 -0.79719597 0.99048972 0.91574609 -0.40040675
27.49537849 14.58735275 0.43323657 0.94612616 0.99496454 0.21760125
28.58580399 13.82745361 0.26628813 0.98364812 0.94313383 0.13374825
28.55618095 10.84840202 -1.09155643 0.98262876 0.73994064 -0.54825485
28.55012512 12.56829453 0.14213219 0.98242038 0.85724992 0.07138858
28.50196838 11.29315853 -0.06749122 0.98076332 0.77027631 -0.03389874
28.01726532 9.84152317 -0.23658636 0.96408451 0.67126411 -0.11882997
28.46630859 13.32949066 1.36038196 0.97953624 0.90916914 0.68327755
28.40778160 12.10171986 1.19045389 0.97752231 0.82542610 0.59792799
28.28949928 10.80068588 0.97050911 0.97345215 0.73668605 0.48745656
28.18860054 9.60287094 0.80813724 0.96998018 0.65498626 0.40590221
27.80062294 9.92923927 1.78905559 0.95662975 0.67724699 0.89858699
27.88034058 14.50837612 -0.60427243 0.95937282 0.98957777 -0.30350724
28.66497040 13.53498077 -0.79590929 0.98637223 0.92318505 -0.39976048
27.14450836 14.56529713 0.42736599 0.93405259 0.99346018 0.21465264
28.59758568 13.99976826 0.26738259 0.98405349 0.95488697 0.13429797
28.57937431 11.01154804 -1.09405267 0.98342687 0.75106841 -0.54950863
28.57092667 12.73857880 0.14292200 0.98313618 0.86886460 0.07178528
28.54125214 11.46455765 -0.06726174 0.98211503 0.78196698 -0.03378348
27.99063873 10.03020859 -0.23671271 0.96316826 0.68413383 -0.11889344
28.45417213 13.54237938 1.36419129 0.97911859 0.92368966 0.68519086
28.41366005 12.31578445 1.19432235 0.97772455 0.84002692 0.59987098
28.11260605 9.77453232 0.80762917 0.96736521 0.66669488 0.40564701
27.66269684 10.07634449 1.78384399 0.95188367 0.68728065 0.89596939
27.48638725 14.52331161 -0.59919775 0.94581676 0.99059647 -0.30095840
28.67313385 13.75974464 -0.79806763 0.98665315 0.93851560 -0.40084454
26.78212166 14.58807850 0.42171559 0.92158270 0.99501401 0.21181463
28.59861565 14.22364521 0.26865521 0.98408896 0.97015703 0.13493715
28.57476807 11.21642017 -1.09623694 0.98326838 0.76504219 -0.55060571
28.57408714 12.95588684 0.14374772 0.98324490 0.88368660 0.07220001
28.35149574 10.36131573 -0.23821564 0.97558546 0.70671779 -0.11964831
28.48545647 13.77735710 1.37038124 0.98019511 0.93971688 0.68829989
28.41613960 12.52959251 1.19810474 0.97780991 0.85461020 0.60177076
28.33368683 11.22735405 0.97767895 0.97497267 0.76578796 0.49105775
27.90937424 9.90075397 0.80286628 0.96037191 0.67530411 0.40325478
27.97479248 10.38987446 1.81003213 0.96262300 0.70866573 0.90912288
27.11625671 14.54617977 -0.59450883 0.93308043 0.99215621 -0.29860330
28.68679237 13.98864555 -0.80039209 0.98712313 0.95412832 -0.40201205
26.42403030 14.60882473 0.41613856 0.90926069 0.99642909 0.20901346
28.60331535 14.45078850 0.27000418 0.98425066 0.98564982 0.13561471
28.58728027 11.42907715 -1.09904516 0.98369890 0.77954698 -0.55201620
28.58108711 13.17625141 0.14462729 0.98348582 0.89871705 0.07264179
28.57223511 11.89598465 -0.06682113 0.98318118 0.81139350 -0.03356218
28.51442146 10.62459373 -0.23902696 0.98119181 0.72467530 -0.12005581
28.47544861 13.99390221 1.37447619 0.97985071 0.95448685 0.69035667
28.42798805 12.74882889 1.20240295 0.97821760 0.86956370 0.60392964
28.36825752 11.44771957 0.98184913 0.97616225 0.78081852 0.49315229
27.85789108 10.08000565 0.80324733 0.95860034 0.68753040 0.40344617
28.27282906 10.70347214 1.83543837 0.97287852 0.73005539 0.92188364
26.73289299 14.55731583 -0.58958244 0.91988873 0.99291581 -0.29612893
28.67360878 14.20584774 -0.80213541 0.98666948 0.96894312 -0.40288767
26.06151581 14.62271404 0.41045147 0.89678639 0.99737644 0.20615701
28.33218956 14.53812408 0.26743349 0.97492117 0.99160677 0.13432352
28.57376862 13.39126492 0.14538120 0.98323399 0.91338259 0.07302046
28.53376579 12.09085464 -0.06672934 0.98185748 0.82468504 -0.03351607
28.52374077 10.83270836 -0.23929963 0.98151249 0.73887020 -0.12019276
28.28994179 9.52807617 -0.37552238 0.97346735 0.64988476 -0.18861321
28.49423599 14.22601414 1.38019013 0.98049724 0.97031862 0.69322658
28.43456268 12.96704769 1.20652926 0.97844386 0.88444781 0.60600215
28.20461845 10.40666103 0.81715500 0.97053134 0.70981067 0.41043156
28.03937531 9.61832905 1.62796950 0.96484530 0.65604067 0.81767845
26.38895988 14.58552265 -0.58530903 0.90805387 0.99483973 -0.29398254
28.69277382 14.44049263 -0.80466735 0.98732895 0.98494762 -0.40415940
25.71203995 14.63956451 0.40502119 0.88476080 0.99852574 0.20342955
27.95643234 14.56816864 0.26336113 0.96199119 0.99365604 0.13227810
28.60277939 13.62479019 0.14651206 0.98423225 0.92931068 0.07358845
28.55092430 12.31022167 -0.06649526 0.98244786 0.83964747 -0.03339850
28.45138359 11.01026726 -0.23928632 0.97902262 0.75098103 -0.12018608
28.18222427 9.68941402 -0.37512431 0.96976078 0.66088915 -0.18841328
28.47914505 14.44266796 1.38418984 0.97997791 0.98509598 0.69523555
28.42139435 13.17743301 1.20979583 0.97799069 0.89879763 0.60764283
28.30702400 10.64711952 0.82287049 0.97405517 0.72621173 0.41330227
27.90676689 9.76929760 1.62344968 0.96028221 0.66633779 0.81540829
26.03004646 14.60117245 -0.58076847 0.89570355 0.99590713 -0.29170194
28.42337418 14.52958870 -0.80051661 0.97805882 0.99102461 -0.40207461
25.35473824 14.64759922 0.39940748 0.87246591 0.99907380 0.20060995
27.56374359 14.58472919 0.25903425 0.94847864 0.99478561 0.13010485
28.77425385 13.43166447 -0.92395353 0.99013275 0.91613811 -0.46407312
28.57599449 13.83303070 0.14710443 0.98331058 0.94351423 0.07388598
28.55545807 12.52546692 -0.06628872 0.98260391 0.85432881 -0.03329476
28.53878021 11.19910526 -0.23978508 0.98202997 0.76386118 -0.12043659
28.07392693 9.80040169 -0.37459883 0.96603423 0.66845936 -0.18814935
28.24007988 14.48927402 1.37504768 0.97175163 0.98827487 0.69064373
28.45120239 13.35457897 1.21417999 0.97901642 0.91088033 0.60984486
28.43130112 12.04827595 0.99238437 0.97833163 0.82178086 0.49844381
28.44138908 10.85106182 0.82915747 0.97867876 0.74012208 0.41646001
28.21940231 9.58311176 0.60685498 0.97104007 0.65363854 0.30480438
27.79079819 9.87600899 1.61904871 0.95629168 0.67361629 0.81319785
25.69838905 14.57452583 -0.57628727 0.88429111 0.99408966 -0.28945118
28.04366684 14.50282764 -0.79325277 0.96499294 0.98919928 -0.39842620
25.04723740 14.62758636 0.39434412 0.86188471 0.99770874 0.19806679
27.20191383 14.55800724 0.25480914 0.93602794 0.99296296 0.12798271
28.99775314 12.39278221 -1.12238526 0.99782342 0.84527874 -0.56373924
28.59846497 14.01070690 0.14798400 0.98408377 0.95563304 0.07432776
28.58387375 12.69881058 -0.06606843 0.98358166 0.86615211 -0.03318411
28.55140114 11.41165543 -0.24008434 0.98246431 0.77835864 -0.12058689
27.93076324 9.94780350 -0.37391412 0.96110791 0.67851323 -0.18780544
28.46769333 13.58132458 1.21899402 0.97958386 0.92634600 0.61226279
28.42112732 12.25512218 0.99501818 0.97798151 0.83588928 0.49976671
28.44715691 11.05856991 0.83169770 0.97887719 0.75427562 0.41773590
28.08116150 9.73343468 0.60480648 0.96628314 0.66389167 0.30377549
27.65497780 10.02394485 1.61440992 0.95161802 0.68370664 0.81086791
25.34468842 14.58491039 -0.57180613 0.87212014 0.99479795 -0.28720045
27.65093422 14.52089500 -0.78619647 0.95147890 0.99043161 -0.39488205
24.71751976 14.64384937 0.38928080 0.85053903 0.99881804 0.19552363
26.84622574 14.58560181 0.25099131 0.92378855 0.99484509 0.12606514
28.62262917 14.24633217 0.14911486 0.98491526 0.97170442 0.07489576
28.57826805 12.91187000 -0.06588025 0.98338878 0.88068432 -0.03308960
28.23999214 10.25804520 -0.37706694 0.97174859 0.69967401 -0.18938901
27.47109032 14.53414345 1.34352601 0.94529039 0.99133527 0.67481136
28.47166824 13.80356598 1.22329223 0.97972065 0.94150454 0.61442167
28.43144608 12.47193623 0.99852991 0.97833657 0.85067761 0.50153053
28.43657112 11.26068020 0.83372986 0.97851294 0.76806104 0.41875657
27.95157433 9.88572788 0.60300779 0.96182400 0.67427921 0.30287206
27.84432220 10.29076767 1.63046730 0.95813346 0.70190591 0.81893301
25.01087189 14.60253620 -0.56765139 0.86063337 0.99600017 -0.28511363
27.25027084 14.52990723 -0.77893263 0.93769193 0.99104631 -0.39123365
26.48426819 14.60544968 0.24707165 0.91133350 0.99619889 0.12409641
29.06100655 12.85389137 -1.12993646 1.00000000 0.87672973 -0.56753194
28.64138794 14.48100471 0.15020983 0.98556077 0.98771083 0.07544573
28.59292793 13.13536358 -0.06563699 0.98389322 0.89592820 -0.03296742
28.51264572 10.56008053 -0.37993312 0.98113072 0.72027498 -0.19082859
28.45605278 14.01754951 1.22673070 0.97918332 0.95609975 0.61614871
28.42007446 12.68041611 1.00123692 0.97794527 0.86489743 0.50289017
28.44495392 11.47133064 0.83646059 0.97880143 0.78242898 0.42012814
27.84752274 10.04625797 0.60190862 0.95824355 0.68522853 0.30231997
28.21640396 10.62991714 1.65830016 0.97093689 0.72503835 0.83291262
26.89985085 14.56108475 -0.77283096 0.92563385 0.99317288 -0.38816896
26.14058876 14.63108635 0.24340652 0.89950734 0.99794751 0.12225553
29.04714394 13.06653214 -1.13224554 0.99952298 0.89123338 -0.56869173
28.33464050 14.54999924 0.14803785 0.97500545 0.99241674 0.07435481
28.60046577 13.35701466 -0.06540751 0.98415262 0.91104645 -0.03285216
28.58731651 12.05597115 -0.24100870 0.98370016 0.82230574 -0.12105118
28.52807808 10.77004623 -0.38063374 0.98166174 0.73459619 -0.19118050
26.73008537 14.57539749 1.31333768 0.91979212 0.99414909 0.65964866
28.46030617 14.24262619 1.23120081 0.97932971 0.97145164 0.61839390
28.43087196 12.89996529 1.00489497 0.97831684 0.87987232 0.50472748
28.18926430 10.36985493 0.61270076 0.97000301 0.70730025 0.30774054
28.31270027 12.11511612 1.87231016 0.97425050 0.82633984 0.94040316
26.56064415 14.59420776 -0.76697838 0.91396159 0.99543208 -0.38522941
25.77676964 14.64114761 0.23943596 0.88698816 0.99863374 0.12026124
28.90628242 13.22220993 -1.13024855 0.99467587 0.90185177 -0.56768870
27.94307518 14.57127285 0.14500424 0.96153158 0.99386775 0.07283112
28.59911346 13.57585049 -0.06519639 0.98410606 0.92597264 -0.03274612
28.58449936 12.26694870 -0.24127471 0.98360324 0.83669597 -0.12118479
28.52705956 10.97488689 -0.38120696 0.98162669 0.74856782 -0.19146840
28.47353363 14.47374630 1.23618674 0.97978485 0.98721576 0.62089819
28.43458176 13.11764050 1.00833356 0.97844452 0.89471936 0.50645459
28.41566849 10.65608978 0.62049502 0.97779369 0.72682357 0.31165534
27.81710434 12.11006165 1.84247398 0.95719689 0.82599509 0.92541742
26.19588661 14.60905838 -0.76050317 0.90141016 0.99644500 -0.38197711
25.43466377 14.65919018 0.23577084 0.87521619 0.99986440 0.11842036
28.82263374 13.40357113 -1.13024855 0.99179751 0.91422194 -0.56768870
27.55590630 14.59008121 0.14200653 0.94820893 0.99515063 0.07132547
28.59793854 13.79606342 -0.06498067 0.98406565 0.94099277 -0.03263777
28.61255646 12.43904591 -0.24158727 0.98456866 0.84843421 -0.12134177
28.53279877 11.13169003 -0.38170058 0.98182416 0.75926298 -0.19171633
28.15454483 14.47875500 1.22406590 0.96880829 0.98755735 0.61481023
28.45396423 13.28949642 1.01162577 0.97911143 0.90644121 0.50810820
28.43020821 12.04072762 0.84293813 0.97829401 0.82126600 0.42338160
28.44551277 10.82038975 0.62264347 0.97882062 0.73803002 0.31273445
25.85667992 14.58029270 -0.75406951 0.88973790 0.99448299 -0.37874568
25.10255051 14.62603855 0.23190208 0.86378807 0.99760318 0.11647721
28.67774010 13.50098133 -1.12744021 0.98681164 0.92086601 -0.56627816
27.21367073 14.57325268 0.13922423 0.93643248 0.99400282 0.06992801
28.62429619 13.97536659 -0.06474660 0.98497266 0.95322257 -0.03252020
28.60149193 12.64855003 -0.24183331 0.98418796 0.86272395 -0.12146536
28.50876999 11.32917976 -0.38209867 0.98099732 0.77273321 -0.19191629
27.76910019 14.50163555 1.20979583 0.95554501 0.98911798 0.60764283
28.46201324 13.51166916 1.01535702 0.97938842 0.92159504 0.50998229
28.40354538 12.24051380 0.84465277 0.97737652 0.83489287 0.42424282
28.46460724 11.03280640 0.62499177 0.97947770 0.75251836 0.31391394
25.51975250 14.60261059 -0.74821693 0.87814415 0.99600524 -0.37580609
24.79831696 14.65845394 0.22877145 0.85331929 0.99981415 0.11490478
28.69155312 13.72829247 -1.13087261 0.98728698 0.93637031 -0.56800216
26.84580803 14.59380627 0.13640603 0.92377418 0.99540472 0.06851251
28.62732697 14.20020866 -0.06451252 0.98507690 0.96855849 -0.03240263
28.62539291 12.87483692 -0.24221238 0.98501039 0.87815839 -0.12165575
28.46479034 13.73273182 1.01894188 0.97948396 0.93667310 0.51178282
28.38464355 12.44445992 0.84668499 0.97672611 0.84880352 0.42526355
28.43378830 11.22682953 0.62604100 0.97841716 0.76575220 0.31444094
25.16800499 14.61225033 -0.74199075 0.86604035 0.99666274 -0.37267888
28.68025970 13.94495964 -1.13349366 0.98689836 0.95114863 -0.56931865
26.48577118 14.61418819 0.13365963 0.91138518 0.99679494 0.06713308
28.63044357 14.42653847 -0.06427386 0.98518419 0.98399580 -0.03228276
28.62211800 13.09025860 -0.24249834 0.98489767 0.89285171 -0.12179937
28.46411133 13.95348167 1.02245367 0.97946060 0.95172989 0.51354671
28.38984871 12.66006374 0.84960622 0.97690523 0.86350930 0.42673078
28.45546341 11.44249630 0.62853914 0.97916305 0.78046227 0.31569567
28.29667854 11.84380817 1.68946338 0.97369921 0.80783468 0.84856492
24.85680008 14.64136600 -0.73671931 0.85533172 0.99864864 -0.37003121
28.68709564 14.17175198 -1.13680124 0.98713356 0.96661752 -0.57097989
26.12480545 14.62964916 0.13089529 0.89896423 0.99784946 0.06574463
28.39854050 14.53424835 -0.06463645 0.97720432 0.99134243 -0.03246488
28.61726379 13.30614662 -0.24278429 0.98473066 0.90757686 -0.12194300
28.54475212 11.97108364 -0.38429606 0.98223549 0.81651580 -0.19301996
28.46536064 14.17654324 1.02611172 0.97950363 0.96694434 0.51538402
28.37526321 12.86795616 0.85189241 0.97640330 0.87768906 0.42787907
28.32091713 12.06355000 1.69588637 0.97453326 0.82282269 0.85179102
26.51085663 14.57512283 -0.88678408 0.91224837 0.99413037 -0.44540408
28.68148613 14.39380646 -1.13973427 0.98694056 0.98176324 -0.57245308
25.75601196 14.63621140 0.12804118 0.88627392 0.99829704 0.06431110
28.00842476 14.55762863 -0.06540751 0.96378028 0.99293715 -0.03285216
28.62347603 13.52847958 -0.24311680 0.98494440 0.92274159 -0.12211001
28.55360985 12.18625450 -0.38502854 0.98254031 0.83119202 -0.19338787
28.47384644 14.40467548 1.03013551 0.97979558 0.98250461 0.51740503
28.37914658 13.08538342 0.85487717 0.97653693 0.89251918 0.42937821
28.31235695 12.27058697 1.70028722 0.97423869 0.83694410 0.85400140
28.46933556 14.51207542 -1.13549066 0.97964036 0.98983008 -0.57032168
25.42627907 14.66072559 0.12558199 0.87492770 0.99996912 0.06307593
27.61738014 14.57575321 -0.06618316 0.95032430 0.99417335 -0.03324175
28.65319443 13.70815754 -0.24346261 0.98596704 0.93499696 -0.12228370
28.57849693 12.35633659 -0.38574508 0.98339665 0.84279287 -0.19374776
28.26504898 14.46684551 1.02435577 0.97261083 0.98674506 0.51450205
28.40589714 13.26046181 0.85798889 0.97745746 0.90446085 0.43094113
28.49302101 12.03340435 0.63503444 0.98045540 0.82076651 0.31895804
25.84767532 14.58245468 -0.87252998 0.88942808 0.99463046 -0.43824467
28.10560417 14.49416637 -1.12513113 0.96712422 0.98860854 -0.56511837
25.10302162 14.63215637 0.12294329 0.86380428 0.99802047 0.06175059
27.28011322 14.56275082 -0.06688079 0.93871880 0.99328649 -0.03359214
28.58627892 13.89755058 -0.24353576 0.98366445 0.94791496 -0.12232044
28.56988144 12.56620789 -0.38635015 0.98310018 0.85710764 -0.19405167
27.87556458 14.48948383 1.01206470 0.95920849 0.98828918 0.50832862
28.40867996 13.47986794 0.86103719 0.97755319 0.91942596 0.43247220
28.50688553 12.25081539 0.63748264 0.98093247 0.83559555 0.32018772
25.50057030 14.59837437 -0.86525446 0.87748408 0.99571627 -0.43459040
27.72522926 14.51949310 -1.11495888 0.95403540 0.99033600 -0.56000918
24.79377556 14.66117859 0.12068155 0.85316300 1.00000000 0.06061459
26.91894531 14.58824921 -0.06758302 0.92629087 0.99502569 -0.03394485
28.59877968 14.12655354 -0.24390817 0.98409462 0.96353465 -0.12250749
28.56523323 12.77890491 -0.38700300 0.98294026 0.87161511 -0.19437958
27.51874733 14.52457809 1.00109053 0.94693029 0.99068284 0.50281662
28.40082359 13.69548321 0.86376792 0.97728288 0.93413246 0.43384376
28.49715042 12.45927715 0.63933128 0.98059750 0.84981418 0.32111624
25.14911461 14.60749722 -0.85783046 0.86539036 0.99633855 -0.43086156
27.34565544 14.54061794 -1.10478663 0.94097412 0.99177688 -0.55489999
26.55153275 14.60593891 -0.06830359 0.91364807 0.99623227 -0.03430677
28.60595322 14.35446358 -0.24426727 0.98434144 0.97907978 -0.12268785
28.58817291 13.00526905 -0.38791063 0.98372960 0.88705480 -0.19483545
28.41470528 13.92298031 0.86732423 0.97776055 0.94964945 0.43562999
28.51515579 12.68107891 0.64197934 0.98121709 0.86494267 0.32244626
24.82782936 14.63006210 -0.85124785 0.85433483 0.99787760 -0.42755532
26.97396088 14.56134605 -1.09486401 0.92818397 0.99319071 -0.54991615
26.18671799 14.62056732 -0.06901958 0.90109468 0.99722999 -0.03466639
28.42078781 14.48572063 -0.24391481 0.97796983 0.98803246 -0.12251083
28.59667969 13.22655487 -0.38870680 0.98402232 0.90214813 -0.19523534
28.40716743 14.14137840 0.87018198 0.97750115 0.96454579 0.43706536
28.51327324 12.89536953 0.64412779 0.98115230 0.87955886 0.32352537
26.61186600 14.58278179 -1.08525336 0.91572416 0.99465275 -0.54508901
25.81233406 14.62528515 -0.06976311 0.88821197 0.99755180 -0.03503984
28.03801918 14.51304245 -0.24282420 0.96479863 0.98989600 -0.12196305
28.59991074 13.44676018 -0.38947111 0.98413354 0.91716772 -0.19561923
28.42475319 14.37377834 0.87399226 0.97810626 0.98039716 0.43897915
28.50073624 13.10596561 0.64602643 0.98072088 0.89392304 0.32447898
26.23659515 14.59248257 -1.07514346 0.90281093 0.99531442 -0.54001111
25.48403549 14.65176964 -0.07038730 0.87691510 0.99935824 -0.03535336
27.66998482 14.48802662 -0.24170032 0.95213443 0.98818976 -0.12139855
28.63196754 13.62687397 -0.39031506 0.98523659 0.92945284 -0.19604312
28.18057823 14.41731834 0.86770523 0.96970415 0.98336697 0.43582135
28.54563141 13.28984451 0.64897424 0.98226577 0.90646493 0.32595959
25.90259361 14.56719494 -1.06565762 0.89131784 0.99358964 -0.53524667
25.15350342 14.62012005 -0.07108034 0.86554140 0.99719954 -0.03570145
27.28712845 14.50649834 -0.24060304 0.93896019 0.98944968 -0.12084743
28.62682533 13.84563732 -0.39103159 0.98505968 0.94437408 -0.19640301
27.89083099 14.49074650 0.86059266 0.95973384 0.98837531 0.43224895
28.56099510 13.51591301 0.65172225 0.98279440 0.92188448 0.32733983
25.57086563 14.59308815 -1.05704558 0.87990296 0.99535573 -0.53092110
24.83536911 14.64495182 -0.07168159 0.85459423 0.99889320 -0.03600343
26.92273712 14.53024769 -0.23957227 0.92642134 0.99106956 -0.12032970
28.67033577 14.08953857 -0.39219397 0.98655689 0.96100998 -0.19698684
25.33812714 14.56877995 0.93195313 0.87189436 0.99369776 0.46809107
27.51644325 14.51628113 0.85043180 0.94685102 0.99011695 0.42714545
28.54039383 13.72625351 0.65352094 0.98208553 0.93623126 0.32824326
25.22253799 14.60538864 -1.04780936 0.86791688 0.99619472 -0.52628207
26.55913734 14.54999542 -0.23854150 0.91390973 0.99241650 -0.11981197
28.66357803 14.31044197 -0.39292645 0.98632431 0.97607720 -0.19735473
24.99566269 14.58183956 0.92134476 0.86010998 0.99458849 0.46276283
28.55601120 13.95527935 0.65636885 0.98262292 0.95185250 0.32967368
24.89231873 14.62400627 -1.03919733 0.85655391 0.99746460 -0.52195650
26.21034050 14.57353973 -0.23756394 0.90190750 0.99402237 -0.11932098
28.52492332 14.46586418 -0.39249653 0.98155320 0.98667812 -0.19713880
24.69534111 14.61557770 0.91249222 0.84977585 0.99688971 0.45831648
26.78412437 14.56262875 0.83061814 0.92165166 0.99327821 0.41719368
28.56091499 14.18060112 0.65896696 0.98279166 0.96722108 0.33097860
25.85186005 14.58737564 -0.23654646 0.88957208 0.99496609 -0.11880993
28.15601540 14.50212479 -0.39001250 0.96885890 0.98915136 -0.19589116
26.42092133 14.58073902 0.82077479 0.90915370 0.99451345 0.41224965
28.55696678 14.40293694 0.66136521 0.98265582 0.98238605 0.33218318
25.52409363 14.56119347 -0.23555559 0.87829351 0.99318027 -0.11831225
27.76977921 14.46942997 -0.38716224 0.95556837 0.98692131 -0.19445956
28.35516739 14.46927452 0.65761793 0.97571182 0.98691076 0.33030105
25.17948723 14.57481956 -0.23458467 0.86643547 0.99410969 -0.11782459
27.39360809 14.49323273 -0.38459861 0.94262421 0.98854488 -0.19317192
27.95293808 14.48635674 0.64887434 0.96187097 0.98807585 0.32590941
24.85124207 14.59382248 -0.23367360 0.85514045 0.99540579 -0.11736698
27.04997063 14.52989960 -0.38232160 0.93079948 0.99104583 -0.19202825
25.37154579 14.57838154 0.79168934 0.87304431 0.99435264 0.39764094
27.59764481 14.52314091 0.64142978 0.94964516 0.99058479 0.32217023
26.63494682 14.52361870 -0.37939173 0.91651839 0.99061739 -0.19055668
25.02741432 14.59034061 0.78241754 0.86120260 0.99516833 0.39298400
27.24123955 14.55509567 0.63393521 0.93738115 0.99276435 0.31840596
26.30160332 14.55719757 -0.37719432 0.90504789 0.99290770 -0.18945298
24.68930244 14.60161400 0.77333629 0.84956807 0.99593723 0.38842279
26.86619377 14.57267857 0.62589109 0.92447567 0.99396366 0.31436563
25.94447899 14.57347107 -0.37477398 0.89275914 0.99401772 -0.18823732
26.46397972 14.57071781 0.61704755 0.91063535 0.99382991 0.30992380
25.61803627 14.54957199 -0.37241736 0.88152611 0.99238759 -0.18705367
26.08046532 14.52041340 0.60805410 0.89743847 0.99039876 0.30540666
25.27995872 14.56861782 -0.37015626 0.86989272 0.99368668 -0.18591797
25.66307449 14.50029373 0.59871095 0.88307589 0.98902649 0.30071390
24.93057251 14.57693768 -0.36778370 0.85787022 0.99425417 -0.18472631
25.27821159 14.49338913 0.59026712 0.86983263 0.98855555 0.29647282
24.57004356 14.57431507 -0.36529967 0.84546429 0.99407530 -0.18347867
24.91347885 14.49327278 0.58237284 0.85728204 0.98854756 0.29250777
