-7.93123293 0.03607108 1.76667917 -0.90678102 0.02400091 0.75929952
-7.93910456 -0.01379625 1.76845074 -0.90768099 -0.00917973 0.76006091
-8.26386929 0.06503688 2.31275916 -0.94481146 0.04327412 0.99399877
-7.75414038 -0.29329926 1.72770488 -0.88653398 -0.19515495 0.74254876
-7.95865536 -0.35166723 1.77465117 -0.90991622 -0.23399173 0.76272577
-7.96602678 -0.40218219 1.77686572 -0.91075903 -0.26760328 0.76367760
-7.66224289 -0.42228138 1.70821774 -0.87602729 -0.28097686 0.73417342
-7.96805763 -0.01789693 1.72895479 -0.91099119 -0.01190823 0.74308598
-8.02835560 0.10493612 2.18206906 -0.91788512 0.06982221 0.93782955
-7.63413572 -0.46879470 1.70246017 -0.87281376 -0.31192580 0.73169887
-7.84086084 -0.06720240 1.70086598 -0.89644873 -0.04471502 0.73101372
-7.74412727 -0.33902556 1.31675220 -0.88538915 -0.22558023 0.56592578
-7.64465809 -0.51771045 1.70556045 -0.87401682 -0.34447327 0.73303133
-7.98868227 -0.11828579 1.73370826 -0.91334921 -0.07870479 0.74512899
-7.71036291 -0.38601708 1.31125867 -0.88152885 -0.25684738 0.56356472
-7.61402941 -0.56364435 1.69935989 -0.87051505 -0.37503669 0.73036641
-7.65679026 -0.44392276 2.14388347 -0.87540388 -0.29537654 0.92141783
-7.62977457 -0.61308712 1.70378888 -0.87231517 -0.40793484 0.73226994
-7.66997194 -0.48100343 2.14825559 -0.87691098 -0.32004923 0.92329693
-7.52382803 -0.63999611 1.68031573 -0.86020225 -0.42583948 0.72218144
-7.80001497 -0.25081679 1.69265544 -0.89177883 -0.16688804 0.72748494
-7.50800800 -0.68616033 1.67765832 -0.85839355 -0.45655617 0.72103930
-7.94855070 -0.30520558 1.72592986 -0.90876096 -0.20307715 0.74178588
-7.60089874 -0.56006277 1.29409134 -0.86901379 -0.37265357 0.55618638
-7.50742960 -0.73371053 1.67854416 -0.85832745 -0.48819503 0.72142005
-7.39890575 -0.59140974 1.25941324 -0.84591985 -0.39351118 0.54128212
-7.53563976 -0.78438747 1.68607318 -0.86155272 -0.52191436 0.72465593
-7.98894882 -0.40723571 1.73586893 -0.91337973 -0.27096578 0.74605763
-7.51868391 -0.64889294 1.28104413 -0.85961413 -0.43175924 0.55057883
-7.54025269 -0.83281606 1.68828773 -0.86208010 -0.55413771 0.72560775
-7.73665285 -0.44376490 1.68055558 -0.88453460 -0.29527152 0.72228456
-7.49484444 -0.69425076 1.27761066 -0.85688853 -0.46193936 0.54910320
-8.04999638 -0.94175011 1.80609643 -0.92035931 -0.62662005 0.77624065
-7.64405203 -0.48689467 1.66067731 -0.87394750 -0.32396913 0.71374106
-7.90474081 -0.79644239 2.22203612 -0.90375215 -0.52993542 0.95500696
-7.99437523 0.12010462 2.10780621 -0.91400009 0.07991500 0.90591222
-7.48837423 -0.74112886 1.27726734 -0.85614884 -0.49313104 0.54895562
-7.70326519 -0.37126058 1.26955843 -0.88071740 -0.24702872 0.54564244
-7.63499689 -0.53452015 1.65938091 -0.87291223 -0.35565808 0.71318388
-7.64268064 -0.80576837 2.14825559 -0.87379074 -0.53614074 0.92329693
-7.73284578 -0.41020048 2.10328960 -0.88409936 -0.27293849 0.90397102
-7.50635052 -0.77870315 1.28104413 -0.85820407 -0.51813215 0.55057883
-7.69158268 -0.40706199 1.26789188 -0.87938172 -0.27085021 0.54492617
-8.13391590 -1.04259098 1.82779801 -0.92995387 -0.69371736 0.78556770
-7.64992285 -0.57175660 1.66327012 -0.87461871 -0.38043442 0.71485543
-7.62408733 -0.85224098 2.14442992 -0.87166494 -0.56706262 0.92165267
-7.70701838 -0.45746902 2.09690213 -0.88114649 -0.30438992 0.90122575
-7.76063681 -0.60927433 0.54316545 -0.88727671 -0.40539789 0.23344661
-7.57375097 -0.83402431 1.29374790 -0.86590999 -0.55494165 0.55603880
-8.06537151 -1.08519995 1.81362557 -0.92211717 -0.72206843 0.77947658
-7.60724354 -0.61675858 1.65462744 -0.86973917 -0.41037774 0.71114087
-7.77931261 -0.15378594 1.62986124 -0.88941193 -0.10232583 0.70049667
-7.72515631 -0.50721806 2.10275745 -0.88322020 -0.33749187 0.90374231
-7.77650309 -0.65975952 0.54490983 -0.88909072 -0.43898964 0.23419632
-8.01247787 -0.93452930 1.37168765 -0.91606981 -0.62181550 0.58953643
-7.52733278 -0.65811485 1.63777411 -0.86060297 -0.43789530 0.70389754
-7.76059818 -0.20215699 1.62609649 -0.88727230 -0.13451086 0.69887859
-7.76783085 -0.58527690 0.81185943 -0.88809919 -0.38943052 0.34892836
-8.22922039 -1.02640104 2.32095695 -0.94085008 -0.68294495 0.99752206
-7.77220440 -0.70860738 0.54490983 -0.88859922 -0.47149193 0.23419632
-7.51721478 -0.70486599 1.63647771 -0.85944617 -0.46900252 0.70334035
-7.78653860 -0.25187063 1.63195264 -0.89023805 -0.16758925 0.70139551
-7.67102242 -0.62623399 0.80047148 -0.87703103 -0.41668248 0.34403396
-7.40165710 -0.57928753 1.22089314 -0.84623444 -0.38544533 0.52472663
-7.52429914 -0.75321954 1.63907051 -0.86025614 -0.50117588 0.70445472
-7.56713629 -0.65339559 0.78811431 -0.86515373 -0.43475524 0.33872297
-7.55413628 -0.62662256 1.24722576 -0.86366743 -0.41694102 0.53604406
-7.52843666 -0.78946221 1.64079905 -0.86072916 -0.52529097 0.70519757
-7.79111338 -0.33783042 1.63362586 -0.89076108 -0.22478501 0.70211464
-7.67553091 -0.71167278 0.80192524 -0.87754649 -0.47353160 0.34465876
-7.55594397 -0.67458421 1.24822569 -0.86387408 -0.44885367 0.53647381
-7.99000645 -0.39729208 1.67671037 -0.91350061 -0.26434952 0.72063190
-7.76966143 -0.76993096 0.81404006 -0.88830847 -0.51229531 0.34986559
-8.44945526 -0.80664009 2.30875468 -0.96602958 -0.53672075 0.99227768
-8.01139927 0.17294230 2.03844500 -0.91594648 0.11507204 0.87610149
-7.53977489 -0.72095132 1.24622571 -0.86202550 -0.47970533 0.53561425
-8.11156178 -0.95218974 1.77303267 -0.92739809 -0.63356638 0.76203018
-7.78967285 -0.57343459 0.77042830 -0.89059639 -0.38155091 0.33112171
-7.64424181 -0.78020310 2.08678865 -0.87396920 -0.51913017 0.89687908
-7.53509617 -0.76831061 1.24622571 -0.86149055 -0.51121718 0.53561425
-8.15221691 -1.45148742 1.84595644 -0.93204623 -0.96578819 0.79337204
-8.11705017 -1.00454724 1.77562547 -0.92802560 -0.66840386 0.76314455
-7.69553709 -0.47892246 1.61480248 -0.87983382 -0.31866458 0.69402456
-7.58982897 -0.60720646 0.74753475 -0.86774820 -0.40402198 0.32128233
-7.65644360 -0.83004206 2.09157920 -0.87536424 -0.55229193 0.89893800
-7.57130384 -0.81998855 1.25322556 -0.86563021 -0.54560256 0.53862274
-8.07764912 -1.05132568 1.76827919 -0.92352086 -0.69952923 0.75998718
-7.69067574 -0.37014332 1.21215820 -0.87927800 -0.24628532 0.52097243
-7.64165449 -0.52365404 1.60392678 -0.87367344 -0.34842801 0.68935031
-7.77935314 -0.13326795 1.55971456 -0.88941658 -0.08867360 0.67034835
-7.73235989 -0.66713524 0.76464707 -0.88404381 -0.44389728 0.32863700
-7.72771168 -0.88672280 2.11287093 -0.88351238 -0.59000605 0.90808898
-8.05790806 -0.92261702 1.33688998 -0.92126387 -0.61388928 0.57458079
-7.65666056 -0.41665754 1.20704579 -0.87538904 -0.27723485 0.51877517
-7.64406300 -0.57211077 1.60518169 -0.87394875 -0.38067007 0.68988967
-7.77836227 -0.18214412 1.55971456 -0.88930327 -0.12119474 0.67034835
-7.64519405 -0.49030465 0.97945565 -0.87407809 -0.32623807 0.42095938
-7.69871235 -0.44038722 2.03170705 -0.88019687 -0.29302409 0.87320560
-8.03432655 -0.97114229 1.33389008 -0.91856778 -0.64617699 0.57329148
-7.66177320 -0.46525675 1.20832384 -0.87597358 -0.30957171 0.51932448
-7.63447046 -0.61963809 1.60392678 -0.87285209 -0.41229370 0.68935031
-8.18053341 -0.24194238 1.64240122 -0.93528366 -0.16098319 0.70588619
-7.53028297 -0.51827753 0.96298230 -0.86094028 -0.34485060 0.41387933
-7.66956234 -0.47491854 2.02445960 -0.87686414 -0.31600046 0.87009072
-7.51068115 -0.64490807 1.57799244 -0.85869920 -0.42910782 0.67820400
-8.16951084 -0.28017798 1.64039421 -0.93402344 -0.18642433 0.70502359
-7.61763763 -0.57264698 0.97627658 -0.87092757 -0.38102683 0.41959307
-7.69147778 -0.52487403 2.03118944 -0.87936974 -0.34923977 0.87298316
-7.51037502 -0.69245565 1.57882905 -0.85866416 -0.46074495 0.67856359
-7.99529552 -0.32493901 1.60507178 -0.91410536 -0.21620736 0.68984240
-7.60600090 -0.61983436 0.97512054 -0.86959714 -0.41242430 0.41909620
-7.93796253 -0.16554120 2.01940989 -0.90755045 -0.11014751 0.86792046
-7.42234564 -0.57897365 1.17093897 -0.84859973 -0.38523647 0.50325686
-7.50587606 -0.73963076 1.57882905 -0.85814983 -0.49213421 0.67856359
-7.91623545 -0.58096939 0.75399381 -0.90506637 -0.38656440 0.32405835
-7.59801435 -0.66725498 0.97454256 -0.86868399 -0.44397697 0.41884780
-7.57394409 -0.63912868 1.19618177 -0.86593205 -0.42526233 0.51410592
-7.50302505 -0.78698587 1.57924736 -0.85782385 -0.52364331 0.67874336
-7.74604368 -0.61700517 0.73521769 -0.88560826 -0.41054183 0.31598857
-7.57988358 -0.71364588 0.97251952 -0.86661112 -0.47484446 0.41797832
-8.14584732 -0.71159637 2.15646839 -0.93131799 -0.47348076 0.92682666
-8.19904423 -1.42248189 1.80717134 -0.93739998 -0.94648850 0.77670258
-7.54029274 -0.68394983 1.19138885 -0.86208469 -0.45508534 0.51204598
-7.54262543 -0.83920693 1.58886814 -0.86235136 -0.55839002 0.68287826
-7.76775026 -0.66794318 0.73812354 -0.88809001 -0.44443488 0.31723747
-7.62643242 -0.76653886 0.98003370 -0.87193304 -0.51003832 0.42120785
-7.64691353 -0.50405502 0.94112504 -0.87427467 -0.33538726 0.40448532
-8.15659904 -0.76424378 2.16060996 -0.93254721 -0.50851119 0.92860669
-7.53388166 -0.73111707 1.19106936 -0.86135173 -0.48646939 0.51190865
-7.59939194 -0.50137717 1.52599764 -0.86884153 -0.33360547 0.65585721
-7.74670649 -0.70287740 0.73611176 -0.88568407 -0.46767935 0.31637284
-7.64831400 -0.80523032 0.98379076 -0.87443477 -0.53578275 0.42282256
-7.58122587 -0.53578609 0.93219119 -0.86676461 -0.35650042 0.40064564
-7.66854572 -0.75377131 2.03015399 -0.87674791 -0.50154305 0.87253815
-7.53820753 -0.76743233 1.19234741 -0.86184627 -0.51063281 0.51245797
-7.48869419 -0.37212932 1.11114013 -0.85618538 -0.24760675 0.47755596
-7.92106915 -0.97065580 1.67252743 -0.90561903 -0.64585328 0.71883410
-7.67122698 -0.54223597 1.54125059 -0.87705445 -0.36079201 0.66241276
-7.90854120 -0.88361400 1.02280664 -0.90418667 -0.58793753 0.43959117
-7.58956003 -0.58428991 0.93386626 -0.86771744 -0.38877380 0.40136558
-7.59642982 -0.79472464 2.01203513 -0.86850286 -0.52879250 0.86475086
-7.54893494 -0.81652135 1.19490373 -0.86307275 -0.54329556 0.51355666
-7.61848497 -0.42622119 1.13136971 -0.87102443 -0.28359830 0.48625040
-8.07575703 -1.04157233 1.70724607 -0.92330450 -0.69303960 0.73375583
-7.57778835 -0.58374280 1.52278650 -0.86637157 -0.38840976 0.65447712
-7.72089767 -0.53312767 0.67877305 -0.88273335 -0.35473156 0.29172927
-7.93426895 -0.93708104 1.02743077 -0.90712816 -0.62351334 0.44157860
-7.56205082 -0.63005489 0.93051606 -0.86457229 -0.41922483 0.39992571
-7.62391758 -0.84614760 2.02083564 -0.87164557 -0.56300819 0.86853319
-7.68126297 -0.43878099 1.95579302 -0.87820184 -0.29195532 0.84057862
-7.67091656 -0.47737294 1.13982379 -0.87701893 -0.31763357 0.48988387
-8.13492584 -1.10137761 1.72146809 -0.93006933 -0.73283273 0.73986828
-7.53100586 -0.62787789 1.51395595 -0.86102289 -0.41777629 0.65068179
-8.08262920 -0.16642056 1.54477477 -0.92409021 -0.11073262 0.66392744
-7.75508595 -0.58436960 0.68276423 -0.88664210 -0.38882682 0.29344466
-7.94393063 -0.98891038 1.02974284 -0.90823275 -0.65799946 0.44257230
-7.57372665 -0.67892832 0.93274957 -0.86590719 -0.45174414 0.40088564
-7.66675854 -0.48633006 1.95278740 -0.87654358 -0.32359344 0.83928680
-7.98090219 -0.96605623 1.26711726 -0.91245973 -0.64279282 0.54459321
-8.11816692 -1.15107191 1.71937656 -0.92815328 -0.76589823 0.73896939
-7.48592138 -0.67161810 1.50552666 -0.85586840 -0.44688007 0.64705902
-7.71358871 -0.63010669 0.67877305 -0.88189769 -0.41925928 0.29172927
-7.59494543 -0.72889286 0.93637896 -0.86833316 -0.48498946 0.40244550
-8.36973476 -1.03758848 2.22532010 -0.95691514 -0.69038880 0.95641840
-7.71184921 -0.53773183 1.96531045 -0.88169879 -0.35779506 0.84466910
-7.98642159 -1.01770937 1.26903439 -0.91309077 -0.67716169 0.54541719
-7.61106968 -0.56988436 1.13167155 -0.87017661 -0.37918866 0.48638013
-8.11464214 -1.20263982 1.72021317 -0.92775029 -0.80021036 0.73932892
-7.48155403 -0.71863997 1.50552666 -0.85536909 -0.47816741 0.64705902
-7.78368807 -0.25740397 1.48688543 -0.88991219 -0.17127101 0.63904721
-7.74514866 -0.68160504 0.68255413 -0.88550591 -0.45352519 0.29335433
-7.66313028 -0.78386259 0.94670868 -0.87612873 -0.52156514 0.40688512
-8.68285942 -1.13262928 2.31177306 -0.99271476 -0.75362688 0.99357492
-7.59157085 -0.61645657 1.12925613 -0.86794734 -0.41017678 0.48534203
-8.13977051 -1.25876391 1.72732425 -0.93062323 -0.83755416 0.74238521
-7.49443769 -0.76738232 1.50913918 -0.85684204 -0.51059949 0.64861161
-7.81180859 -0.29526940 1.49263608 -0.89312720 -0.19646583 0.64151877
-7.80325890 -0.72362942 0.68906611 -0.89214969 -0.48148727 0.29615313
-7.76768589 -0.83127385 0.96206373 -0.88808262 -0.55311155 0.41348454
-7.65068865 -0.51383752 0.89850658 -0.87470627 -0.34189633 0.38616836
-8.15717697 -0.65778947 2.08252597 -0.93261331 -0.43767881 0.89504701
-7.57478952 -0.65107572 1.12714255 -0.86602873 -0.43321162 0.48443362
-8.16463757 -1.30211186 1.73401701 -0.93346626 -0.86639690 0.74526167
-7.52191782 -0.80594635 1.51556146 -0.85998386 -0.53625917 0.65137184
-7.93921041 -0.35038963 1.51793873 -0.90769309 -0.23314165 0.65239358
-7.89812803 -0.89510351 0.98132735 -0.90299612 -0.59558243 0.42176384
-7.54849815 -0.55437392 0.88509697 -0.86302280 -0.36886835 0.38040507
-8.51882362 -1.20627761 2.27087617 -0.97396052 -0.80263090 0.97599792
-8.11043644 -0.70544404 2.07150578 -0.92726946 -0.46938711 0.89031070
-7.93562984 -0.21486099 1.94105566 -0.90728372 -0.14296383 0.83424461
-7.55085754 -0.69689220 1.12412333 -0.86329257 -0.46369693 0.48313600
-8.08534431 -0.91618770 1.63276780 -0.92440063 -0.60961139 0.70174587
-7.95135736 -0.95162117 0.98970282 -0.90908188 -0.63318801 0.42536351
-7.61399937 -0.60749245 0.89448375 -0.87051159 -0.40421227 0.38443941
-8.09427357 -0.75533867 2.06850004 -0.92542154 -0.50258595 0.88901883
-7.75938702 -0.41834015 2.32439804 -0.88713384 -0.27835444 0.99900103
-7.56207418 -0.74583185 1.12653875 -0.86457497 -0.49626029 0.48417410
-8.05996799 -0.96469128 1.62875390 -0.92149937 -0.64188462 0.70002073
-7.81101274 -0.56175810 0.64989239 -0.89303619 -0.37378162 0.27931669
-7.60213518 -0.65461910 0.89341092 -0.86915517 -0.43556932 0.38397831
-7.58059168 -0.75676209 1.93625700 -0.86669207 -0.50353307 0.83218223
-7.90995407 0.10694059 1.84811020 -0.90434819 0.07115594 0.79429770
-7.75469542 -0.46696520 2.32381701 -0.88659745 -0.31070849 0.99875128
-7.58280706 -0.79594564 1.13046384 -0.86694539 -0.52960491 0.48586106
-7.67245340 -0.59991992 0.63626891 -0.87719464 -0.39917368 0.27346146
-7.61957550 -0.70443618 0.89636105 -0.87114912 -0.46871653 0.38524625
-7.59687281 -0.80656940 1.94176722 -0.86855352 -0.53667372 0.83455044
-7.66946077 -0.53120500 1.46733344 -0.87685251 -0.35345227 0.63064396
-7.70818090 -0.65157169 0.64027584 -0.88127941 -0.43354163 0.27518359
-7.62880182 -0.75369781 0.89823842 -0.87220395 -0.50149411 0.38605312
-7.62629938 -0.85809088 1.95078373 -0.87191784 -0.57095504 0.83842564
-7.96110535 -0.93588650 1.19024658 -0.91019636 -0.62271851 0.51155508
-7.59837151 -0.56208920 1.45391536 -0.86872482 -0.37400195 0.62487704
-7.95899773 -0.17051630 1.44745255 -0.90995538 -0.11345784 0.62209940
-7.73078537 -0.69025642 0.64288032 -0.88386381 -0.45928162 0.27630296
-7.73553276 -0.80136454 0.91325718 -0.88440657 -0.53321052 0.39250800
-7.68052578 -0.53339356 0.84830517 -0.87811756 -0.35490847 0.36459234
-8.22212315 -1.41508675 2.20098901 -0.94003862 -0.94156796 0.94596118
-7.54789686 -0.42907426 1.84687161 -0.86295408 -0.28549668 0.79376537
-7.92519808 -0.96963018 1.18541563 -0.90609103 -0.64517087 0.50947875
-7.53209162 -0.60462523 1.44164741 -0.86114705 -0.40230447 0.61960441
-7.94204426 -0.22012490 1.44452512 -0.90801710 -0.14646633 0.62084121
-7.76788425 -0.74290323 0.64708757 -0.88810533 -0.49431166 0.27811122
-7.84063625 -0.86237073 0.92827600 -0.89642310 -0.57380271 0.39896294
-7.56227112 -0.57325166 0.83355075 -0.86459750 -0.38142920 0.35825107
-8.37376499 -1.03351593 2.14814663 -0.95737588 -0.68767905 0.92325008
-7.64769220 -0.48324960 1.87247038 -0.87436372 -0.32154378 0.80476743
-7.49881697 -0.64931923 1.43589687 -0.85734272 -0.43204290 0.61713290
-7.80293560 -0.26569599 1.41891003 -0.89211273 -0.17678833 0.60983211
-7.92165756 -0.92191929 0.94007647 -0.90568626 -0.61342508 0.40403464
-7.57829571 -0.62232590 0.83609462 -0.86642957 -0.41408211 0.35934439
-7.66773415 -0.53296798 1.87826633 -0.87665510 -0.35462531 0.80725849
-7.45941734 -0.69305843 1.42899609 -0.85283816 -0.46114600 0.61416698
-7.80111217 -0.31471771 1.41891003 -0.89190429 -0.20940632 0.60983211
-7.71405220 -0.56967932 0.58071256 -0.88195068 -0.37905222 0.24958394
-7.57225943 -0.66975963 0.83584023 -0.86573946 -0.44564348 0.35923505
-8.36587429 -1.13942945 2.14964938 -0.95647377 -0.75815159 0.92389596
-7.46858501 -0.74130750 1.43167973 -0.85388631 -0.49324989 0.61532038
-7.67061138 -0.61505818 0.57700956 -0.87698406 -0.40924636 0.24799244
-7.62321281 -0.72241741 0.84296304 -0.87156498 -0.48068085 0.36229634
-8.32978725 -1.18793988 2.14213562 -0.95234793 -0.79042935 0.92066664
-7.91183329 -0.65060067 1.94105566 -0.90456307 -0.43289554 0.83424461
-7.99295473 -0.23078115 1.86848342 -0.91383773 -0.15355676 0.80305386
-7.72031069 -0.79453135 2.32149267 -0.88266623 -0.52866387 0.99775231
-7.57043791 -0.37131372 2.18634868 -0.86553121 -0.24706408 0.93966889
-7.48134327 -0.79012203 1.43513012 -0.85534495 -0.52573001 0.61680335
-7.65667343 -0.66240960 0.57608384 -0.87539053 -0.44075295 0.24759458
-7.70736313 -0.77904505 0.85441041 -0.88118589 -0.51835966 0.36721632
-7.90565681 -0.70012283 1.94057262 -0.90385687 -0.46584651 0.83403701
-7.88050318 -0.27738217 1.84209085 -0.90098107 -0.18456407 0.79171062
-7.72467518 -0.84408778 2.32439804 -0.88316518 -0.56163764 0.99900103
-7.69061947 -0.42533165 2.22234678 -0.87927157 -0.28300643 0.95514047
-7.52044725 -0.83022201 1.44356430 -0.85981572 -0.55241168 0.62042826
-7.81608295 -0.82696247 0.86891049 -0.89361590 -0.55024284 0.37344828
-7.55065632 -0.70365095 1.85266757 -0.86326957 -0.46819404 0.79625636
-7.72821522 -0.88136721 2.32672238 -0.88356996 -0.58644259 1.00000000
-7.55767059 -0.75226331 1.85556555 -0.86407149 -0.50053966 0.79750192
-7.65414667 -0.92149210 2.30580378 -0.87510163 -0.61314082 0.99100941
-7.51556301 -0.52891737 1.36804581 -0.85925734 -0.35193011 0.58797121
-8.74658012 -1.45729589 2.25935102 -1.00000000 -0.96965301 0.97104454
-7.57016039 -0.80162019 1.85991251 -0.86549944 -0.53338063 0.79937017
-7.67632341 -0.40360364 1.79486191 -0.87763715 -0.26854908 0.77141213
-7.58856583 -0.58178574 1.38231707 -0.86760378 -0.38710758 0.59410483
-8.58837700 -1.48680794 2.22027922 -0.98191255 -0.98928970 0.95425189
-7.67363596 -0.45182711 1.79486191 -0.87732989 -0.30063593 0.77141213
-7.53184223 -0.62520504 1.37243700 -0.86111856 -0.41599783 0.58985853
-8.36533165 -1.50290453 2.16417599 -0.95641172 -1.00000000 0.93013930
-7.65705252 -0.49918276 1.79162073 -0.87543386 -0.33214536 0.77001911
-7.49250507 -0.66946185 1.36585021 -0.85662109 -0.44544536 0.58702761
-8.06387520 -1.00931609 1.98790610 -0.92194605 -0.67157698 0.85438043
-7.90998602 -0.56492192 1.85274041 -0.90435189 -0.37588677 0.79628772
-7.49905777 -0.70565653 1.36767995 -0.85737026 -0.46952853 0.58781397
-8.22256851 -1.06897378 2.02896070 -0.94008952 -0.71127188 0.87202525
-8.01462460 -0.77157509 2.32471681 -0.91631526 -0.51338929 0.99913800
-7.51208830 -0.75448126 1.37097323 -0.85886008 -0.50201541 0.58922940
-8.19646645 -1.11794615 2.02413082 -0.93710530 -0.74385709 0.86994946
-8.01384735 -0.66069365 1.87913299 -0.91622639 -0.43961120 0.80763096
-7.56273937 -0.77720022 2.19309831 -0.86465102 -0.51713210 0.94256985
-7.53849030 -0.80492210 1.37682807 -0.86187863 -0.53557765 0.59174573
-8.08748627 -1.15463209 1.99853194 -0.92464554 -0.76826710 0.85894734
-7.55787373 -0.67208827 1.77124751 -0.86409473 -0.44719291 0.76126295
-7.65504074 -0.83506036 2.22178435 -0.87520385 -0.55563098 0.95489877
-7.55737686 -0.71992081 1.77217364 -0.86403793 -0.47901964 0.76166099
-7.70304394 -0.88916385 2.23753357 -0.88069206 -0.59163028 0.96166760
-8.06679916 -0.96253532 1.47782469 -0.92228037 -0.64045006 0.63515300
-7.56819391 -0.76892263 1.77587783 -0.86527461 -0.51162440 0.76325297
-7.66770172 -0.82745665 1.80088127 -0.87665141 -0.55057168 0.77399921
-8.04814053 -1.44739544 2.00046396 -0.92014712 -0.96306545 0.85977769
-8.06569195 -1.11364543 1.90321052 -0.92215377 -0.74099547 0.81797922
-8.19699860 -1.48787236 1.94812417 -0.93716609 -0.98999792 0.83728260
