-9.00712967 -3.47128725 1.64808190 -0.95276296 -0.75479275 0.69685006
-8.71576786 -3.18745041 2.01935005 -0.92194307 -0.69307560 0.85383147
-8.77431297 -3.55645275 1.61580729 -0.92813587 -0.77331108 0.68320352
-9.39347267 -4.07319975 2.29061794 -0.99362981 -0.88567191 0.96853024
-8.75725269 -3.61377931 1.61683738 -0.92633128 -0.78577608 0.68363905
-8.62003422 -3.62041521 1.59520650 -0.91181648 -0.78721899 0.67449301
-8.43482685 -3.78196764 2.06474400 -0.89222544 -0.82234675 0.87302512
-8.53853989 -3.89342737 2.09663224 -0.90319610 -0.84658241 0.88650829
-8.78145123 -3.81926036 1.63469136 -0.92889094 -0.83045566 0.69118816
-8.71471786 -3.83904910 1.62542105 -0.92183197 -0.83475846 0.68726844
-9.00583744 -3.42443180 1.59454978 -0.95262623 -0.74460459 0.67421532
-8.94144630 -4.19768858 2.20868325 -0.94581503 -0.91274065 0.93388623
-8.61857033 -3.86135054 1.61168718 -0.91166162 -0.83960772 0.68146145
-9.05775738 -3.50929236 1.60788274 -0.95811826 -0.76305658 0.67985284
-8.88500023 -4.23944616 2.20115423 -0.93984425 -0.92182040 0.93070275
-8.52607155 -3.88423800 1.59863997 -0.90187722 -0.84458429 0.67594475
-9.05689526 -3.80364799 2.13948393 -0.95802706 -0.82706094 0.90462703
-8.49435425 -3.93440413 1.59726655 -0.89852220 -0.85549235 0.67536402
-8.92687416 -3.58844781 1.59221649 -0.94427359 -0.78026801 0.67322874
-9.30959034 -3.97808957 2.20603275 -0.98475689 -0.86499131 0.93276554
-8.50152016 -4.00287485 1.60344684 -0.89928019 -0.87038058 0.67797720
-8.49863529 -3.47948861 1.51821840 -0.89897501 -0.75657606 0.64194053
-9.22346973 -4.01015520 2.19134021 -0.97564715 -0.87196362 0.92655319
-8.75560760 -3.85746455 0.69928420 -0.92615724 -0.83876270 0.29567477
-8.67701912 -3.61582446 1.55488408 -0.91784424 -0.78622079 0.65744370
-8.67670441 -3.88784361 0.69405115 -0.91781098 -0.84536833 0.29346210
-9.34441853 -4.54646111 1.77683699 -0.98844093 -0.98857737 0.75129092
-8.48430157 -3.81792688 2.02453566 -0.89745885 -0.83016568 0.85602403
-8.71266460 -3.95350242 0.69928420 -0.92161483 -0.85964507 0.29567477
-8.55159473 -3.89654565 2.04527831 -0.90457702 -0.84726048 0.86479455
-8.73591328 -3.86511230 1.02701914 -0.92407399 -0.84042567 0.43424925
-8.68042278 -4.00481319 0.69858646 -0.91820431 -0.87080204 0.29537973
-8.60239792 -3.76048946 1.55288422 -0.90995091 -0.81767654 0.65659809
-8.88806248 -3.48502159 2.00758290 -0.94016814 -0.75777912 0.84885597
-8.51249981 -3.82989049 1.00036645 -0.90044159 -0.83276707 0.42297983
-8.68140888 -3.85991263 1.57188368 -0.91830862 -0.83929503 0.66463155
-8.80966854 -4.14779139 2.12046981 -0.93187577 -0.90189105 0.89658737
-8.81880760 -3.52183771 1.99670708 -0.93284249 -0.76578438 0.84425741
-8.52433872 -3.89989686 1.00521243 -0.90169394 -0.84798914 0.42502883
-8.55626297 -3.86909938 1.55321753 -0.90507084 -0.84129256 0.65673900
-8.89099026 -4.25425434 2.14683008 -0.94047785 -0.92504025 0.90773320
-8.98180389 -3.44161439 1.52274036 -0.95008403 -0.74834073 0.64385253
-8.52124596 -3.96347356 1.00811994 -0.90136677 -0.86181319 0.42625821
-8.75043964 -3.86797142 0.65044522 -0.92561060 -0.84104735 0.27502441
-8.50308800 -3.90966439 1.54788435 -0.89944607 -0.85011297 0.65448403
-8.90100098 -4.32788992 2.15590501 -0.94153678 -0.94105148 0.91157025
-8.54637718 -4.04080391 1.01490426 -0.90402514 -0.87862784 0.42912677
-8.69139004 -3.90742016 0.64732289 -0.91936439 -0.84962499 0.27370423
-8.51412201 -3.97963691 1.55455077 -0.90061319 -0.86532772 0.65730274
-8.97414207 -3.78208303 2.04857588 -0.94927359 -0.82237184 0.86618882
-8.58448505 -4.10858107 1.02265775 -0.90805614 -0.89336520 0.43240514
-8.76646233 -3.85053134 0.97577637 -0.92730546 -0.83725518 0.41258252
-8.64745808 -3.93682599 0.64502227 -0.91471732 -0.85601896 0.27273145
-8.53809834 -4.03986454 1.56255054 -0.90314937 -0.87842357 0.66068524
-8.84781647 -3.56660557 1.50995922 -0.93591100 -0.77551866 0.63844830
-9.13232994 -3.89996529 2.08956885 -0.96600646 -0.84800404 0.88352168
-8.63498020 -3.85795498 0.96213275 -0.91339743 -0.83886933 0.40681365
-8.67143917 -4.01358318 0.64945924 -0.91725403 -0.87270898 0.27460754
-8.65917110 -3.55355668 1.48088205 -0.91595632 -0.77268136 0.62615377
-9.01803780 -3.91811514 2.06865406 -0.95391679 -0.85195053 0.87467843
-8.54177284 -3.88105488 0.95334530 -0.90353811 -0.84389216 0.40309811
-8.68217468 -3.62701774 1.48887026 -0.91838962 -0.78865463 0.62953138
-9.06651688 -4.00726604 2.08580422 -0.95904487 -0.87133539 0.88192993
-8.51180363 -3.93215990 0.95265156 -0.90036798 -0.85500437 0.40280479
-8.65195274 -3.67839193 1.48759210 -0.91519278 -0.79982537 0.62899095
-8.58492184 -3.85793996 1.97872031 -0.90810233 -0.83886611 0.83665216
-8.50312901 -3.99312806 0.95473278 -0.89945036 -0.86826122 0.40368477
-8.54979801 -3.73295021 1.22308815 -0.90438700 -0.81168848 0.51715207
-8.69995880 -3.82524490 0.59206456 -0.92027080 -0.83175695 0.25033963
-8.52674770 -3.89628696 1.97077274 -0.90194875 -0.84720421 0.83329177
-8.76098919 -3.46259618 1.89567912 -0.92672652 -0.75290298 0.80154032
-8.57581520 -4.07645321 0.96652645 -0.90713906 -0.88637936 0.40867144
-8.51945496 -3.76756811 1.22106516 -0.90117735 -0.81921571 0.51629674
-8.71823502 -3.88250208 0.59512937 -0.92220402 -0.84420687 0.25163549
-8.75189972 -3.83541274 1.51251543 -0.92576504 -0.83396780 0.63952917
-8.83633709 -4.08906221 2.04815745 -0.93469673 -0.88912106 0.86601192
-8.59839058 -3.86751771 1.23753846 -0.90952706 -0.84094870 0.52326202
-8.56119061 -3.87686610 0.58394295 -0.90559208 -0.84298140 0.24690561
-8.66637516 -3.86286664 1.50165141 -0.91671836 -0.83993733 0.63493556
-8.90524769 -3.41690016 1.42273474 -0.94198602 -0.74296689 0.60156763
-8.86527824 -4.17042351 2.06112480 -0.93775809 -0.90681219 0.87149483
-8.80410194 -3.87445736 0.94309610 -0.93128693 -0.84245759 0.39876449
-8.62785816 -3.94627666 1.24620867 -0.91264409 -0.85807395 0.52692801
-8.68142509 -3.99761462 0.59620202 -0.91831034 -0.86923683 0.25208905
-8.57726097 -3.88776040 1.49014843 -0.90729195 -0.84535021 0.63007182
-8.86005306 -4.23621035 2.06614423 -0.93720537 -0.92111677 0.87361717
-8.65997028 -3.87585592 0.92834347 -0.91604084 -0.84276170 0.39252672
-8.61544132 -4.00627708 1.24823177 -0.91133064 -0.87112033 0.52778345
-8.52221298 -3.92746210 1.48471642 -0.90146905 -0.85398293 0.62777501
-9.33937740 -4.53899813 2.18661356 -0.98790771 -0.98695463 0.92455465
-8.55773926 -3.89462328 0.91873187 -0.90522701 -0.84684247 0.38846269
-8.60439873 -4.06712627 1.25054371 -0.91016257 -0.88435131 0.52876097
-8.50094032 -3.98261380 1.48535550 -0.89921886 -0.86597502 0.62804526
-8.83376122 -3.58192635 1.42182887 -0.93442422 -0.77885002 0.60118461
-8.90957737 -3.83187556 1.95267665 -0.94244397 -0.83319867 0.82564026
-8.50787258 -3.93657684 0.91560251 -0.89995217 -0.85596484 0.38713953
-8.51136303 -4.05300093 1.49174607 -0.90032136 -0.88127995 0.63074738
-8.74523354 -3.61034083 1.41095936 -0.92505991 -0.78502840 0.59658873
-9.16021156 -4.00737095 2.01408958 -0.96895576 -0.87135822 0.85160720
-8.52159119 -3.99187112 0.91962594 -0.90140331 -0.86798793 0.38884073
-8.61945057 -3.82011914 1.18987691 -0.91175473 -0.83064240 0.50310957
-8.77740097 -3.91599131 0.54068118 -0.92846251 -0.85148871 0.22861345
-8.57286358 -3.80003238 1.88684845 -0.90682679 -0.82627475 0.79780644
-8.54829025 -3.85314345 1.18261814 -0.90422750 -0.83782315 0.50004035
-8.67041492 -3.69163847 1.40522265 -0.91714567 -0.80270571 0.59416312
-8.55418205 -3.85622573 1.88805270 -0.90485072 -0.83849335 0.79831564
-9.00592995 -3.97355556 0.90101928 -0.95263606 -0.86400545 0.38097337
-8.62122536 -3.95112467 1.19769406 -0.91194248 -0.85912806 0.50641483
-8.54404736 -3.91639733 1.89126384 -0.90377867 -0.85157698 0.79967338
-8.73013878 -3.91820812 0.87203062 -0.92346317 -0.85197073 0.36871624
-8.60880852 -4.01104307 1.19964838 -0.91062903 -0.87215668 0.50724119
-8.50679016 -3.69771981 2.36504531 -0.89983767 -0.80402803 1.00000000
-8.78269958 -3.87011886 1.43179274 -0.92902303 -0.84151429 0.60539758
-8.84637356 -4.12157345 1.96511984 -0.93575835 -0.89619029 0.83090156
-8.66006851 -3.95243502 0.86677909 -0.91605127 -0.85941297 0.36649576
-8.60135269 -4.07349205 1.20244014 -0.90984035 -0.88573551 0.50842160
-8.90974140 -3.32681990 2.33228135 -0.94246131 -0.72337997 0.98614657
-8.62638092 -3.86647797 1.40975165 -0.91248780 -0.84072262 0.59607810
-8.92699242 -3.57280159 1.84380591 -0.94428611 -0.77686596 0.77960700
-8.58269119 -3.98260379 0.86068726 -0.90786636 -0.86597288 0.36391997
-8.58751106 -3.91407371 1.40733612 -0.90837622 -0.85107177 0.59505671
-8.82464123 -3.57996535 1.82578731 -0.93345952 -0.77842361 0.77198827
-8.61068058 -4.04489136 0.86614889 -0.91082704 -0.87951660 0.36622930
-8.90237999 -3.91983342 1.17715883 -0.94168264 -0.85232413 0.49773204
-8.55998611 -3.95037484 1.40582645 -0.90546465 -0.85896504 0.59441841
-9.27636147 -4.51729250 2.07951641 -0.98124194 -0.98223495 0.87927127
-8.59024143 -3.84629035 1.13451624 -0.90866500 -0.83633304 0.47970170
-8.55291367 -4.01243877 1.40884578 -0.90471655 -0.87246013 0.59569508
-8.96517086 -3.76932335 1.86527479 -0.94832462 -0.81959742 0.78868461
-8.60374641 -3.91751695 1.14014828 -0.91009355 -0.85182047 0.48208305
-8.55432987 -4.07880497 1.41337478 -0.90486634 -0.88689071 0.59761000
-9.00622082 -3.85351110 1.87907624 -0.95266682 -0.83790308 0.79452020
-8.78448391 -3.91683817 0.82980269 -0.92921174 -0.85167283 0.35086122
-8.64723969 -4.00328445 1.15033960 -0.91469425 -0.87046963 0.48639220
-8.85056686 -3.85255527 1.85108995 -0.93620193 -0.83769524 0.78268689
-8.64382267 -3.91911626 0.81698054 -0.91433281 -0.85216820 0.34543970
-8.66491032 -4.07788372 1.15677619 -0.91656339 -0.88669044 0.48911375
-8.68990612 -3.84740233 1.82195365 -0.91920745 -0.83657479 0.77036732
-8.69304848 -4.00766468 0.82519472 -0.91953981 -0.87142205 0.34891286
-8.67483997 -4.14942598 1.16214001 -0.91761374 -0.90224648 0.49138170
-8.53324032 -3.84200454 1.79358399 -0.90263551 -0.83540112 0.75837195
-8.78685665 -3.40548253 1.71970403 -0.92946273 -0.74048424 0.72713363
-8.82380676 -3.91423297 1.09887588 -0.93337131 -0.85110641 0.46463206
-8.80246925 -3.23386073 2.19723320 -0.93111420 -0.70316702 0.92904484
-8.53823662 -3.89280987 1.79856789 -0.90316403 -0.84644818 0.76047927
-8.54082108 -3.83763885 1.06173539 -0.90343738 -0.83445185 0.44892815
-8.49723434 -3.70034480 2.27190709 -0.89882684 -0.80459881 0.96061885
-8.88042545 -3.55421519 1.74605095 -0.93936032 -0.77282453 0.73827380
-8.67467976 -3.81260133 0.74253225 -0.91759682 -0.82900774 0.31396112
-8.50931549 -3.88794446 1.06071794 -0.90010476 -0.84539026 0.44849795
-8.59081936 -3.80579734 2.30378461 -0.90872616 -0.82752824 0.97409743
-9.23011303 -4.35113525 1.95881784 -0.97634983 -0.94610590 0.82823694
-8.85791874 -3.60994220 1.74605095 -0.93697959 -0.78494173 0.73827380
-8.71788502 -3.89695621 0.74938273 -0.92216700 -0.84734976 0.31685767
-8.55135345 -3.97211027 1.07013023 -0.90455151 -0.86369115 0.45247769
-8.61623478 -3.88212943 2.31730843 -0.91141456 -0.84412581 0.97981566
-8.93867302 -3.70825505 1.76690888 -0.94552171 -0.80631876 0.74709302
-8.68778419 -3.94919419 0.74882728 -0.91898298 -0.85870832 0.31662279
-8.55316257 -4.03840780 1.07394600 -0.90474290 -0.87810683 0.45409110
-8.67099380 -3.97273707 2.33904314 -0.91720688 -0.86382747 0.98900563
-8.70034599 -4.05265951 2.35401607 -0.92031175 -0.88120568 0.99533653
-8.75416946 -3.81060243 1.74275756 -0.92600513 -0.82857305 0.73688126
-8.62387943 -3.81878853 1.72116768 -0.91222322 -0.83035308 0.72775251
-8.54946804 -3.85039949 1.71092165 -0.90435207 -0.83722651 0.72342026
-8.51794910 -3.90078187 1.70945799 -0.90101802 -0.84818161 0.72280139
-9.04105663 -4.20781183 1.82179832 -0.95635170 -0.91494185 0.77030164
-8.63775826 -3.83700299 2.21482825 -0.91369128 -0.83431357 0.93648452
-8.57443237 -3.87366104 2.20464158 -0.90699279 -0.84228450 0.93217731
-8.73496151 -3.99538541 2.25140762 -0.92397332 -0.86875206 0.95195115
-9.45369434 -4.59899378 1.92242885 -1.00000000 -1.00000000 0.81285077
-8.91983604 -4.14737320 2.30650783 -0.94352913 -0.90180016 0.97524887
-8.93057823 -4.22071886 2.31623149 -0.94466543 -0.91774833 0.97936028
