-14.23854351 2.72431326 1.13083470 -0.95415044 0.96115559 0.52884376
-14.17307281 2.61970329 1.12350845 -0.94976312 0.92424846 0.52541763
-14.21083355 2.53441763 1.12542725 -0.95229357 0.89415914 0.52631497
-14.47851944 2.72282434 1.65917182 -0.97023165 0.96063024 0.77592480
-14.25004673 2.44909549 1.12752044 -0.95492131 0.86405694 0.52729386
-14.20226765 2.57900691 1.62282729 -0.95171952 0.90989053 0.75892800
-14.32020473 2.36853838 1.13240469 -0.95962268 0.83563584 0.52957797
-14.75983715 2.60767722 1.69042814 -0.98908329 0.92000562 0.79054207
-14.65415764 2.56230617 0.65464741 -0.98200148 0.90399837 0.30615103
-14.69324970 2.35863948 1.16450059 -0.98462111 0.83214349 0.54458791
-14.50969982 2.46994638 1.65747583 -0.97232109 0.87141329 0.77513164
-14.74482441 2.48268080 0.65869135 -0.98807722 0.87590605 0.30804220
-14.33348656 2.74592996 1.06488740 -0.96051276 0.96878207 0.49800301
-14.20937634 2.62950349 1.05305564 -0.95219588 0.92770606 0.49246979
-14.37114811 2.76467586 1.56476462 -0.96303654 0.97539574 0.73177451
-14.24327278 2.54335046 1.05453467 -0.95446736 0.89731073 0.49316147
-14.43119335 2.68237162 1.56985211 -0.96706027 0.94635826 0.73415375
-14.24129772 2.45074034 1.05305564 -0.95433503 0.86463726 0.49246979
-14.35392761 2.57467914 1.55875218 -0.96188253 0.90836364 0.72896278
-14.40779591 2.38650322 1.06570911 -0.96549237 0.84197396 0.49838728
-14.68228340 2.33765507 1.08740079 -0.98388624 0.82474005 0.50853157
-14.54197884 2.44391680 1.57771444 -0.97448421 0.86222988 0.73783064
-14.75978661 2.83441448 1.01668787 -0.98907989 1.00000000 0.47546211
-13.82411766 2.60240936 1.91496968 -0.92637902 0.91814709 0.89555073
-14.22033691 2.63906646 0.97316825 -0.95293039 0.93107992 0.45510983
-14.18881989 2.57834196 1.96670187 -0.95081836 0.90965593 0.91974366
-14.29750347 2.56047797 0.97791862 -0.95810145 0.90335339 0.45733136
-14.47926426 2.75286651 1.51889706 -0.97028160 0.97122931 0.71032423
-14.54595280 2.54843664 2.01727796 -0.97475052 0.89910513 0.94339597
-14.30937767 2.46992135 0.97761214 -0.95889717 0.87140441 0.45718804
-14.30074692 2.62621236 1.49654448 -0.95831883 0.92654490 0.69987082
-14.64560890 2.47103477 2.02970529 -0.98142862 0.87179726 0.94920772
-14.47612000 2.40491867 0.98941153 -0.97007090 0.84847105 0.46270612
-14.33262539 2.53905845 1.49833274 -0.96045506 0.89579648 0.70070714
-14.65836143 2.34041095 1.00243676 -0.98228317 0.82571232 0.46879748
-14.59127522 2.51366472 1.52649689 -0.97778761 0.88683736 0.71387833
-14.56951904 2.41581035 1.52224994 -0.97632968 0.85231370 0.71189219
-14.00652981 2.64631987 1.87024546 -0.93860281 0.93363899 0.87463504
-14.49881458 2.70249629 0.90353411 -0.97159165 0.95345837 0.42254487
-14.08715630 2.57008362 1.87945855 -0.94400573 0.90674233 0.87894362
-14.33294773 2.57824206 0.89042908 -0.96047664 0.90962070 0.41641620
-14.49722672 2.76329374 1.42008400 -0.97148526 0.97490811 0.66411352
-14.53201866 2.55763364 1.94087875 -0.97381675 0.90234989 0.90766728
-14.37637711 2.49294567 0.89240187 -0.96338689 0.87952757 0.41733879
-14.50256920 2.66997409 1.41882372 -0.97184330 0.94198436 0.66352415
-14.43653202 2.44725513 1.92496526 -0.96741802 0.86340767 0.90022522
-14.47635174 2.41681123 0.89846116 -0.97008640 0.85266685 0.42017245
-14.62320042 2.34717155 0.90790242 -0.97992700 0.82809752 0.42458773
-13.98762417 2.58202052 2.13831520 -0.93733591 0.91095376 1.00000000
-14.29199886 2.46871424 1.39319599 -0.95773256 0.87097853 0.65153909
-14.51515198 2.41373801 1.41546273 -0.97268647 0.85158259 0.66195232
-14.23321247 2.70383477 1.82135773 -0.95379323 0.95393062 0.85177231
-14.92274475 2.38581800 1.45747519 -1.00000000 0.84173220 0.68159980
-14.12707615 2.59199286 1.80446160 -0.94668084 0.91447204 0.84387070
-14.61019230 2.64573765 0.83117175 -0.97905529 0.93343359 0.38870403
-14.24426746 2.72960544 1.32165086 -0.95453399 0.96302271 0.61808050
-14.29729843 2.53024864 1.82564878 -0.95808774 0.89268827 0.85377908
-14.52820396 2.53685832 0.82465732 -0.97356111 0.89502025 0.38565752
-14.34138203 2.65479159 1.32986510 -0.96104181 0.93662786 0.62192190
-14.51028919 2.47373486 1.85273623 -0.97236061 0.87274987 0.86644673
-14.61866283 2.45799780 0.82960826 -0.97962290 0.86719775 0.38797286
-14.25588989 2.54657674 1.31944716 -0.95531285 0.89844894 0.61704987
-14.32656288 2.48950768 1.32545745 -0.96004879 0.87831461 0.61986065
-14.43418884 2.41474652 1.33487368 -0.96726102 0.85193837 0.62426424
-14.23816013 2.70790648 1.71957898 -0.95412475 0.95536715 0.80417472
-14.83817101 2.38603473 1.37454212 -0.99433255 0.84180868 0.64281547
-14.12403870 2.71373320 1.19873786 -0.94647729 0.95742285 0.56059921
-14.62843323 2.59261727 1.76613176 -0.98027766 0.91469234 0.82594550
-14.66292858 2.56371975 0.74873847 -0.98258924 0.90449715 0.35015345
-14.16234207 2.62896466 1.20077455 -0.94904405 0.92751598 0.56155169
-14.49976444 2.47574615 1.74730718 -0.97165531 0.87345946 0.81714201
-14.66103268 2.46853232 0.74766797 -0.98246223 0.87091440 0.34965283
-14.15898418 2.53638959 1.19892299 -0.94881904 0.89485484 0.56068581
-14.55613232 2.39140344 1.75264931 -0.97543263 0.84370279 0.81964028
-14.17273998 2.46998382 1.19910812 -0.94974083 0.87142646 0.56077236
-14.31953335 2.40315294 1.21151316 -0.95957774 0.84784812 0.56657368
-14.73138714 2.37777448 1.24891305 -0.98717678 0.83889443 0.58406407
