-4.26754045 7.10392761 0.01418908 -0.87703073 0.98020113 0.00575346
-4.62147474 6.84254217 1.84064186 -0.94976848 0.94413513 0.74635333
-4.31626987 7.08379412 0.01433584 -0.88704520 0.97742307 0.00581297
-4.56043959 6.66234636 1.79901016 -0.93722498 0.91927165 0.72947228
-4.42612600 7.16184044 0.01661068 -0.90962195 0.98819196 0.00673539
-4.67362022 6.73593855 1.82735515 -0.96048498 0.92942590 0.74096572
-4.30681133 7.12531471 0.30559483 -0.88510138 0.98315209 0.12391423
-4.44651937 7.09497738 0.01576679 -0.91381305 0.97896618 0.00639320
-4.70909595 6.69688511 1.82469773 -0.96777564 0.92403734 0.73988819
-4.35044765 7.09641361 0.30548841 -0.89406914 0.97916436 0.12387107
-4.62819815 6.83431244 1.40430570 -0.95115018 0.94299954 0.56942540
-4.48132038 7.05173349 0.01543657 -0.92096508 0.97299933 0.00625930
-4.76811743 6.69094753 1.83134115 -0.97990531 0.92321807 0.74258202
-4.42607927 7.14364052 0.30974516 -0.90961236 0.98568070 0.12559712
-4.65750790 6.78470469 2.30292153 -0.95717371 0.93615466 0.93380094
-4.63913965 6.78158092 1.39778209 -0.95339882 0.93572366 0.56678015
-4.49497890 7.00029755 0.01477613 -0.92377204 0.96590221 0.00599151
-4.45274448 7.08698559 0.30793604 -0.91509235 0.97786343 0.12486356
-4.68350506 6.73165894 2.29472375 -0.96251643 0.92883545 0.93047684
-4.68278408 6.75391531 1.39812541 -0.96236825 0.93190634 0.56691939
-4.52354288 6.94849253 0.01426246 -0.92964226 0.95875418 0.00578322
-4.28796816 7.09768343 -0.03231823 -0.88122886 0.97933954 -0.01310457
-4.47671795 7.02691507 0.30591410 -0.92001921 0.96957493 0.12404369
-4.72348356 6.69895983 2.29363084 -0.97073251 0.92432362 0.93003368
-4.74104261 6.74688959 1.40293229 -0.97434109 0.93093693 0.56886852
-4.54942274 6.89327383 0.01367541 -0.93496090 0.95113510 0.00554518
-4.38139009 7.15086508 -0.03112197 -0.90042818 0.98667753 -0.01261950
-4.50337696 6.97184896 0.30421141 -0.92549795 0.96197689 0.12335327
-4.77894974 6.68790007 2.30018902 -0.98213148 0.92279756 0.93269295
-4.63483858 6.96034527 0.59375143 -0.95251489 0.96038961 0.24075751
-4.58929634 6.85957527 0.01356533 -0.94315541 0.94648534 0.00550054
-4.41361713 7.10278130 -0.03142740 -0.90705121 0.98004293 -0.01274335
-4.53281593 6.92173100 0.30282795 -0.93154800 0.95506161 0.12279230
-4.38978815 7.24209499 0.26569614 -0.90215409 0.99926549 0.10773589
-4.61471415 6.83711290 0.58380866 -0.94837910 0.94338596 0.23672587
-4.49931622 6.81942225 -0.25910258 -0.92466342 0.94094503 -0.10506231
-4.63455820 6.83390903 0.01363872 -0.95245725 0.94294393 0.00553030
-4.44222736 7.04949141 -0.03180918 -0.91293097 0.97268999 -0.01289816
-4.63334990 6.83222294 1.79247880 -0.95220894 0.94271123 0.72682393
-4.55958605 6.86819649 0.30123168 -0.93704957 0.94767487 0.12214503
-4.40185547 7.15983057 0.26264873 -0.90463406 0.98791462 0.10650022
-4.67677546 6.83589029 0.58677405 -0.96113342 0.94321728 0.23792829
-4.59898615 6.87565136 -0.26061609 -0.94514680 0.94870353 -0.10567601
-4.69104671 6.82439566 0.01407901 -0.96406633 0.94163126 0.00570883
-4.46497917 6.98768473 -0.03231823 -0.91760671 0.96416193 -0.01310457
-4.64752960 6.76106501 1.78124321 -0.95512307 0.93289286 0.72226804
-4.52090311 6.74434090 0.85208070 -0.92909980 0.93058527 0.34550625
-4.61719847 6.86091661 0.30261511 -0.94888961 0.94667041 0.12270600
-4.43622637 7.11505413 0.26169640 -0.91169769 0.98173636 0.10611406
-4.72191238 6.80963945 0.58712292 -0.97040957 0.93959516 0.23806974
-4.64096975 6.84496689 -0.26058641 -0.95377493 0.94446969 -0.10566397
-4.49688005 6.94100094 -0.03259820 -0.92416275 0.95772046 -0.01321809
-4.68991852 6.73173046 1.78124321 -0.96383446 0.92884529 0.72226804
-4.62190580 6.82470560 0.86710310 -0.94985706 0.94167399 0.35159761
-4.65623999 6.84897566 0.30325362 -0.95691311 0.94502282 0.12296490
-4.44742823 7.05852127 0.25969654 -0.91399980 0.97393596 0.10530315
-4.70833111 6.87408113 -0.26150638 -0.96761847 0.94848686 -0.10603701
-4.52375746 6.73414516 1.33722329 -0.92968637 0.92917848 0.54222447
-4.52517414 6.91302919 -0.03270001 -0.92997754 0.95386094 -0.01325938
-4.73278713 6.72555256 1.78556466 -0.97264451 0.92799288 0.72402030
-4.67709827 6.81350470 0.86976838 -0.96119976 0.94012851 0.35267833
-4.71510267 6.84256887 0.30474350 -0.96901011 0.94413877 0.12356903
-4.48740435 7.02369404 0.25931561 -0.92221540 0.96913046 0.10514868
-4.66929197 6.85610342 2.25552535 -0.95959544 0.94600630 0.91458249
-4.57923079 6.94338417 0.54740977 -0.94108683 0.95804930 0.22196664
-4.62458849 6.79212713 1.35488951 -0.95040834 0.93717885 0.54938787
-4.54758883 6.85274887 -0.03318361 -0.93458402 0.94554341 -0.01345547
-4.81449699 6.75142670 1.80068934 -0.98943686 0.93156296 0.73015314
-4.33323288 7.12478685 -0.06300411 -0.89053130 0.98307925 -0.02554724
-4.73005676 6.79862499 0.87194908 -0.97208339 0.93807542 0.35356259
-4.50223207 6.95001841 0.25674435 -0.92526263 0.95896471 0.10410608
-4.68172169 6.78213120 2.24062133 -0.96214992 0.93579960 0.90853912
-4.58634233 6.85970449 0.54198688 -0.94254833 0.94650316 0.21976775
-4.66717339 6.76293612 1.35488951 -0.95916009 0.93315107 0.54938787
-4.61279821 6.85728216 -0.03267456 -0.94798535 0.94616896 -0.01324906
-4.41269827 7.15350628 -0.06241174 -0.90686238 0.98704201 -0.02530705
-4.53051519 6.89817810 0.25541112 -0.93107516 0.95181179 0.10356547
-4.72974873 6.76049328 2.24328279 -0.97202003 0.93281400 0.90961832
-4.58478546 6.76464176 0.53541362 -0.94222838 0.93338639 0.21710238
-4.30176640 7.13902140 0.22060849 -0.88406456 0.98504335 0.08945351
-4.58013916 6.92528057 -0.31022775 -0.94127351 0.95555139 -0.12579282
-4.72534132 6.75614119 1.35955608 -0.97111428 0.93221349 0.55128008
-4.66140556 6.83643913 -0.03254730 -0.95797473 0.94329304 -0.01319745
-4.44265127 7.10193825 -0.06266305 -0.91301811 0.97992665 -0.02540895
-4.59979439 6.89145279 0.82569653 -0.94531286 0.95088381 0.33480784
-4.56053162 6.84958887 0.25426835 -0.93724394 0.94510740 0.10310209
-4.77435446 6.73379278 2.24434733 -0.98118705 0.92912984 0.91004997
-4.67892694 6.81140471 0.54297286 -0.96157557 0.93983877 0.22016755
-4.35386038 7.12376881 0.22121024 -0.89477050 0.98293883 0.08969751
-4.59693527 6.85644054 -0.30923155 -0.94472528 0.94605279 -0.12538886
-4.46352816 7.03678799 -0.06305796 -0.91730851 0.97093719 -0.02556908
-4.61860132 6.82615757 0.82060903 -0.94917792 0.94187438 0.33274496
-4.62018061 6.84567881 0.25569683 -0.94950247 0.94456792 0.10368132
-4.86589622 6.77267218 2.26776814 -1.00000000 0.93449444 0.91954678
-4.43658018 7.15732050 0.22430494 -0.91177040 0.98756826 0.09095237
-4.65224266 6.84564447 -0.30968815 -0.95609164 0.94456315 -0.12557401
-4.48919249 6.98005390 -0.06336311 -0.92258286 0.96310902 -0.02569281
-4.64624977 6.79774570 0.81968409 -0.95486003 0.93795407 0.33236989
-4.66360188 6.84036446 0.25664914 -0.95842606 0.94383460 0.10406747
-4.45428658 7.11097240 0.22301549 -0.91540927 0.98117316 0.09042951
-4.50781536 6.93705606 -0.06359646 -0.92641008 0.95717615 -0.02578744
-4.30074024 7.13603401 -0.11872572 -0.88385367 0.98463118 -0.04814154
-4.72268629 6.81749249 0.82662147 -0.97056866 0.94067878 0.33518291
-4.48274660 7.05758429 0.22172603 -0.92125815 0.97380668 0.08990666
-4.54247808 6.89525700 -0.06374007 -0.93353367 0.95140868 -0.02584566
-4.62313032 6.83320713 1.73025227 -0.95010871 0.94284707 0.70159197
-4.38289404 7.17039394 -0.11856049 -0.90073729 0.98937213 -0.04807454
-4.51288414 7.00747490 0.22060849 -0.92745179 0.96689254 0.08945351
-4.63688898 6.97435999 0.50533170 -0.95293629 0.96232337 0.20490460
-4.57233477 6.84665537 -0.06395547 -0.93966961 0.94470263 -0.02593301
-4.65376234 6.78631210 1.72565103 -0.95640397 0.93637645 0.69972622
-4.40581703 7.10696363 -0.11865687 -0.90544820 0.98062003 -0.04811363
-4.65756750 6.94891357 1.08234203 -0.95718592 0.95881224 0.43887383
-4.53927994 6.95225477 0.21923307 -0.93287647 0.95927328 0.08889580
-4.38323450 7.24741840 0.17210011 -0.90080720 1.00000000 0.06978408
-4.61462831 6.84768343 0.49629065 -0.94836146 0.94484448 0.20123859
-4.49169827 6.84128237 -0.34047681 -0.92309785 0.94396126 -0.13805836
-4.63101578 6.84093857 -0.06370417 -0.95172924 0.94391382 -0.02583111
-4.67950726 6.73289013 1.71937656 -0.96169484 0.92900532 0.69718200
-4.43872070 7.06048727 -0.11870736 -0.91221029 0.97420722 -0.04813410
-4.63528538 6.82309198 1.06529057 -0.95260668 0.94145137 0.43195972
-4.56294680 6.89365339 0.21768571 -0.93774027 0.95118743 0.08826837
-4.37143135 7.12589502 0.16807625 -0.89838153 0.98323220 0.06815246
-4.67110825 6.83828020 0.49812952 -0.95996875 0.94354707 0.20198423
-4.58907986 6.89434719 -0.34290197 -0.94311094 0.95128316 -0.13904172
-4.50446320 6.68011093 1.26999295 -0.92572117 0.92172283 0.51496357
-4.69094038 6.83640003 -0.06343491 -0.96404445 0.94328761 -0.02572193
-4.72736979 6.71133566 1.72146809 -0.97153115 0.92603123 0.69803011
-4.46585989 7.00543356 -0.11878080 -0.91778773 0.96661091 -0.04816388
-4.58993578 6.87627220 0.79109895 -0.94328684 0.94878918 0.32077903
-4.67468500 6.78895187 1.06442356 -0.96070379 0.93674070 0.43160817
-4.62740135 6.89632130 0.21931903 -0.95098644 0.95155555 0.08893065
-4.42768621 7.11698389 0.16888103 -0.90994257 0.98200262 0.06847879
-4.73220778 6.83498383 0.50058132 -0.97252542 0.94309223 0.20297840
-4.61771679 6.84386683 -0.34225857 -0.94899613 0.94431788 -0.13878083
-4.62238169 6.76232290 1.29172099 -0.94995487 0.93306643 0.52377397
-4.82417536 6.75777245 1.74154627 -0.99142587 0.93243855 0.70617151
-4.49248314 6.95031834 -0.11885423 -0.92325914 0.95900607 -0.04819365
-4.61782742 6.84798622 0.79020488 -0.94901890 0.94488627 0.32041651
-4.72136784 6.78793192 1.06818068 -0.97029769 0.93659997 0.43313164
-4.63396835 6.83646059 0.21734187 -0.95233601 0.94329596 0.08812895
-4.63655996 6.76571083 2.16319823 -0.95286864 0.93353391 0.87714517
-4.43574333 7.05536890 0.16712515 -0.91159844 0.97350097 0.06776680
-4.66347837 6.84182215 -0.34285247 -0.95840073 0.94403577 -0.13902165
-4.65870047 6.74695253 1.29299903 -0.95741880 0.93094563 0.52429217
-4.50884342 6.90391254 -0.11892308 -0.92662138 0.95260298 -0.04822157
-4.66751671 6.82866478 0.79154605 -0.95923060 0.94222033 0.32096034
-4.69954252 6.84009218 0.21906114 -0.96581233 0.94379705 0.08882608
-4.69003820 6.75228453 2.16837502 -0.96385908 0.93168133 0.87924433
-4.46607208 7.00541592 0.16617405 -0.91783136 0.96660846 0.06738114
-4.70668030 6.72562218 1.29459667 -0.96727920 0.92800248 0.52494001
-4.54333305 6.86208391 -0.11895979 -0.93370938 0.94683146 -0.04823645
-4.31195784 7.13838482 -0.16557622 -0.88615900 0.98495555 -0.06713873
-4.71260166 6.80246496 0.79199308 -0.96849614 0.93860525 0.32114160
-4.72121239 6.70691347 2.16319823 -0.97026575 0.92542106 0.87714517
-4.49054432 6.94695568 0.16485715 -0.92286068 0.95854211 0.06684716
-4.53412199 6.79988194 0.43908241 -0.93181640 0.93824887 0.17804149
-4.38589907 7.17524338 0.41085985 -0.90135485 0.99004126 0.16659765
-4.60079479 6.85502625 -0.11890013 -0.94551849 0.94585764 -0.04821226
-4.39868307 7.17926455 -0.16584222 -0.90398210 0.99059612 -0.06724659
-4.53863811 6.75103617 1.00757051 -0.93274456 0.93150908 0.40855509
-4.77789497 6.69752598 2.16992807 -0.98191470 0.92412573 0.87987405
-4.52428150 6.90353441 0.16419870 -0.92979407 0.95255083 0.06658017
-4.61682796 6.83086300 0.44415531 -0.94881350 0.94252360 0.18009847
-4.31736565 7.19881678 0.12875696 -0.88727039 0.99329394 0.05220906
-4.40133762 7.10012054 0.40721175 -0.90452766 0.97967583 0.16511840
-4.56751537 6.92332602 -0.39684609 -0.93867916 0.95528167 -0.16091527
-4.65498400 6.84254742 -0.11885423 -0.95665503 0.94413584 -0.04819365
-4.62948418 6.88625717 1.66568184 -0.95141447 0.95016694 0.67540962
-4.42780972 7.12604189 -0.16574247 -0.90996796 0.98325247 -0.06720614
-4.63763380 6.80599260 1.02180886 -0.95308936 0.93909198 0.41432852
-4.54883575 6.84662437 0.16295496 -0.93484026 0.94469839 0.06607585
-4.67201424 6.81985474 0.44570535 -0.96015495 0.94100469 0.18072699
-4.39901733 7.23123360 0.13097964 -0.90405077 0.99776679 0.05311033
-4.46505451 7.10269308 0.40955696 -0.91762221 0.98003078 0.16606934
-4.58878088 6.86120319 -0.39559793 -0.94304949 0.94670999 -0.16040917
-4.64847422 6.82135344 1.65685129 -0.95531720 0.94121146 0.67182893
-4.45858240 7.07611704 -0.16565602 -0.91629213 0.97636384 -0.06717109
-4.52708101 6.75667810 0.72036541 -0.93036944 0.93228757 0.29209763
-4.69039822 6.79140997 1.02432156 -0.96393305 0.93707991 0.41534740
-4.61401129 6.85111856 0.16441819 -0.94823462 0.94531846 0.06666917
-4.41064644 7.14909220 0.12894747 -0.90644073 0.98643291 0.05228631
-4.47836542 7.02576923 0.40577859 -0.92035776 0.96941680 0.16453728
-4.64297676 6.84880972 -0.39622203 -0.95418739 0.94499993 -0.16066223
-4.65573692 6.74033546 1.64400673 -0.95680976 0.93003261 0.66662067
-4.46815729 7.01797056 -0.16550972 -0.91825986 0.96834075 -0.06711177
-4.61551857 6.81941366 0.73107862 -0.94854438 0.94094384 0.29644167
-4.63504362 6.81274700 0.16368657 -0.95255703 0.94002396 0.06637251
-4.41986704 7.08927250 0.12748685 -0.90833563 0.97817898 0.05169405
-4.50491524 6.99453640 0.40499684 -0.92581409 0.96510732 0.16422029
-4.58148479 6.86951160 1.22708237 -0.94155002 0.94785637 0.49756393
-4.70085382 6.73763657 1.64882338 -0.96608180 0.92966020 0.66857374
-4.50563097 6.97969198 -0.16546981 -0.92596120 0.96305907 -0.06709559
-4.66500139 6.80013657 0.73233896 -0.95871371 0.93828398 0.29695272
-4.45038271 7.03943014 0.12666129 -0.91460699 0.97130173 0.05135930
-4.53782129 6.94940948 0.40369394 -0.93257666 0.95888066 0.16369198
-4.34149599 7.17342520 0.36145812 -0.89222944 0.98979038 0.14656597
-4.59366512 6.79465199 1.21862817 -0.94405323 0.93752724 0.49413589
-4.78931046 6.77367353 1.66528046 -0.98426068 0.93463260 0.67524683
-4.52631092 6.91615868 -0.16533016 -0.93021113 0.95429271 -0.06703895
-4.32340765 7.13197947 -0.20425227 -0.88851207 0.98407173 -0.08282130
-4.62088680 6.81747913 2.09605074 -0.94964761 0.94067693 0.84991789
-4.47611523 6.98276472 0.12558168 -0.91989535 0.96348304 0.05092153
-4.56259918 6.89251566 0.40147904 -0.93766880 0.95103043 0.16279387
-4.38752222 7.14770937 0.36157706 -0.90168840 0.98624212 0.14661421
-4.63849354 6.76892281 1.21923208 -0.95326602 0.93397713 0.49438074
-4.55191994 6.86096144 -0.16522376 -0.93547410 0.94667661 -0.06699581
-4.39525986 7.14903593 -0.20466627 -0.90327859 0.98642516 -0.08298918
-4.61159420 6.90591621 0.98459649 -0.94773787 0.95287949 0.39923945
-4.64287376 6.75793695 2.08653331 -0.95416623 0.93246126 0.84605867
-4.50677919 6.93442154 0.12481962 -0.92619717 0.95681262 0.05061253
-4.34098816 7.19708300 0.07214535 -0.89212513 0.99305469 0.02925388
-4.61139631 6.87198496 0.40213048 -0.94769722 0.94819760 0.16305803
-4.42393780 7.10642147 0.36062551 -0.90917224 0.98054522 0.14622836
-4.69666481 6.76241779 1.22345912 -0.96522093 0.93307954 0.49609476
-4.61622286 6.86370516 -0.16535011 -0.94868910 0.94705516 -0.06704704
-4.42322731 7.09408474 -0.20441151 -0.90902621 0.97884297 -0.08288587
-4.63259411 6.84403324 0.97923261 -0.95205361 0.94434083 0.39706448
-4.69075584 6.73659039 2.08903790 -0.96400654 0.92951584 0.84707427
-4.53259706 6.87930346 0.12380354 -0.93150300 0.94920743 0.05020052
-4.37365150 7.14916897 0.07154579 -0.89883780 0.98644352 0.02901077
-4.65110350 6.83793259 0.40173963 -0.95585752 0.94349909 0.16289954
-4.45363808 7.05481339 0.35896030 -0.91527599 0.97342432 0.14555314
-4.76514339 6.77002382 1.23040354 -0.97929406 0.93412900 0.49891061
-4.66604090 6.84446383 -0.16539001 -0.95892733 0.94440025 -0.06706323
-4.44641972 7.03229284 -0.20409304 -0.91379255 0.97031695 -0.08275674
-4.54776478 6.83447361 0.68795806 -0.93462020 0.94302183 0.27895692
-4.66987848 6.80663347 0.97789162 -0.95971602 0.93918043 0.39652073
-4.75301456 6.73551083 2.09805441 -0.97680146 0.92936689 0.85073036
-4.55344343 6.81749773 0.12253343 -0.93578720 0.94067949 0.04968551
-4.40798473 7.10453272 0.07104615 -0.90589368 0.98028463 0.02880817
-4.70648050 6.82661772 0.40317279 -0.96723819 0.94193786 0.16348065
-4.47643232 6.99300957 0.35658142 -0.91996050 0.96489662 0.14458854
-4.45805645 6.97750282 -0.20377457 -0.91618401 0.96275699 -0.08262760
-4.60220623 6.84594107 0.69196492 -0.94580853 0.94460410 0.28058165
-4.71323156 6.80081367 0.98057359 -0.96862561 0.93837738 0.39760822
-4.79366112 6.72567415 2.10206175 -0.98515481 0.92800963 0.85235524
-4.61357450 6.83732176 0.12412106 -0.94814485 0.94341481 0.05032927
-4.43400908 7.07180595 0.07069641 -0.91124201 0.97576898 0.02866636
-4.49637413 6.95168924 0.35515410 -0.92405879 0.95919526 0.14400978
-4.49422646 6.93758583 -0.20366311 -0.92361742 0.95724922 -0.08258241
-4.65412617 6.83002329 0.69356769 -0.95647871 0.94240773 0.28123155
-4.67909479 6.84114313 0.12539117 -0.96161008 0.94394207 0.05084428
-4.46125746 7.01676941 0.06989699 -0.91684186 0.96817499 0.02834220
-4.52251291 6.89654541 0.35325101 -0.92943060 0.95158648 0.14323811
-4.52678967 6.89246750 -0.20350388 -0.93030953 0.95102382 -0.08251784
-4.70375776 6.81045341 0.69476980 -0.96667862 0.93970752 0.28171897
-4.48906851 6.96335363 0.06914753 -0.92255741 0.96080470 0.02803831
-4.55804777 6.85633612 0.35241839 -0.93673342 0.94603842 0.14290050
-4.53136587 6.68790960 1.54362464 -0.93124998 0.92279887 0.62591720
-4.58215380 6.88223124 -0.20367904 -0.94168752 0.94961143 -0.08258887
-4.56399202 6.80642223 0.91190177 -0.93795508 0.93915129 0.36976281
-4.51529551 6.90819025 0.06834812 -0.92794734 0.95319325 0.02771416
-4.61215305 6.84414577 0.35360783 -0.94785273 0.94435638 0.14338280
-4.62571621 6.73522472 1.56164324 -0.95064014 0.92932743 0.63322347
-4.62084627 6.84666300 -0.20361534 -0.94963932 0.94470370 -0.08256304
-4.63444424 6.81869745 0.91826147 -0.95243382 0.94084501 0.37234157
-4.54540825 6.85965109 0.06774856 -0.93413585 0.94649583 0.02747105
-4.64067936 6.70620918 2.44119406 -0.95371521 0.92532384 0.98986846
-4.64608860 6.80182123 0.35265628 -0.95482689 0.93851644 0.14299695
-4.70058060 6.75266647 1.57276106 -0.96602565 0.93173403 0.63773155
-4.56108856 6.83006430 0.62514818 -0.93735838 0.94241339 0.25348842
-4.67270994 6.78289843 0.91724390 -0.96029788 0.93590546 0.37192896
-4.60730124 6.85921764 0.06859794 -0.94685560 0.94643599 0.02781546
-4.74141359 6.74326420 1.57582808 -0.97441733 0.93043673 0.63897520
-4.60321045 6.82337761 0.62681448 -0.94601494 0.94149077 0.25416410
-4.61706972 6.81013918 2.01302195 -0.94886315 0.93966413 0.81625092
-4.63621759 6.83245850 0.06844805 -0.95279831 0.94274378 0.02775468
-4.73189783 6.67971945 2.45049119 -0.97246170 0.92166883 0.99363828
-4.63703156 6.78114700 0.62533331 -0.95296556 0.93566382 0.25356349
-4.63880825 6.75065517 2.00384498 -0.95333070 0.93145651 0.81252980
-4.67890596 6.71819592 2.00287890 -0.96157128 0.92697781 0.81213808
-4.73899460 6.71399069 2.01060677 -0.97392017 0.92639756 0.81527162
-4.81054449 6.72505140 2.02316475 -0.98862457 0.92792374 0.82036370
-4.52064180 6.72876692 1.47453129 -0.92904609 0.92843640 0.59790087
-4.60840559 6.79050303 1.49319363 -0.94708258 0.93695474 0.60546815
-4.64320803 6.75005484 1.49063218 -0.95423490 0.93137372 0.60442954
-4.66373825 6.74627447 2.36858964 -0.95845413 0.93085206 0.96042842
-4.71241951 6.75952530 1.49941444 -0.96845871 0.93268043 0.60799062
-4.69725466 6.70424175 2.36408973 -0.96534216 0.92505240 0.95860374
-4.61843824 6.78816557 1.91941643 -0.94914442 0.93663222 0.77829522
-4.74814415 6.68713713 2.36858964 -0.97580051 0.92269230 0.96042842
-4.66650105 6.76703548 1.92173159 -0.95902193 0.93371671 0.77923399
-4.70448446 6.73119164 1.91987956 -0.96682793 0.92877096 0.77848303
-4.74621582 6.72327805 1.92404675 -0.97540426 0.92767900 0.78017277
-4.73014212 6.74417305 2.46618032 -0.97210091 0.93056214 1.00000000
-4.78497267 6.66537476 2.45630193 -0.98336923 0.91968954 0.99599445
-4.66112661 6.83420992 2.38940096 -0.95791739 0.94298542 0.96886706
