-8.78555584 5.53153086 1.77512026 -0.99069649 0.95685148 0.92974478
-8.49535179 5.78097105 -0.29035217 -0.95797181 1.00000000 -0.15207613
-8.54813194 5.73859310 -0.29064891 -0.96392357 0.99266940 -0.15223154
-8.66808891 5.66089153 0.05209084 -0.97745043 0.97922850 0.02728333
-8.57066441 5.67596340 -0.29041150 -0.96646440 0.98183566 -0.15210721
-8.74219990 5.63114691 0.05293474 -0.98580748 0.97408324 0.02772533
-8.50222301 5.55439806 -0.28857154 -0.95874667 0.96080709 -0.15114349
-8.82134724 5.60390043 0.05388870 -0.99473244 0.96937007 0.02822498
-8.74070358 5.50306654 0.76591814 -0.98563874 0.95192772 0.40116066
-8.66151047 5.58077383 -0.29076764 -0.97670859 0.96536964 -0.15229374
-8.72913456 5.46898937 0.05113688 -0.98433417 0.94603300 0.02678367
-8.83459091 5.63314819 -0.29334950 -0.99622589 0.97442943 -0.15364602
-8.70886612 5.39943504 0.05014622 -0.98204863 0.93400139 0.02626481
-8.67827988 5.45760775 -0.28999603 -0.97859955 0.94406420 -0.15188959
-8.68795872 5.31134224 0.04897211 -0.97969103 0.91876298 0.02564985
-8.78486633 5.51156759 1.12684548 -0.99061871 0.95339823 0.59020156
-8.80598736 5.46075487 -0.29162824 -0.99300039 0.94460857 -0.15274449
-8.75808620 5.55365276 1.71887970 -0.98759890 0.96067816 0.90028799
-8.83089828 5.32249641 0.05132033 -0.99580950 0.92069244 0.02687976
-8.48031998 5.51932573 -0.00908028 -0.95627677 0.95474023 -0.00475593
-8.66247559 5.29717207 -0.28854188 -0.97681743 0.91631180 -0.15112796
-8.76190281 5.62523842 -0.00533879 -0.98802924 0.97306114 -0.00279627
-8.70759010 5.24984407 -0.28874961 -0.98190475 0.90812498 -0.15123676
-8.28806019 5.41186190 -0.34335089 -0.93459678 0.93615103 -0.17983498
-8.86120033 5.61085367 -0.00437161 -0.99922645 0.97057289 -0.00228969
-8.52504158 5.49110365 -0.34837329 -0.96131980 0.94985837 -0.18246552
-8.84714603 5.52425432 -0.00510972 -0.99764162 0.95559281 -0.00267629
-8.63333702 5.50370216 -0.35040718 -0.97353160 0.95203763 -0.18353081
-8.84419346 5.46457529 -0.00554241 -0.99730867 0.94526947 -0.00290292
-8.75711250 5.53098345 1.06688797 -0.98748910 0.95675683 0.55879796
-8.57644939 5.39169788 -0.34816578 -0.96711671 0.93266302 -0.18235683
-8.83911896 5.38489056 -0.00612782 -0.99673647 0.93148547 -0.00320953
-8.60263443 5.70596027 -0.04519738 -0.97006947 0.98702455 -0.02367278
-8.63222313 5.35144472 -0.34870538 -0.97340602 0.92569995 -0.18263946
-8.51166725 5.74203300 -0.39204884 -0.95981163 0.99326444 -0.20534122
-8.66847801 5.67144537 -0.04487428 -0.97749430 0.98105413 -0.02350355
-8.69464397 5.31488895 -0.34941101 -0.98044485 0.91937649 -0.18300904
-8.55757713 5.69506598 -0.39234582 -0.96498865 0.98514003 -0.20549677
-8.69216347 5.60930061 -0.04499993 -0.98016512 0.97030425 -0.02356936
-8.80313015 5.30571890 -0.35123733 -0.99267823 0.91779023 -0.18396561
-8.67017651 5.69150591 -0.39462250 -0.97768581 0.98452419 -0.20668922
-8.84717560 5.63058186 -0.04372546 -0.99764496 0.97398549 -0.02290184
-8.79616451 5.57796955 1.38175273 -0.99189276 0.96488452 0.72371286
-8.75913143 5.52350760 0.65749735 -0.98771673 0.95546365 0.34437370
-8.63686848 5.59249830 -0.39259326 -0.97392988 0.96739775 -0.20562637
-8.82132339 5.53672743 -0.04437167 -0.99472976 0.95775044 -0.02324030
-8.79459572 5.63562202 -0.39645374 -0.99171585 0.97485733 -0.20764835
-8.77052689 5.54567528 1.64543939 -0.98900175 0.95929825 0.86182255
-8.83541012 5.48773336 -0.04449732 -0.99631822 0.94927537 -0.02330611
-8.78244972 5.55043745 -0.39506793 -0.99034619 0.96012199 -0.20692252
-8.82190514 5.40295839 -0.04499993 -0.99479538 0.93461084 -0.02356936
-8.74670696 5.48278570 0.30614263 -0.98631573 0.94841951 0.16034661
-8.78657055 5.47617102 -0.39417705 -0.99081087 0.94727528 -0.20645590
-8.84882259 5.34330082 -0.04507173 -0.99783069 0.92429125 -0.02360697
-8.38714123 5.47105360 -0.11486581 -0.94576955 0.94639009 -0.06016262
-8.77646160 5.39372444 -0.39289024 -0.98967099 0.93301356 -0.20578192
-8.53557396 5.49206638 -0.11455371 -0.96250743 0.95002490 -0.05999916
-8.79134655 5.32711411 -0.39234582 -0.99134946 0.92149121 -0.20549677
-8.28435802 5.42295599 -0.44702098 -0.93417931 0.93807006 -0.23413368
-8.74868488 5.55227661 -0.11406720 -0.98653877 0.96044016 -0.05974434
-8.76868248 5.55587912 1.32416391 -0.98879373 0.96106333 0.69354993
-8.47424316 5.47195959 -0.45282480 -0.95559156 0.94654679 -0.23717351
-8.86806011 5.55041647 -0.11383772 -1.00000000 0.96011835 -0.05962414
-8.62442303 5.51187372 -0.45744288 -0.97252643 0.95345122 -0.23959230
-8.74637032 5.41665983 -0.11423703 -0.98627776 0.93698096 -0.05983329
-8.65888405 5.45757675 -0.45744288 -0.97641242 0.94405884 -0.23959230
-8.83308125 5.39401484 -0.11409474 -0.99605566 0.93306381 -0.05975876
-8.64722061 5.37448072 -0.45575792 -0.97509718 0.92968476 -0.23870978
-8.60165882 5.66512489 -0.17209335 -0.96995944 0.97996080 -0.09013637
-8.67230701 5.31480312 -0.45544589 -0.97792608 0.91936165 -0.23854634
-8.75470448 5.51483536 1.54622519 -0.98721755 0.95396352 0.80985773
-8.54304218 5.55013895 -0.17172094 -0.96334958 0.96007037 -0.08994132
-8.78071976 5.30584764 -0.45819178 -0.99015111 0.91781253 -0.23998454
-8.70420361 5.57702637 -0.17221969 -0.98152286 0.96472138 -0.09020255
-8.71854973 5.52847338 -0.17217314 -0.98314059 0.95632261 -0.09017816
-8.80219364 5.54468966 1.26861250 -0.99257261 0.95912772 0.66445404
-8.62747478 5.39536238 -0.17168103 -0.97287059 0.93329692 -0.08992041
-8.68847561 5.35778999 -0.17178744 -0.97974926 0.92679757 -0.08997615
-8.85371208 5.38283682 -0.17229950 -0.99838203 0.93113023 -0.09024435
-8.31026459 5.46470261 -0.21703862 -0.93710059 0.94529146 -0.11367710
-8.51200199 5.52155447 -0.21863094 -0.95984936 0.95512575 -0.11451110
-8.67776108 5.55229664 -0.21987295 -0.97854108 0.96044362 -0.11516163
-8.77470684 5.55641890 -0.22054172 -0.98947310 0.96115667 -0.11551190
-8.63154697 5.38960028 -0.21886978 -0.97332978 0.93230015 -0.11463620
-8.65333366 5.32789707 -0.21875831 -0.97578651 0.92162669 -0.11457781
-8.68078232 5.44718981 0.11821172 -0.97888178 0.94226205 0.06191509
-8.80616283 5.34630966 -0.21987295 -0.99302018 0.92481172 -0.11516163
-8.81005764 5.60559177 1.90925539 -0.99345940 0.96966267 1.00000000
