-5.90880632 4.49775934 0.51176727 -0.92245257 0.97611022 0.41153434
-5.91349268 4.48077536 -0.00173480 -0.92318416 0.97242433 -0.00139503
-6.00892448 4.49364710 -0.00019378 -0.93808252 0.97521776 -0.00015582
-6.00885534 4.60334206 0.78496444 -0.93807173 0.99902391 0.63122404
-5.91154051 4.51258421 0.25823861 -0.92287940 0.97932756 0.20766090
-5.98382044 4.53482008 -0.24927957 -0.93416339 0.98415321 -0.20045654
-6.07250595 4.48183203 0.00061342 -0.94800848 0.97265369 0.00049328
-6.01227236 4.54640675 0.78108770 -0.93860513 0.98666775 0.62810659
-6.00051498 4.52085543 0.26228252 -0.93676966 0.98112255 0.21091279
-5.98652172 4.47803783 -0.24880475 -0.93458509 0.97183025 -0.20007472
-6.01348305 4.57900286 1.24355912 -0.93879414 0.99374181 1.00000000
-6.14589262 4.47643232 0.00164077 -0.95946527 0.97148180 0.00131942
-6.06091881 4.50681210 0.26441088 -0.94619960 0.97807485 0.21262430
-6.06612587 4.47820282 -0.24975440 -0.94701248 0.97186607 -0.20083839
-6.20968771 4.46330929 0.00244797 -0.96942461 0.96863383 0.00196852
-6.12559795 4.51005554 0.26728418 -0.95629698 0.97877878 0.21493484
-5.98192930 4.59014702 0.48332077 -0.93386817 0.99616033 0.38865927
-6.13730764 4.48601627 -0.25067440 -0.95812500 0.97356170 -0.20157818
-6.26329756 4.45709896 0.00318179 -0.97779393 0.96728605 0.00255862
-5.96026993 4.54665756 -0.04244824 -0.93048680 0.98672217 -0.03413448
-6.17647791 4.48785400 0.26877403 -0.96424007 0.97396058 0.21613289
-6.01065159 4.55247116 0.48332077 -0.93835211 0.98798388 0.38865927
-6.19462252 4.46834612 -0.25120857 -0.96707273 0.96972692 -0.20200774
-6.32396936 4.44055414 0.00391561 -0.98726571 0.96369547 0.00314871
-5.93610620 4.46927977 -0.04328817 -0.92671448 0.96992958 -0.03480990
-6.26175022 4.45706463 -0.25192082 -0.97755235 0.96727860 -0.20258050
-6.39785242 4.43249798 0.00494296 -0.99879992 0.96194708 0.00397485
-6.04416513 4.49175358 -0.04201556 -0.94358408 0.97480685 -0.03378654
-6.00279427 4.55377913 0.73828483 -0.93712550 0.98826772 0.59368694
-5.93807793 4.51530266 0.21760423 -0.92702228 0.97991753 0.17498504
-6.32569981 4.44282436 -0.25257370 -0.98753583 0.96418816 -0.20310549
-5.87552881 4.43763828 -0.29071912 -0.91725743 0.96306264 -0.23377989
-6.09319019 4.46912098 -0.04168468 -0.95123762 0.96989506 -0.03352046
-6.01257181 4.51280594 0.22036594 -0.93865192 0.97937566 0.17720585
-6.39794970 4.43362951 -0.25337496 -0.99881512 0.96219265 -0.20374984
-6.02168322 4.48939657 -0.29379070 -0.94007432 0.97429532 -0.23624988
-6.17127132 4.46723461 -0.04089566 -0.96342725 0.96948570 -0.03288598
-6.06804228 4.49522829 0.22198488 -0.94731164 0.97556096 0.17850770
-6.07388210 4.46931410 -0.29441330 -0.94822335 0.96993703 -0.23675054
-6.24144650 4.45870781 -0.04023390 -0.97438264 0.96763521 -0.03235383
-6.13899469 4.50334740 0.22493705 -0.95838839 0.97732294 0.18088166
-6.14648962 4.47846079 -0.29574156 -0.95955849 0.97192204 -0.23781866
-6.27705526 4.43967819 -0.04000482 -0.97994173 0.96350539 -0.03216962
-5.95351410 4.56231213 0.95604616 -0.92943209 0.99011958 0.76879829
-6.18816471 4.47997189 0.22617505 -0.96606457 0.97224998 0.18187720
-5.92144108 4.51411438 0.43392265 -0.92442501 0.97965962 0.34893608
-6.20691347 4.46318626 -0.29657170 -0.96899152 0.96860713 -0.23848622
-6.35393381 4.43461657 -0.03924125 -0.99194360 0.96240687 -0.03155560
-5.95423269 4.51927137 -0.07075864 -0.92954427 0.98077881 -0.05690010
-6.25675106 4.47014284 0.22855584 -0.97677189 0.97011685 0.18379170
-6.28366375 4.45894337 -0.29781693 -0.98097336 0.96768636 -0.23948756
-5.98990917 4.56275082 1.18467879 -0.93511391 0.99021477 0.95265174
-5.98732233 4.48535490 -0.07070480 -0.93471009 0.97341818 -0.05685680
-6.31404877 4.45153999 0.23027001 -0.98571694 0.96607965 0.18517014
-5.97744894 4.57557106 0.18587905 -0.93316871 0.99299705 0.14947343
-6.33771467 4.43779373 -0.29848105 -0.98941153 0.96309638 -0.24002160
-5.95622206 4.53513432 -0.32320365 -0.92985487 0.98422140 -0.25990212
-6.05083513 4.47370911 -0.07030988 -0.94462538 0.97089082 -0.05653924
-6.00979614 4.56337452 0.70995933 -0.93821859 0.99035013 0.57090920
-6.37135887 4.43239307 0.23198418 -0.99466389 0.96192437 0.18654858
-5.86070681 4.42870140 0.17805633 -0.91494352 0.96112317 0.14318284
-5.84526110 4.39349461 -0.31889772 -0.91253221 0.95348257 -0.25643954
-6.11929321 4.46496391 -0.06986113 -0.95531267 0.96899289 -0.05617837
-6.05212927 4.51318884 0.18682465 -0.94482738 0.97945875 0.15023383
-6.01917648 4.46467733 -0.32340160 -0.93968296 0.96893072 -0.26006129
-6.18300009 4.45204163 -0.06946622 -0.96525830 0.96618849 -0.05586081
-6.11842680 4.51773167 0.18923165 -0.95517743 0.98044467 0.15216941
-6.07082748 4.45866728 -0.32434198 -0.94774646 0.96762639 -0.26081750
-6.24796295 4.45408344 -0.06898157 -0.97539997 0.96663159 -0.05547108
-5.95338011 4.55135012 -0.12064879 -0.92941117 0.98774058 -0.09701894
-5.93897200 4.53327227 0.91404432 -0.92716187 0.98381728 0.73502278
-6.17096186 4.49678612 0.19052111 -0.96337897 0.97589904 0.15320632
-5.99093580 4.54943562 0.39314452 -0.93527418 0.98732507 0.31614462
-6.14413881 4.45316744 -0.32572779 -0.95919144 0.96643281 -0.26193190
-6.30532360 4.43537283 -0.06865846 -0.98435479 0.96257102 -0.05521125
-5.96433449 4.50055552 -0.12069928 -0.93112135 0.97671705 -0.09705954
-6.24135256 4.48814344 0.19275618 -0.97436798 0.97402334 0.15500362
-6.20947266 4.44112730 -0.32686615 -0.96939105 0.96381986 -0.26284730
-6.36927795 4.42066002 -0.06826355 -0.99433905 0.95937800 -0.05489369
-6.04051733 4.49896097 -0.12056159 -0.94301462 0.97637099 -0.09694882
-5.97705936 4.57737923 0.65650636 -0.93310785 0.99338943 0.52792531
-6.30044889 4.47072840 0.19438949 -0.98359376 0.97024393 0.15631706
-5.95478916 4.53738594 0.13610478 -0.92963117 0.98471004 0.10944778
-6.28307867 4.43418312 -0.32825196 -0.98088205 0.96231282 -0.26396167
-5.95766401 4.51074600 -0.37119696 -0.93008000 0.97892863 -0.29849562
-6.09118128 4.47756338 -0.12049733 -0.95092398 0.97172725 -0.09689715
-6.36777020 4.45845556 0.19645262 -0.99410367 0.96758044 0.15797609
-5.98636866 4.50229263 0.13625109 -0.93456119 0.97709405 0.10956543
-6.35190964 4.42307377 -0.32948929 -0.99162757 0.95990187 -0.26495668
-5.89725113 4.52083397 1.10087442 -0.92064863 0.98111790 0.88526100
-6.15958643 4.46867228 -0.12038259 -0.96160305 0.96979773 -0.09680488
-6.40553951 4.42514658 0.19696841 -1.00000000 0.96035171 0.15839086
-6.04817247 4.48969889 0.13778748 -0.94420969 0.97436094 0.11080091
-6.22649622 4.45792866 -0.12027244 -0.97204870 0.96746612 -0.09671631
-6.09658527 4.48134470 0.13903122 -0.95176762 0.97254789 0.11180105
-6.28163433 4.45291710 -0.12017605 -0.98065656 0.96637851 -0.09663879
-5.99208307 4.60783958 0.88375598 -0.93545330 1.00000000 0.71066666
-6.15852976 4.46768761 0.14056762 -0.96143812 0.96958399 0.11303654
-5.98537683 4.58121538 0.35392362 -0.93440634 0.99422199 0.28460538
-6.33729744 4.43292236 -0.12009803 -0.98934639 0.96203923 -0.09657605
-5.96805620 4.55818367 -0.16281641 -0.93170238 0.98922360 -0.13092776
-5.98136950 4.54024887 0.87705117 -0.93378073 0.98533136 0.70527500
-6.23027372 4.46043444 0.14254296 -0.97263843 0.96800995 0.11462499
-6.01723433 4.54591513 0.35418418 -0.93937981 0.98656106 0.28481492
-5.95177031 4.48700666 -0.16263020 -0.92915988 0.97377664 -0.13077801
-6.28750420 4.44203663 0.14385986 -0.98157293 0.96401721 0.11568397
-6.02647114 4.48401880 -0.16282305 -0.94082177 0.97312826 -0.13093311
-5.92287159 4.51106501 0.61102533 -0.92464834 0.97899783 0.49135205
-6.35620403 4.43112612 0.14568889 -0.99229801 0.96164942 0.11715478
-5.96858406 4.52945185 0.10011604 -0.93178475 0.98298818 0.08050767
-6.09329128 4.47437048 -0.16298266 -0.95125341 0.97103435 -0.13106145
-6.00975132 4.50141335 0.10062408 -0.93821156 0.97690320 0.08091620
-6.16347218 4.46639729 -0.16315557 -0.96220970 0.96930397 -0.13120049
-6.06207561 4.48132372 0.10157666 -0.94638020 0.97254336 0.08168221
-6.22352505 4.46518087 -0.16331516 -0.97158486 0.96903998 -0.13132882
-5.90825367 4.55148315 -0.19723013 -0.92236626 0.98776942 -0.15860133
-5.98664188 4.58112526 0.82769984 -0.93460387 0.99420244 0.66558945
-6.12191486 4.48093939 0.10310079 -0.95572197 0.97245991 0.08290783
-5.86732674 4.46773481 0.30127266 -0.91597700 0.96959424 0.24226646
-6.30051851 4.46052885 -0.16351467 -0.98360467 0.96803039 -0.13148926
-5.78740025 4.40007353 -0.19573335 -0.90349925 0.95491034 -0.15739770
-6.19378519 4.47387266 0.10481544 -0.96694201 0.97092628 0.08428665
-6.35305882 4.43796921 -0.16361442 -0.99180698 0.96313447 -0.13156947
-5.99690676 4.50097752 -0.19754860 -0.93620634 0.97680867 -0.15885742
-5.96816969 4.58487129 0.56127197 -0.93172008 0.99501538 0.45134321
-6.25112867 4.45567513 0.10595854 -0.97589415 0.96697706 0.08520587
-5.93711853 4.53533077 0.04881238 -0.92687249 0.98426402 0.03925216
-6.06837130 4.49546909 -0.19797853 -0.94736302 0.97561318 -0.15920314
-6.00002670 4.54969692 0.56164229 -0.93669343 0.98738182 0.45164099
-6.30029631 4.43120432 0.10678411 -0.98356998 0.96166635 0.08586974
-5.95275259 4.48827314 0.04841267 -0.92931324 0.97405154 0.03893074
-6.12711143 4.47976112 -0.19828106 -0.95653325 0.97220421 -0.15944643
-6.37408161 4.42332125 0.10856225 -0.99508893 0.95995557 0.08729963
-6.04166222 4.49630690 0.05031129 -0.94319332 0.97579503 0.04045750
-6.19884205 4.47288847 -0.19871099 -0.96773148 0.97071272 -0.15979216
-6.09874201 4.47964001 0.05121063 -0.95210433 0.97217792 0.04118070
-6.25558376 4.46929979 -0.19906130 -0.97658968 0.96993387 -0.16007386
-6.16658354 4.48508024 0.05265957 -0.96269542 0.97335857 0.04234586
-6.33248663 4.46460724 -0.19953901 -0.98859537 0.96891552 -0.16045800
-6.22706604 4.46964979 0.05365884 -0.97213763 0.97000986 0.04314941
-6.29085302 4.45595503 0.05475804 -0.98209572 0.96703780 0.04403332
-6.33344841 4.42668819 0.05520771 -0.98874551 0.96068627 0.04439493
