-3.92326140 -7.56288242 -0.26429600 -1.00000000 -0.99419820 -0.10650416
-3.85393476 -7.54459000 -0.26358375 -0.98232931 -0.99179357 -0.10621714
-3.78588820 -7.52751541 -0.26290119 -0.96498495 -0.98954898 -0.10594209
-3.72174072 -7.51706266 -0.26233733 -0.94863439 -0.98817486 -0.10571487
-3.65351653 -7.49710274 -0.26162508 -0.93124473 -0.98555100 -0.10542785
-3.58999252 -7.48561049 -0.26106122 -0.91505313 -0.98404026 -0.10520063
-3.53934503 -7.46987772 -0.26052704 -0.90214354 -0.98197204 -0.10498537
-3.90270758 -7.54072762 -0.31412947 -0.99476105 -0.99128580 -0.12658571
-3.47385120 -7.45204735 -0.25987417 -0.88544983 -0.97962815 -0.10472228
-3.83974409 -7.53485060 -0.31342384 -0.97871226 -0.99051327 -0.12630135
-3.41535401 -7.44824886 -0.25945869 -0.87053949 -0.97912878 -0.10455485
-3.77340531 -7.52134085 -0.31255215 -0.96180320 -0.98873729 -0.12595008
-3.34968400 -7.42758560 -0.25877613 -0.85380089 -0.97641242 -0.10427980
-3.71183753 -7.51624966 -0.31188804 -0.94611019 -0.98806798 -0.12568246
-3.29247022 -7.42469406 -0.25839034 -0.83921766 -0.97603232 -0.10412434
-3.63994145 -7.48912811 -0.31072584 -0.92778456 -0.98450267 -0.12521413
-2.61282301 -7.11779308 1.68740189 -0.66598237 -0.93568784 0.67997742
-3.23463082 -7.41954231 -0.25797486 -0.82447499 -0.97535509 -0.10395691
-3.58500981 -7.49563456 -0.31035227 -0.91378307 -0.98535800 -0.12506358
-2.54903555 -7.08080101 1.67455816 -0.64972359 -0.93082500 0.67480177
-3.19570160 -7.42550850 -0.25782648 -0.81455231 -0.97613937 -0.10389712
-3.52818108 -7.46729994 -0.30931458 -0.89929801 -0.98163319 -0.12464543
-2.51046395 -7.07801533 1.67101502 -0.63989210 -0.93045878 0.67337400
-3.12652707 -7.39197159 -0.25696585 -0.79692042 -0.97173071 -0.10355030
-3.46085811 -7.44585228 -0.30831838 -0.88213801 -0.97881371 -0.12424399
-2.45577574 -7.06414604 1.66392875 -0.62595260 -0.92863554 0.67051840
-3.87183452 -7.53768682 -0.34765333 -0.98689181 -0.99088609 -0.14009491
-2.58887196 -7.08036900 2.10671973 -0.65987748 -0.93076819 0.84895122
-3.06552839 -7.37634659 -0.25640199 -0.78137243 -0.96967667 -0.10332308
-2.63070035 -7.15939140 1.29512131 -0.67053914 -0.94115627 0.52189893
-3.40481138 -7.44746923 -0.30786180 -0.86785227 -0.97902632 -0.12406000
-2.41196609 -7.08128452 1.66437161 -0.61478597 -0.93088853 0.67069685
-3.80913043 -7.53149748 -0.34681195 -0.97090918 -0.99007243 -0.13975586
-2.53080130 -7.05842781 2.09524274 -0.64507586 -0.92788386 0.84432632
-3.01461434 -7.38434219 -0.25622392 -0.76839495 -0.97072774 -0.10325132
-2.56179762 -7.10898399 1.28276086 -0.65297651 -0.93452984 0.51691800
-3.33651423 -7.42135191 -0.30678260 -0.85044402 -0.97559297 -0.12362511
-2.37599635 -7.12222433 1.67057204 -0.60561764 -0.93627036 0.67319548
-3.74222374 -7.51585913 -0.34572309 -0.95385534 -0.98801666 -0.13931708
-2.48197103 -7.06147242 2.09141707 -0.63262951 -0.92828411 0.84278464
-2.95188999 -7.36226034 -0.25557104 -0.75240719 -0.96782494 -0.10298824
-2.50861311 -7.10076571 1.27829731 -0.63942033 -0.93344951 0.51511931
-3.28250194 -7.42572737 -0.30640903 -0.83667684 -0.97616816 -0.12347458
-2.34381080 -7.17597961 1.67987275 -0.59741390 -0.94333690 0.67694342
-3.68179345 -7.51226139 -0.34498069 -0.93845224 -0.98754370 -0.13901791
-2.43568897 -7.07146549 2.08977771 -0.62083268 -0.92959774 0.84212404
-2.88883495 -7.33782148 -0.25488847 -0.73633504 -0.96461225 -0.10271318
-2.45499396 -7.09029722 1.27349043 -0.62575334 -0.93207335 0.51318228
-3.21974993 -7.40956736 -0.30557889 -0.82068199 -0.97404379 -0.12314004
-3.61550713 -7.49558115 -0.34389186 -0.92155653 -0.98535097 -0.13857915
-2.40785575 -7.09927750 2.09469628 -0.61373830 -0.93325382 0.84410608
-2.84487748 -7.32709408 -0.25450268 -0.72513074 -0.96320206 -0.10255772
-2.42281628 -7.10552073 1.27417719 -0.61755157 -0.93407458 0.51345903
-3.16576838 -7.38060236 -0.30458269 -0.80692261 -0.97023612 -0.12273861
-3.51682115 -7.37881708 -0.34022933 -0.89640248 -0.97000146 -0.13710324
-3.91471887 -7.54278374 -0.40321156 -0.99782258 -0.99155611 -0.16248338
-2.37282681 -7.14350510 2.10344076 -0.60480976 -0.93906790 0.84762990
-2.59702134 -7.12678814 2.48155570 -0.66195470 -0.93687034 1.00000000
-2.78959012 -7.32050753 -0.25411689 -0.71103853 -0.96233624 -0.10240225
-2.38740969 -7.14866114 1.27932739 -0.60852677 -0.93974572 0.51553440
-3.10683131 -7.37089777 -0.30391857 -0.79190016 -0.96896040 -0.12247098
-2.60512471 -7.11355448 1.64209557 -0.66402018 -0.93513066 0.66172022
-3.84714222 -7.52811861 -0.40183860 -0.98059797 -0.98962826 -0.16193011
-2.35267782 -7.23518181 2.12639475 -0.59967399 -0.95111948 0.85687971
-2.53803492 -7.10367680 2.46769881 -0.64691967 -0.93383217 0.99441606
-2.73449802 -7.31351614 -0.25373107 -0.69699615 -0.96141714 -0.10224678
-2.35823679 -7.21225405 1.28825438 -0.60109091 -0.94810545 0.51913178
-3.05199027 -7.36997271 -0.30346197 -0.77792174 -0.96883881 -0.12228699
-2.59966898 -7.23013687 0.00310841 -0.66262954 -0.95045632 0.00125260
-2.54175997 -7.07837248 1.62999570 -0.64786911 -0.93050575 0.65684432
-3.43714809 -7.45150900 -0.34102124 -0.87609458 -0.97955734 -0.13742235
-3.78261352 -7.51825428 -0.40065289 -0.96415025 -0.98833150 -0.16145231
-2.54027247 -7.15572786 0.52641976 -0.64748996 -0.94067466 0.21213296
-2.47944164 -7.08010674 2.45384192 -0.63198483 -0.93073368 0.98883212
-2.67686963 -7.29860497 -0.25322658 -0.68230724 -0.95945698 -0.10204348
-2.99197698 -7.35569859 -0.30271485 -0.76262492 -0.96696234 -0.12198592
-2.52582002 -7.16515779 0.00153070 -0.64380622 -0.94191432 0.00061683
-2.49200845 -7.07948160 1.62653863 -0.63518798 -0.93065155 0.65545118
-3.32946920 -7.33806944 -0.33735874 -0.84864831 -0.96464485 -0.13594647
-3.72103596 -7.51324511 -0.39965439 -0.94845474 -0.98767304 -0.16104993
-2.64890242 -7.17184877 2.07614279 -0.67517865 -0.94279391 0.83662951
-2.50565672 -7.20168304 0.52921075 -0.63866675 -0.94671583 0.21325766
-2.44111753 -7.11348343 2.46014047 -0.62221640 -0.93512136 0.99137026
-2.93674302 -7.35209274 -0.30221674 -0.74854636 -0.96648830 -0.12178519
-2.48982096 -7.20737171 0.00204437 -0.63463038 -0.94746363 0.00082383
-2.44555235 -7.08946657 1.62524223 -0.62334681 -0.93196416 0.65492880
-3.31812930 -7.43744564 -0.33948696 -0.84575790 -0.97770864 -0.13680409
-3.66319227 -7.51493931 -0.39890549 -0.93371099 -0.98789573 -0.16074815
-2.56478119 -7.15337038 0.78859890 -0.65373701 -0.94036478 0.31778407
-2.57188368 -7.21398973 0.27005106 -0.65554738 -0.94833362 0.10882329
-2.57402587 -7.10686159 2.05218959 -0.65609336 -0.93425083 0.82697701
-2.45653105 -7.20595932 0.52816409 -0.62614512 -0.94727796 0.21283588
-2.40125179 -7.14306211 2.46517920 -0.61205500 -0.93900967 0.99340069
-2.52290249 -7.15422058 -0.25043696 -0.64306253 -0.94047654 -0.10091934
-2.87358975 -7.32762718 -0.30126208 -0.73244923 -0.96327215 -0.12140049
-2.57694411 -7.11182594 1.24455917 -0.65683722 -0.93490344 0.50152379
-2.43558288 -7.19633150 0.00153070 -0.62080568 -0.94601232 0.00061683
-2.40285063 -7.11023712 1.62653863 -0.61246252 -0.93469459 0.65545118
-3.26095223 -7.43431807 -0.33884352 -0.83118403 -0.97729748 -0.13654479
-3.59765387 -7.50000191 -0.39759496 -0.91700590 -0.98593211 -0.16022004
-2.51063919 -7.14309835 0.78520674 -0.63993675 -0.93901443 0.31641713
-2.51081443 -7.18471622 0.26749703 -0.63998145 -0.94448543 0.10779409
-2.52087164 -7.09929943 2.04526973 -0.64254493 -0.93325675 0.82418853
-2.41621423 -7.23638391 0.52955961 -0.61586881 -0.95127755 0.21339823
-2.37188220 -7.20484591 2.48155570 -0.60456902 -0.94713163 1.00000000
-2.48956823 -7.20398378 -0.25097114 -0.63456601 -0.94701827 -0.10113460
-2.82676935 -7.34367371 -0.30122057 -0.72051519 -0.96538156 -0.12138376
-2.52688742 -7.11302519 1.24189258 -0.64407825 -0.93506110 0.50044918
-2.39905620 -7.23808956 0.00204437 -0.61149538 -0.95150173 0.00082383
-2.37297416 -7.16964722 1.63690984 -0.60484731 -0.94250447 0.65963048
-3.16066003 -7.32967806 -0.33547798 -0.80562055 -0.96354175 -0.13518858
-3.53587914 -7.49176168 -0.39653406 -0.90126014 -0.98484886 -0.15979253
-2.47243953 -7.14170551 0.78351068 -0.63020003 -0.93883133 0.31573367
-2.47886419 -7.20213890 0.26781628 -0.63183761 -0.94677573 0.10792273
-2.48738909 -7.11110020 2.04526973 -0.63401055 -0.93480802 0.82418853
-2.45047903 -7.20047665 -0.25073373 -0.62460256 -0.94655722 -0.10103893
-2.78284550 -7.33263397 -0.30068097 -0.70931941 -0.96393031 -0.12116632
-2.48874545 -7.11183691 1.23955929 -0.63435626 -0.93490487 0.49950895
-2.36369061 -7.24550915 0.00197099 -0.60248107 -0.95247710 0.00079426
-2.36111593 -7.24753284 1.65246677 -0.60182476 -0.95274311 0.66589952
-3.15566182 -7.41447401 -0.33735874 -0.80434656 -0.97468883 -0.13594647
-3.48015642 -7.46490765 -0.39503628 -0.88705701 -0.98131871 -0.15918897
-2.43131399 -7.16838980 0.78496444 -0.61971754 -0.94233918 0.31631950
-2.43926072 -7.23461962 0.26877403 -0.62174308 -0.95104557 0.10830869
-2.43950987 -7.11747789 2.04260826 -0.62180662 -0.93564641 0.82311600
-2.58643842 -7.19496441 0.49203032 -0.65925723 -0.94583261 0.19827494
-2.41648030 -7.24991035 -0.25126791 -0.61593658 -0.95305568 -0.10125419
-2.72196412 -7.31066084 -0.29980931 -0.69380134 -0.96104181 -0.12081506
-2.44272208 -7.12360620 1.23889267 -0.62262535 -0.93645203 0.49924034
-2.33922935 -7.32694626 0.00325517 -0.59624612 -0.96318263 0.00131175
-2.56429553 -7.19727945 -0.04061568 -0.65361321 -0.94613695 -0.01636702
-3.09137797 -7.39168549 -0.33622038 -0.78796124 -0.97169310 -0.13548775
-3.41642976 -7.45032597 -0.39378816 -0.87081367 -0.97940183 -0.15868600
-2.39429593 -7.20803881 0.78811431 -0.61028200 -0.94755137 0.31758881
-2.40525675 -7.16370630 2.05165720 -0.61307585 -0.94172353 0.82676250
-2.52649570 -7.16975403 0.48841503 -0.64397842 -0.94251853 0.19681808
-2.67114091 -7.31448364 -0.29951876 -0.68084705 -0.96154433 -0.12069798
-2.40424490 -7.15749025 1.24222589 -0.61281794 -0.94090635 0.50058353
-2.30969906 -7.39498758 0.00428252 -0.58871913 -0.97212720 0.00172574
-2.51171541 -7.19250011 -0.04089566 -0.64021111 -0.94550866 -0.01647985
-3.03052616 -7.37578821 -0.33528000 -0.77245075 -0.96960330 -0.13510880
-3.35715580 -7.44434118 -0.39285207 -0.85570538 -0.97861511 -0.15830879
-2.57574129 -7.14828634 0.74568474 -0.65653062 -0.93969643 0.30049083
-2.37537527 -7.22442245 2.06496453 -0.60545933 -0.94970512 0.83212501
-2.47746325 -7.17419291 0.48742905 -0.63148052 -0.94310206 0.19642076
-2.54297018 -7.10355139 -0.29449633 -0.64817762 -0.93381566 -0.11867408
-2.37662029 -7.22486067 1.25155890 -0.60577667 -0.94976270 0.50434446
-2.27303481 -7.44189119 0.00490627 -0.57937378 -0.97829300 0.00197709
-2.46582174 -7.20624924 -0.04092111 -0.62851322 -0.94731611 -0.01649010
-2.93133521 -7.26290751 -0.33176598 -0.74716794 -0.95476425 -0.13369274
-3.29320335 -7.42695475 -0.39154151 -0.83940452 -0.97632951 -0.15778066
-2.51877618 -7.13064432 0.74152231 -0.64201081 -0.93737727 0.29881349
-3.90552425 -7.51592350 -0.20528728 -0.99547899 -0.98802513 -0.08272523
-2.54698420 -7.18345404 0.22531798 -0.64920074 -0.94431949 0.09079707
-2.43813229 -7.20659494 0.48890802 -0.62145549 -0.94736153 0.19701675
-2.52497458 -7.19478846 -0.29615662 -0.64359069 -0.94580948 -0.11934312
-2.24040890 -7.50396490 0.00582354 -0.57105780 -0.98645306 0.00234673
-2.42690134 -7.24054480 -0.04066658 -0.61859280 -0.95182449 -0.01638754
-3.23763633 -7.42736435 -0.39085504 -0.82524103 -0.97638333 -0.15750404
-2.61883926 -7.15216684 1.59472430 -0.66751587 -0.94020653 0.64263088
-2.47195888 -7.14070320 0.74082857 -0.63007754 -0.93869954 0.29853392
-3.84998608 -7.52431059 -0.20514397 -0.98132282 -0.98912770 -0.08266748
-2.50113845 -7.19743013 0.22522275 -0.63751513 -0.94615674 0.09075870
-2.41745067 -7.29549742 0.49531692 -0.61618394 -0.95904845 0.19959936
-2.55775046 -7.09518480 2.40783381 -0.65194494 -0.93271583 0.97029209
-2.47578692 -7.19917631 -0.29590759 -0.63105327 -0.94638628 -0.11924277
-2.20043159 -7.54286766 0.00630052 -0.56086797 -0.99156713 0.00253894
-2.35872722 -7.18730640 -0.04158287 -0.60121590 -0.94482595 -0.01675677
-2.85640049 -7.34206867 -0.33290434 -0.72806787 -0.96517056 -0.13415147
-3.17902708 -7.42002773 -0.38991895 -0.81030214 -0.97541893 -0.15712681
-2.54104972 -7.07635689 1.57380950 -0.64768809 -0.93024075 0.63420278
-2.43634343 -7.14663649 0.74013478 -0.62099952 -0.93947953 0.29825434
-3.79362774 -7.50137186 -0.20477773 -0.96695769 -0.98611218 -0.08251990
-2.46914935 -7.21480131 0.22550844 -0.62936139 -0.94844031 0.09087382
-2.51480746 -7.08023930 2.39858913 -0.64099920 -0.93075114 0.96656674
-2.44635916 -7.22400856 -0.29619813 -0.62355244 -0.94965070 -0.11935986
-2.18014979 -7.60701656 0.00732787 -0.55569834 -1.00000000 0.00295293
-2.36077642 -7.30862236 -0.04010664 -0.60173821 -0.96077383 -0.01616189
-2.81110048 -7.32741928 -0.33216193 -0.71652132 -0.96324480 -0.13385230
-3.12836146 -7.39814234 -0.38867080 -0.79738796 -0.97254193 -0.15662384
-2.50767517 -7.08825254 1.57380950 -0.63918126 -0.93180454 0.63420278
-2.41676259 -7.23710823 0.74938470 -0.61600858 -0.95137274 0.30198181
-3.73119450 -7.49466085 -0.20450704 -0.95104408 -0.98522997 -0.08241082
-2.63492537 -7.20404530 0.98090070 -0.67161608 -0.94702637 0.39527652
-2.43016911 -7.24909735 0.22646075 -0.61942571 -0.95294881 0.09125757
-2.46840954 -7.09050465 2.39674020 -0.62917286 -0.93210059 0.96582162
-2.42439818 -7.30939722 -0.29773393 -0.61795479 -0.96087569 -0.11997874
-2.32392550 -7.35188961 -0.03972485 -0.59234530 -0.96646160 -0.01600804
-2.75591135 -7.32058811 -0.33151853 -0.70245415 -0.96234679 -0.13359302
-3.06792641 -7.38445854 -0.38754749 -0.78198367 -0.97074306 -0.15617119
-2.45164657 -7.07057667 1.56628013 -0.62490010 -0.92948091 0.63116866
-3.65926743 -7.46773148 -0.20406120 -0.93271059 -0.98168993 -0.08223116
-2.56374598 -7.14773989 0.96962947 -0.65347314 -0.93962461 0.39073452
-2.37829280 -7.24525928 0.22550844 -0.60620302 -0.95244426 0.09087382
-2.60848451 -7.11696529 1.99650466 -0.66487652 -0.93557906 0.80453753
-2.56079149 -7.19728708 0.44878677 -0.65272009 -0.94613796 0.18084896
-2.42868519 -7.12029362 2.40167069 -0.61904752 -0.93601656 0.96780849
-2.29258156 -7.41407204 -0.03908854 -0.58435607 -0.97463596 -0.01575163
-2.69885635 -7.30772114 -0.33072662 -0.68791145 -0.96065533 -0.13327390
-2.59382463 -7.15509272 1.19777942 -0.66113991 -0.94059116 0.48267278
-3.00322723 -7.35921526 -0.38604975 -0.76549250 -0.96742463 -0.15556763
-2.55221295 -7.22132063 -0.06910721 -0.65053350 -0.94929737 -0.02784834
-2.41466141 -7.10808325 1.57129967 -0.61547297 -0.93441141 0.63319141
-3.59655809 -7.45818853 -0.20377457 -0.91672659 -0.98043543 -0.08211566
-2.52073932 -7.16931343 0.97049648 -0.64251119 -0.94246060 0.39108390
-2.34627914 -7.30186653 0.22760354 -0.59804302 -0.95988572 0.09171809
-2.53647828 -7.05678558 1.97476208 -0.64652288 -0.92766798 0.79577583
-2.51291299 -7.20569611 0.44817382 -0.64051634 -0.94724339 0.18060195
-2.38629150 -7.14263821 2.40413594 -0.60824180 -0.93895394 0.96880192
-2.25762844 -7.46658468 -0.03857950 -0.57544684 -0.98153919 -0.01554650
-2.64274812 -7.29630947 -0.32998422 -0.67360997 -0.95915520 -0.13297474
-2.52519298 -7.10421467 1.18627644 -0.64364636 -0.93390286 0.47803739
-2.94420600 -7.34642792 -0.38498881 -0.75044858 -0.96574366 -0.15514010
-2.48795319 -7.18236065 -0.06962778 -0.63415432 -0.94417578 -0.02805812
-2.37301469 -7.13240194 1.57339120 -0.60485768 -0.93760830 0.63403422
-3.53497577 -7.44995880 -0.20350388 -0.90102988 -0.97935355 -0.08200657
-2.60394692 -7.21784878 0.72426492 -0.66371995 -0.94884092 0.29185921
-2.46604872 -7.15691805 0.96616137 -0.62857109 -0.94083112 0.38933697
-2.31002188 -7.34693098 0.22912724 -0.58880144 -0.96580976 0.09233209
-2.58338118 -7.21498251 0.19172460 -0.65847796 -0.94846416 0.07725984
-2.49782324 -7.08899736 1.97942126 -0.63667011 -0.93190247 0.79765338
-2.46758890 -7.22134304 0.44817382 -0.62896365 -0.94930029 0.18060195
-2.40120649 -7.34210682 2.46700072 -0.61204344 -0.96517563 0.99413472
-2.22553587 -7.53044796 -0.03791774 -0.56726676 -0.98993450 -0.01527982
-2.53708029 -7.14304256 -0.32552981 -0.64667630 -0.93900710 -0.13117974
-2.47535038 -7.10501099 1.18372011 -0.63094199 -0.93400759 0.47700727
-2.44468904 -7.20353746 -0.06957392 -0.62312675 -0.94695961 -0.02803641
-2.34377265 -7.19556284 1.58426690 -0.59740412 -0.94591129 0.63841683
-3.46853662 -7.43038988 -0.20313765 -0.88409519 -0.97678107 -0.08185899
-2.53157783 -7.15717268 0.71510041 -0.64527380 -0.94086462 0.28816617
-2.42668319 -7.18916225 0.96876240 -0.61853719 -0.94506991 0.39038512
-2.27862096 -7.40899801 0.23150803 -0.58079761 -0.97396898 0.09329149
-2.52092218 -7.18200636 0.18948954 -0.64255780 -0.94412917 0.07635918
-2.44259739 -7.07348013 1.97062063 -0.62259358 -0.92986262 0.79410696
-2.42656279 -7.24995327 0.44924650 -0.61850655 -0.95306134 0.18103422
-2.18769217 -7.57692099 -0.03748505 -0.55762082 -0.99604368 -0.01510546
-2.50258565 -7.18908262 -0.32632172 -0.63788402 -0.94505942 -0.13149884
-2.42749596 -7.11107302 1.18212247 -0.61874437 -0.93480444 0.47636345
-2.83425665 -7.33813524 -0.38349107 -0.72242361 -0.96465349 -0.15453656
-2.40876579 -7.24724865 -0.06930467 -0.61397028 -0.95270580 -0.02792791
-3.42590618 -7.43032551 -0.20299433 -0.87322915 -0.97677261 -0.08180124
-2.50366235 -7.18593025 0.71711212 -0.63815844 -0.94464499 0.28897685
-2.40144491 -7.22683382 0.97280854 -0.61210424 -0.95002210 0.39201561
-2.25826335 -7.46742105 0.23388880 -0.57560867 -0.98164910 0.09425088
-2.48381090 -7.18435478 0.18905972 -0.63309848 -0.94443792 0.07618596
-2.41725826 -7.10871029 1.97735047 -0.61613488 -0.93449384 0.79681891
-2.46675014 -7.19511652 -0.32617325 -0.62874991 -0.94585264 -0.13143902
-2.40082240 -7.14303780 1.18563735 -0.61194557 -0.93900645 0.47777987
-2.78890085 -7.32341528 -0.38255498 -0.71086287 -0.96271849 -0.15415934
-2.37520409 -7.26042128 -0.06928672 -0.60541570 -0.95443743 -0.02792068
-3.36420417 -7.41895580 -0.20270772 -0.85750192 -0.97527796 -0.08168574
-2.45527744 -7.19210625 0.71599454 -0.62582558 -0.94545692 0.28852648
-2.61215782 -7.18140507 0.93805403 -0.66581285 -0.94405013 0.37801045
-2.22329593 -7.52166319 0.23588867 -0.56669587 -0.98877966 0.09505677
-2.44879675 -7.23012733 0.19043514 -0.62417376 -0.95045507 0.07674023
-2.37981105 -7.14577246 1.98356271 -0.60658997 -0.93936598 0.79932225
-2.60459542 -7.21652937 0.40371305 -0.66388524 -0.94866753 0.16268547
-2.62556100 -7.16213703 2.36161184 -0.66922915 -0.94151723 0.95166588
-2.43159676 -7.24082661 -0.32696512 -0.61978966 -0.95186156 -0.13175812
-2.36691308 -7.19176769 1.19138885 -0.60330242 -0.94541240 0.48009756
-2.73155928 -7.31086159 -0.38155645 -0.69624710 -0.96106815 -0.15375696
-2.34405422 -7.32095242 -0.06885591 -0.59747595 -0.96239471 -0.02774707
-2.57779288 -7.21091986 -0.12027244 -0.65705359 -0.94793010 -0.04846655
-2.58340049 -7.10393858 1.51435733 -0.65848291 -0.93386656 0.61024517
-3.30441880 -7.41075468 -0.20245294 -0.84226322 -0.97419989 -0.08158308
-2.41816783 -7.23191643 0.71890032 -0.61636674 -0.95069027 0.28969744
-2.54419708 -7.13431454 0.92856181 -0.64849031 -0.93785971 0.37418535
-2.18885422 -7.57959509 0.23807900 -0.55791700 -0.99639523 0.09593941
-2.38522339 -7.19032288 0.18794219 -0.60796952 -0.94522244 0.07573564
-2.35624743 -7.22676182 2.00219917 -0.60058385 -0.95001262 0.80683225
-2.53573537 -7.16698742 0.39878106 -0.64633352 -0.94215482 0.16069801
-2.55059743 -7.09597683 2.33403492 -0.65012169 -0.93281996 0.94055313
-2.68557024 -7.32788038 -0.38155645 -0.68452495 -0.96330541 -0.15375696
-2.30986571 -7.37373686 -0.06849691 -0.58876163 -0.96933359 -0.02760240
-2.51444173 -7.17606020 -0.12039636 -0.64090598 -0.94334751 -0.04851649
-2.52346563 -7.07762432 1.50512528 -0.64320612 -0.93040740 0.60652488
-3.24083185 -7.39294815 -0.20211856 -0.82605553 -0.97185910 -0.08144832
-2.49602842 -7.14082050 0.92716593 -0.63621265 -0.93871498 0.37362286
-2.36815476 -7.29266357 0.19189653 -0.60361892 -0.95867592 0.07732912
-2.48604369 -7.16959572 0.39779466 -0.63366759 -0.94249773 0.16030052
-2.49829435 -7.09028816 2.32684088 -0.63679016 -0.93207216 0.93765408
-2.60202169 -7.24123907 -0.37812409 -0.66322923 -0.95191580 -0.15237381
-2.27917147 -7.43977499 -0.06801224 -0.58093798 -0.97801483 -0.02740710
-2.48501301 -7.23707390 -0.12028621 -0.63340491 -0.95136821 -0.04847210
-2.47699189 -7.08779621 1.50392115 -0.63136041 -0.93174458 0.60603964
-3.17998815 -7.38014078 -0.20183194 -0.81054711 -0.97017545 -0.08133283
-2.56747627 -7.16381121 0.66511893 -0.65442395 -0.94173729 0.26802498
-2.45175910 -7.15823460 0.92744505 -0.62492883 -0.94100422 0.37373534
-2.33248949 -7.33979940 0.19335791 -0.59452820 -0.96487230 0.07791802
-2.55365801 -7.17977524 0.14100657 -0.65090185 -0.94383591 0.05682185
-2.44612122 -7.20017290 0.39892200 -0.62349176 -0.94651729 0.16075480
-2.44616389 -7.08422327 2.31964684 -0.62350267 -0.93127483 0.93475509
-2.53773642 -7.20470095 -0.37637672 -0.64684355 -0.94711256 -0.15166967
-2.62872386 -7.18014002 1.13378513 -0.67003536 -0.94388384 0.45688483
-2.24205041 -7.48654318 -0.06770709 -0.57147616 -0.98416287 -0.02728413
-2.43113780 -7.22792339 -0.12034588 -0.61967266 -0.95016533 -0.04849614
-2.43049002 -7.09766388 1.50271702 -0.61950755 -0.93304175 0.60555440
-3.11080432 -7.34662533 -0.20137016 -0.79291284 -0.96576959 -0.08114675
-2.51045752 -7.14605618 0.66133779 -0.63989043 -0.93940324 0.26650128
-2.41371918 -7.19413233 0.93051606 -0.61523283 -0.94572324 0.37497288
-2.30044198 -7.40014124 0.19542105 -0.58635962 -0.97280467 0.07874941
-2.49855161 -7.16739559 0.13990916 -0.63685578 -0.94220847 0.05637962
-2.59177542 -7.10617018 1.92223132 -0.66061759 -0.93415993 0.77460736
-2.41670656 -7.26268244 0.40244484 -0.61599427 -0.95473468 0.16217442
-2.41269827 -7.13195658 2.33043790 -0.61497259 -0.93754977 0.93910360
-2.48847437 -7.20917654 -0.37600228 -0.63428718 -0.94770092 -0.15151878
-2.55260110 -7.11100006 1.11989617 -0.65063244 -0.93479484 0.45128796
-2.20665789 -7.54082108 -0.06733013 -0.56245500 -0.99129808 -0.02713223
-2.38378358 -7.23736238 -0.12035964 -0.60760254 -0.95140618 -0.04850169
-2.39589643 -7.14248943 1.50913918 -0.61069000 -0.93893439 0.60814238
-3.07614970 -7.36120319 -0.20137016 -0.78407973 -0.96768600 -0.08114675
-2.47609925 -7.15592957 0.66112775 -0.63113290 -0.94070119 0.26641664
-2.40107918 -7.26930714 0.94000828 -0.61201102 -0.95560551 0.37879798
-2.27423120 -7.43958521 0.19671051 -0.57967871 -0.97798985 0.07926903
-2.46278620 -7.17342472 0.13968967 -0.62773949 -0.94300109 0.05629117
-2.53912663 -7.06551361 1.90770459 -0.64719790 -0.92881531 0.76875347
-2.38939571 -7.17399359 2.34062934 -0.60903299 -0.94307584 0.94321048
-2.45382619 -7.21893215 -0.37593988 -0.62545568 -0.94898337 -0.15149362
-2.51640630 -7.11550140 1.11868846 -0.64140671 -0.93538660 0.45080128
-2.18205142 -7.58960533 -0.06697112 -0.55618304 -0.99771118 -0.02698756
-2.37079287 -7.31314516 -0.12020359 -0.60429132 -0.96136838 -0.04843881
-2.36840534 -7.17228889 1.51315320 -0.60368276 -0.94285178 0.60975993
-3.01073170 -7.33418179 -0.20097210 -0.76740533 -0.96413380 -0.08098634
-2.43881202 -7.19392872 0.66364849 -0.62162876 -0.94569647 0.26743242
-2.24445581 -7.51120710 0.19928943 -0.57208931 -0.98740512 0.08030827
-2.43050981 -7.22661066 0.14115290 -0.61951256 -0.94999278 0.05688081
-2.49403453 -7.07950306 1.90720367 -0.63570440 -0.93065435 0.76855165
-2.43897200 -7.32516670 -0.37893540 -0.62166953 -0.96294868 -0.15270074
-2.47164893 -7.13117170 1.11868846 -0.62999851 -0.93744659 0.45080128
-2.33516383 -7.36027765 -0.12012557 -0.59520984 -0.96756428 -0.04840736
-2.95480680 -7.32886553 -0.20076509 -0.75315064 -0.96343493 -0.08090291
-2.60223365 -7.21708059 0.89904302 -0.66328329 -0.94873995 0.36229008
-2.20831871 -7.56355143 0.20100871 -0.56287831 -0.99428618 0.08100109
-2.38001370 -7.22656584 0.14056762 -0.60664165 -0.94998688 0.05664496
-2.44695640 -7.08771992 1.90520000 -0.62370467 -0.93173450 0.76774418
-2.59028959 -7.23538542 0.36356497 -0.66023886 -0.95114625 0.14650688
-2.43063855 -7.15778303 1.12050009 -0.61954540 -0.94094485 0.45153132
-2.30322075 -7.42060947 -0.12001542 -0.58706790 -0.97549540 -0.04836298
-2.58025765 -7.23107481 -0.16337502 -0.65768182 -0.95057958 -0.06583573
-2.89758587 -7.31942225 -0.20052624 -0.73856556 -0.96219355 -0.08080667
-2.54896951 -7.21084356 0.89582467 -0.64970678 -0.94792008 0.36099318
-2.35434842 -7.30219650 0.14290877 -0.60009980 -0.95992911 0.05758838
-2.41175508 -7.13044167 1.91271377 -0.61473221 -0.93735063 0.77077204
-2.52051020 -7.18177652 0.35874429 -0.64245278 -0.94409895 0.14456427
-2.39002013 -7.18603420 1.12261367 -0.60919219 -0.94465870 0.45238301
-2.27002525 -7.47891665 -0.11990985 -0.57860667 -0.98316032 -0.04832043
-2.51118231 -7.17911911 -0.16313562 -0.64007521 -0.94374961 -0.06573925
-2.83768392 -7.30210114 -0.20022370 -0.72329718 -0.95991653 -0.08068475
-2.50039339 -7.21734476 0.89448375 -0.63732523 -0.94877470 0.36045283
-2.31448507 -7.33588934 0.14364038 -0.58993906 -0.96435827 0.05788320
-2.37304378 -7.16381836 1.91772294 -0.60486507 -0.94173825 0.77279061
-2.47018433 -7.18235922 0.35770199 -0.62962520 -0.94417560 0.14414425
-2.23102283 -7.51985455 -0.11984560 -0.56866533 -0.98854190 -0.04829454
-2.46859884 -7.20233011 -0.16316222 -0.62922108 -0.94680089 -0.06574997
-2.54533339 -7.16358328 0.62685263 -0.64877999 -0.94170731 0.25260469
-2.46068454 -7.24981880 0.89689744 -0.62720382 -0.95304364 0.36142546
-2.28380203 -7.39990044 0.14554258 -0.58211821 -0.97277302 0.05864973
-2.36412120 -7.28899956 1.94777822 -0.60259080 -0.95819426 0.78490210
-2.54031348 -7.18896389 0.10430740 -0.64750046 -0.94504380 0.04203307
-2.43006468 -7.21288204 0.35874429 -0.61939913 -0.94818801 0.14456427
-2.19665146 -7.57787180 -0.11974004 -0.55990446 -0.99616867 -0.04825201
-2.43843842 -7.22526312 -0.16320211 -0.62153351 -0.94981563 -0.06576604
-2.61638546 -7.12655020 1.44854808 -0.66689044 -0.93683904 0.58372581
-2.52068090 -7.20181799 0.62965751 -0.64249629 -0.94673359 0.25373498
-2.43147850 -7.27638531 0.89904302 -0.61975950 -0.95653600 0.36229008
-2.26061392 -7.44880056 0.14700580 -0.57620782 -0.97920132 0.05923937
-2.49923515 -7.18006897 0.10360884 -0.63703001 -0.94387448 0.04175157
-2.46833992 -7.44418383 0.37385780 -0.62915510 -0.97859442 0.15065460
-2.56820917 -7.07189178 2.24943948 -0.65461075 -0.92965376 0.90646344
-2.38738990 -7.22333622 -0.16314226 -0.60852176 -0.94956231 -0.06574193
-2.54581833 -7.07075167 1.43359661 -0.64890355 -0.92950392 0.57770073
-2.46449161 -7.18548536 0.62625164 -0.62817419 -0.94458652 0.25236252
-2.62332749 -7.18553782 0.84194547 -0.66865987 -0.94459343 0.33928132
-2.22924924 -7.51455259 0.14898115 -0.56821328 -0.98784488 0.06003539
-2.45791364 -7.20699263 0.10398987 -0.62649757 -0.94741380 0.04190511
-2.50270200 -7.02833748 2.23026395 -0.63791364 -0.92392826 0.89873618
-2.37370825 -7.33722782 -0.16348808 -0.60503441 -0.96453422 -0.06588128
-2.50328636 -7.09216595 1.43474674 -0.63806260 -0.93231899 0.57816422
-2.61552739 -7.23164845 -0.19907722 -0.66667169 -0.95065504 -0.08022275
-2.43312716 -7.24236441 0.63065922 -0.62017971 -0.95206368 0.25413865
-2.55118537 -7.12724257 0.83177000 -0.65027159 -0.93693006 0.33518088
-2.19153333 -7.56102037 0.15022489 -0.55859989 -0.99395347 0.06053658
-2.42012215 -7.24506569 0.10475193 -0.61686486 -0.95241880 0.04221220
-2.44660425 -7.00956106 2.21922350 -0.62361491 -0.92145997 0.89428723
-2.54013228 -7.14842749 0.31388068 -0.64745426 -0.93971497 0.12648545
-2.33474398 -7.37489700 -0.16356787 -0.59510285 -0.96948612 -0.06591344
-2.45230913 -7.08918667 1.43091297 -0.62506902 -0.93192732 0.57661933
-2.54377699 -7.17449617 -0.19845621 -0.64838326 -0.94314194 -0.07997250
-2.50172091 -7.13004065 0.82998931 -0.63766360 -0.93729788 0.33446330
-2.34435129 -7.16695070 0.10164017 -0.59755164 -0.94215000 0.04095825
-2.58344507 -7.07605648 1.84010971 -0.65849423 -0.93020129 0.74151456
-2.40742850 -7.03929472 2.22387218 -0.61362940 -0.92536867 0.89616048
-2.49516749 -7.16424656 0.31388068 -0.63599318 -0.94179451 0.12648545
-2.30537200 -7.44487000 -0.16376072 -0.58761621 -0.97868460 -0.06599116
-2.41584325 -7.12864494 1.43589687 -0.61577421 -0.93711442 0.57862771
-2.49071026 -7.16768885 -0.19826514 -0.63485706 -0.94224703 -0.07989550
-2.58834505 -7.18762779 0.57182544 -0.65974319 -0.94486815 0.23043023
-2.45427227 -7.13812160 0.82897180 -0.62556940 -0.93836021 0.33405328
-2.33976817 -7.30920315 0.10589503 -0.59638345 -0.96085018 0.04267284
-2.53114367 -7.07020092 1.83431375 -0.64516312 -0.92943150 0.73917896
-2.57215285 -7.20369339 0.05325914 -0.65561599 -0.94698012 0.02146200
-2.36194611 -7.05064964 2.22270989 -0.60203636 -0.92686135 0.89569211
-2.45400333 -7.19110918 0.31459433 -0.62550086 -0.94532579 0.12677303
-2.26659369 -7.48602724 -0.16385382 -0.57773203 -0.98409504 -0.06602867
-2.37591171 -7.15860033 1.43896377 -0.60559607 -0.94105226 0.57986361
-2.45861840 -7.22102642 -0.19858360 -0.62667716 -0.94925869 -0.08002383
-2.52175927 -7.14371490 0.56590068 -0.64277118 -0.93909550 0.22804271
-2.41958618 -7.18345356 0.83304197 -0.61672825 -0.94431943 0.33569345
-2.30386806 -7.35621595 0.10697462 -0.58723289 -0.96703035 0.04310789
-2.47965598 -7.06580114 1.82900083 -0.63203943 -0.92885315 0.73703802
-2.51020288 -7.17257786 0.05201005 -0.63982552 -0.94288975 0.02095865
-2.34658289 -7.15453196 2.25118256 -0.59812045 -0.94051749 0.90716583
-2.41642785 -7.22908735 0.31602165 -0.61592323 -0.95031834 0.12734820
-2.23807812 -7.51964569 -0.16393363 -0.57046366 -0.98851442 -0.06606083
-2.36512232 -7.24068260 1.45353198 -0.60284597 -0.95184261 0.58573419
-2.43097019 -7.25147772 -0.19874284 -0.61962992 -0.95326173 -0.08008800
-2.47488594 -7.11793566 0.56219769 -0.63082361 -0.93570662 0.22655050
-2.41214347 -7.27378845 0.84372622 -0.61483121 -0.95619464 0.33999890
-2.28317904 -7.41287851 0.10849874 -0.58195943 -0.97447908 0.04372207
-2.44570255 -7.07557201 1.82851791 -0.62338507 -0.93013757 0.73684341
-2.47506189 -7.18055058 0.05191012 -0.63086843 -0.94393784 0.02091838
-2.20628476 -7.58737183 -0.16411984 -0.56235987 -0.99741757 -0.06613587
-2.38158727 -7.25521755 -0.19864731 -0.60704273 -0.95375335 -0.08004951
-2.45147371 -7.19549370 0.56830758 -0.62485605 -0.94590223 0.22901262
-2.25027084 -7.47305155 0.11002288 -0.57357150 -0.98238927 0.04433625
-2.40552020 -7.10367823 1.83189881 -0.61314297 -0.93383235 0.73820579
-2.43569922 -7.21299314 0.05235979 -0.62083530 -0.94820261 0.02109958
-2.36062932 -7.34613514 -0.19928423 -0.60170072 -0.96570516 -0.08030616
-2.64454699 -7.12402534 1.38012147 -0.67406851 -0.93650717 0.55615175
-2.41765237 -7.24472618 0.57164025 -0.61623538 -0.95237416 0.23035561
-2.21613693 -7.53118324 0.11148350 -0.56487107 -0.99003112 0.04492484
-2.37053418 -7.14815331 1.83962679 -0.60422540 -0.93967897 0.74131995
-2.38716674 -7.21867180 0.05210998 -0.60846490 -0.94894916 0.02099891
-2.62652373 -7.12627316 2.19084835 -0.66947454 -0.93680263 0.88285279
-2.32107997 -7.38179111 -0.19945939 -0.59162003 -0.97039241 -0.08037675
-2.58482575 -7.09989357 1.37207103 -0.65884620 -0.93333483 0.55290759
-2.17752981 -7.57572079 0.11249959 -0.55503052 -0.99588591 0.04533430
-2.34756494 -7.23126602 1.85749757 -0.59837079 -0.95060474 0.74852139
-2.36411572 -7.30194712 0.05390866 -0.60258937 -0.95989633 0.02172374
-2.55803585 -7.07771873 2.17059946 -0.65201771 -0.93041980 0.87469304
-2.52617908 -7.07714415 1.36438656 -0.64389771 -0.93034422 0.54981095
-2.32975984 -7.35284042 0.05485797 -0.59383243 -0.96658659 0.02210628
-2.50770187 -7.07738590 2.16553712 -0.63918805 -0.93037605 0.87265301
-2.47708178 -7.07989788 1.36182499 -0.63138330 -0.93070626 0.54877871
-2.29843879 -7.41503763 0.05610706 -0.58584899 -0.97476292 0.02260963
-2.63835144 -7.13290310 1.77541482 -0.67248935 -0.93767416 0.71544427
-2.45493531 -7.06945467 2.15822506 -0.62573838 -0.92933339 0.86970645
-2.44498253 -7.09520626 1.36255693 -0.62320155 -0.93271863 0.54907370
-2.27229047 -7.45445108 0.05685651 -0.57918406 -0.97994411 0.02291164
-2.58457160 -7.09047031 1.76152396 -0.65878141 -0.93209606 0.70984662
-2.42722797 -7.09727383 2.16328740 -0.61867607 -0.93299043 0.87174648
-2.40922928 -7.13648605 1.36767995 -0.61408842 -0.93814522 0.55113810
-2.23692703 -7.50687361 0.05785578 -0.57017028 -0.98683542 0.02331432
-2.53073335 -7.08094454 1.75504160 -0.64505857 -0.93084383 0.70723444
-2.38996196 -7.13420296 2.17003703 -0.60917735 -0.93784505 0.87446636
-2.38238692 -7.20557308 1.37829185 -0.60724652 -0.94722724 0.55541444
-2.20212197 -7.56298065 0.05895498 -0.56129879 -0.99421114 0.02375727
-2.48489618 -7.09303665 1.75411546 -0.63337511 -0.93243343 0.70686120
-2.36680245 -7.21467209 2.19028592 -0.60327423 -0.94842333 0.88262612
-2.43646026 -7.09747839 1.75133729 -0.62102932 -0.93301737 0.70574170
-2.40119505 -7.14028454 1.75828278 -0.61204052 -0.93864453 0.70854050
-2.36364698 -7.17738724 1.76383913 -0.60246992 -0.94352198 0.71077961
