17.20446014 -10.14224148 2.29859352 0.96773422 -0.99088460 0.82265162
17.50142860 -10.16935539 2.33154583 0.98443842 -0.99353361 0.83444506
17.41482544 -10.00973892 2.31264663 0.97956705 -0.97793931 0.82768112
17.63119888 -9.98705101 2.33421111 0.99173784 -0.97572273 0.83539891
17.65544319 -9.85482502 2.32888055 0.99310160 -0.96280438 0.83349115
17.62998772 -9.69595242 2.31676579 0.99166971 -0.94728273 0.82915539
17.65388489 -9.56516552 2.31167746 0.99301392 -0.93450499 0.82733428
17.30335617 -10.16843414 2.19745874 0.97329706 -0.99344361 0.78645617
17.64003563 -9.41486931 2.30150104 0.99223495 -0.91982126 0.82369220
17.42016411 -10.09043503 2.20462751 0.97986734 -0.98582321 0.78902179
17.63326073 -9.30482101 2.29447436 0.99185383 -0.90906966 0.82117742
17.68630219 -10.13388157 2.23399591 0.99483734 -0.99006790 0.79953259
17.64731216 -9.17100334 2.28841710 0.99264425 -0.89599586 0.81900954
17.69603157 -9.99222183 2.22682714 0.99538463 -0.97622788 0.79696691
17.64093018 -9.02744961 2.27969432 0.99228525 -0.88197082 0.81588775
17.69253349 -9.84406757 2.21803975 0.99518788 -0.96175337 0.79382199
17.69484138 -9.70018101 2.21017742 0.99531770 -0.94769585 0.79100811
17.68730545 -9.55192566 2.20115876 0.99489379 -0.93321151 0.78778034
17.68912697 -9.40975857 2.19352746 0.99499625 -0.91932195 0.78504920
17.52963066 -10.23249722 2.14409685 0.98602474 -0.99970251 0.76735830
17.49214745 -9.87499523 2.79412746 0.98391634 -0.96477497 1.00000000
17.64540672 -9.27997208 2.18196511 0.99253702 -0.90664196 0.78091109
17.43816185 -10.06941700 2.12599134 0.98087972 -0.98376977 0.76087844
17.50563812 -9.77415848 2.78863645 0.98467517 -0.95492339 0.99803478
17.64871025 -9.14054203 2.17479634 0.99272287 -0.89301980 0.77834541
17.70330048 -10.07446003 2.15214396 0.99579352 -0.98426247 0.77023828
17.56323624 -9.66207123 2.78805852 0.98791504 -0.94397259 0.99782795
17.53244781 -8.94084740 2.15213418 0.98618323 -0.87350988 0.77023476
17.70380974 -9.92809486 2.14409685 0.99582213 -0.96996278 0.76735830
17.63404274 -9.55717468 2.78979254 0.99189782 -0.93372428 0.99844855
17.69795799 -9.77924347 2.13537955 0.99549299 -0.95542014 0.76423842
17.46142769 -9.32246494 2.75135469 0.98218840 -0.91079348 0.98469192
17.71888351 -9.64603615 2.13023829 0.99667007 -0.94240594 0.76239842
17.44429779 -9.17303944 2.73892736 0.98122483 -0.89619476 0.98024422
17.18952942 -9.88123417 2.65586591 0.96689439 -0.96538454 0.95051712
17.69502449 -9.48951435 2.11950922 0.99532801 -0.92711395 0.75855851
17.65807724 -9.14408684 2.76464891 0.99324977 -0.89336616 0.98944980
17.43037605 -9.87474060 2.68490100 0.98044175 -0.96475011 0.96090853
17.68508339 -9.37721634 2.11257982 0.99476880 -0.91614258 0.75607854
17.20386505 -9.96148300 1.96099532 0.96770078 -0.97322476 0.70182747
17.67701340 -9.90499020 2.71728611 0.99431491 -0.96770549 0.97249895
17.66257095 -9.22367668 2.10229778 0.99350250 -0.90114194 0.75239867
17.46638298 -9.96774960 1.98536265 0.98246711 -0.97383696 0.71054834
17.64969254 -8.89515686 2.74701953 0.99277812 -0.86904597 0.98314035
17.64706230 -9.74290371 2.70248938 0.99263018 -0.95186979 0.96720332
17.67066002 -9.08711910 2.09603906 0.99395752 -0.88780046 0.75015873
17.69499779 -9.95157242 2.00552869 0.99532652 -0.97225648 0.71776563
17.66794014 -9.61002731 2.69606829 0.99380451 -0.93888795 0.96490526
17.26648331 -10.22103786 2.57605195 0.97122300 -0.99858296 0.92195219
17.69631958 -9.80639267 1.99817646 0.99540085 -0.95807260 0.71513432
17.64422607 -9.45384693 2.68266749 0.99247062 -0.92362934 0.96010917
17.69651985 -9.66159058 1.99082422 0.99541211 -0.94392562 0.71250302
17.65951538 -9.31964684 2.67568803 0.99333066 -0.91051811 0.95761132
17.26978493 -9.93224239 2.55674219 0.97140867 -0.97036797 0.91504139
17.69209862 -9.51528740 1.98305190 0.99516344 -0.92963195 0.70972133
17.62463760 -9.16000557 2.66089129 0.99136877 -0.89492136 0.95231563
17.55785561 -9.95133114 2.59187531 0.98761237 -0.97223294 0.92761528
17.69532394 -9.37408638 1.97632992 0.99534482 -0.91583681 0.70731556
17.65365219 -9.03462124 2.65642428 0.99300086 -0.88267148 0.95071691
17.48646736 -10.09392738 1.89423835 0.98359686 -0.98616439 0.67793554
17.71525764 -9.89387321 2.60662603 0.99646610 -0.96661937 0.93289447
17.66005898 -9.24899006 1.96687710 0.99336123 -0.90361506 0.70393246
17.68719864 -8.94685173 2.65502834 0.99488777 -0.87409651 0.95021731
17.53729820 -10.01338196 1.89463913 0.98645604 -0.97829521 0.67807901
17.68357086 -9.76723957 2.59455729 0.99468374 -0.95424742 0.92857516
17.65951920 -9.10770226 1.95994508 0.99333084 -0.88981140 0.70145154
17.71439362 -9.96728420 1.90786195 0.99641746 -0.97379154 0.68281138
17.69059372 -9.62662601 2.58624339 0.99507874 -0.94050962 0.92559963
17.25192451 -10.23554230 2.43338752 0.97040403 -1.00000000 0.87089354
17.48952103 -8.88106346 1.93305707 0.98376864 -0.86766905 0.69182855
17.59034920 -9.75272751 1.88642490 0.98944008 -0.95282960 0.67513919
17.66334343 -9.46855354 2.57283378 0.99354595 -0.92506611 0.92080045
17.68215561 -9.33614254 2.56666517 0.99460411 -0.91212976 0.91859275
17.23661804 -9.93557262 2.41227365 0.96954310 -0.97069335 0.86333698
17.51514435 -9.42550278 1.86398625 0.98520988 -0.92086011 0.66710854
17.65425873 -9.18014240 2.55352378 0.99303496 -0.89688873 0.91388953
17.47798538 -9.92916584 2.43872976 0.98311973 -0.97006738 0.87280548
17.77808380 -9.42316532 1.88722634 1.00000000 -0.92063177 0.67542601
17.66569901 -9.04559803 2.54655075 0.99367845 -0.88374388 0.91139388
17.70783615 -9.91331863 2.46340513 0.99604863 -0.96851915 0.88163662
17.71792984 -9.80954742 2.45806313 0.99661642 -0.95838082 0.87972474
17.69566727 -9.65234852 2.44585252 0.99536413 -0.94302267 0.87535465
17.71579552 -9.51933670 2.44000173 0.99649632 -0.93002760 0.87326074
17.65784645 -9.34554482 2.42295766 0.99323678 -0.91304833 0.86716074
17.69336128 -9.22246933 2.41965079 0.99523443 -0.90102398 0.86597723
17.64159393 -9.05484295 2.40387869 0.99232256 -0.88464713 0.86033249
17.62218285 -8.94013214 2.39497519 0.99123073 -0.87344003 0.85714602
