-1.35370553 -7.15491819 1.61919689 -0.94627190 -0.96578407 0.69359726
-1.41070545 -7.32142830 2.08321929 -0.98611623 -0.98825991 0.89236534
-1.34784365 -7.17476034 2.03895092 -0.94217432 -0.96846241 0.87340260
-1.35300100 -7.13777781 1.23194551 -0.94577944 -0.96347046 0.52771473
-1.31336689 -7.17522430 1.23709571 -0.91807425 -0.96852505 0.52992088
-1.33523703 -7.15722513 1.57684302 -0.93336201 -0.96609551 0.67545462
-1.31444824 -7.11826181 0.49537045 -0.91883016 -0.96083617 0.21219629
-1.28721809 -7.05695534 -0.00624779 -0.89979565 -0.95256090 -0.00267629
-1.25273812 -7.12204504 -0.00518375 -0.87569332 -0.96134681 -0.00222050
-1.34537792 -7.16029453 0.75031602 -0.94045073 -0.96650982 0.32140449
-1.37891448 -7.21797419 1.99416959 -0.96389359 -0.97429550 0.85422009
-1.29873955 -7.11653709 -0.24521387 -0.90784943 -0.96060336 -0.10503952
-1.21059251 -7.14555597 -0.00489022 -0.84623259 -0.96452039 -0.00209477
-1.29478002 -7.13733625 0.74643922 -0.90508163 -0.96341085 0.31974381
-1.27817833 -7.11748505 0.24727751 -0.89347667 -0.96073133 0.10592350
-1.24035501 -7.04573774 -0.24402680 -0.86703724 -0.95104671 -0.10453103
-1.31832623 -7.13992500 1.19322717 -0.92154098 -0.96376032 0.51112938
-1.17041337 -7.18263865 -0.00433986 -0.81814641 -0.96952587 -0.00185902
-1.21348369 -7.15793848 -0.24559967 -0.84825355 -0.96619177 -0.10520478
-1.12860107 -7.21159220 -0.00393626 -0.78891861 -0.97343403 -0.00168613
-1.32889926 -7.11203527 0.45817816 -0.92893177 -0.95999569 0.19626465
-1.17291403 -7.19306612 -0.24601515 -0.81989443 -0.97093338 -0.10538276
-1.08880115 -7.25612926 -0.00323913 -0.76109755 -0.97944576 -0.00138751
-1.30462384 -7.09350967 -0.04606247 -0.91196269 -0.95749503 -0.01973127
-1.28776002 -7.07705784 0.45472723 -0.90017444 -0.95527434 0.19478641
-1.14268887 -7.22222662 -0.24637125 -0.79876631 -0.97486949 -0.10553530
-1.05882430 -7.29087496 -0.00268876 -0.74014300 -0.98413581 -0.00115176
-1.25256526 -6.99726725 -0.04738599 -0.87557250 -0.94450408 -0.02029821
-1.34845209 -7.12403965 0.70521641 -0.94259965 -0.96161604 0.30208567
-1.09964478 -7.24508715 -0.24660867 -0.76867747 -0.97795528 -0.10563700
-1.01676655 -7.32512379 -0.00217509 -0.71074367 -0.98875874 -0.00093172
-1.22758627 -7.11333513 -0.04598612 -0.85811162 -0.96017116 -0.01969856
-1.30438948 -7.13627815 0.70567888 -0.91179883 -0.96326804 0.30228376
-1.30598271 -7.09895277 0.20608123 -0.91291255 -0.95822978 0.08827671
-1.05805147 -7.27957010 -0.24702415 -0.73960280 -0.98260987 -0.10581497
-1.27861488 -7.07853222 -0.28719097 -0.89378178 -0.95547336 -0.12302078
-0.97431999 -7.35913086 -0.00166142 -0.68107253 -0.99334908 -0.00071168
-1.18686712 -7.14457035 -0.04568069 -0.82964796 -0.96438730 -0.01956772
-1.36312139 -7.18759823 2.33449149 -0.95285386 -0.97019529 1.00000000
-1.01606798 -7.31381559 -0.24743962 -0.71025538 -0.98723239 -0.10599294
-1.24213278 -7.13171148 -0.28814563 -0.86827993 -0.96265161 -0.12342972
-1.14452028 -7.16767788 -0.04547707 -0.80004650 -0.96750641 -0.01948050
-0.97446769 -7.35376883 -0.24794413 -0.68117577 -0.99262530 -0.10620905
-1.19931626 -7.15120173 -0.28839469 -0.83835024 -0.96528244 -0.12353641
-1.10470593 -7.20831823 -0.04504438 -0.77221537 -0.97299212 -0.01929516
-0.93093640 -7.38157892 -0.24827057 -0.65074641 -0.99637920 -0.10634889
-1.15954244 -7.19016695 -0.28905880 -0.81054735 -0.97054201 -0.12382089
-1.06264961 -7.23687267 -0.04476440 -0.74281698 -0.97684646 -0.01917523
-1.32568622 -7.15051174 0.42059094 -0.92668575 -0.96518928 0.18016383
-1.12847781 -7.21332312 -0.28943238 -0.78883249 -0.97366768 -0.12398091
-1.03398263 -7.27940416 -0.04428081 -0.72277814 -0.98258746 -0.01896808
-1.29695046 -7.07722855 -0.07327169 -0.90659881 -0.95529741 -0.03138658
-1.35446453 -7.17895555 1.92299390 -0.94680250 -0.96902871 0.82373136
-1.08766544 -7.24992037 -0.29005501 -0.76030368 -0.97860765 -0.12424762
-0.99261302 -7.31745243 -0.04387357 -0.69385982 -0.98772329 -0.01879363
-1.32016885 -7.13424110 1.14026427 -0.92282903 -0.96299309 0.48844224
-1.25142992 -7.07932663 -0.07332554 -0.87477887 -0.95558059 -0.03140964
-1.04527867 -7.27837467 -0.29051158 -0.73067433 -0.98244846 -0.12444320
-0.95132959 -7.35923195 -0.04341543 -0.66500169 -0.99336272 -0.01859738
-1.21286798 -7.12255430 -0.07300244 -0.84782314 -0.96141559 -0.03127124
-1.30371666 -7.10541153 0.67374825 -0.91132855 -0.95910162 0.28860599
-1.29119539 -7.13401747 0.17393006 -0.90257585 -0.96296287 0.07450447
-1.00451815 -7.32044315 -0.29125872 -0.70218176 -0.98812699 -0.12476324
-1.26352334 -7.08455372 -0.31602710 -0.88323247 -0.95628619 -0.13537300
-1.16968083 -7.13990688 -0.07291269 -0.81763434 -0.96375787 -0.03123279
-1.24229002 -7.11835670 0.17289850 -0.86838984 -0.96084899 0.07406259
-0.96062160 -7.34246540 -0.29159078 -0.67149705 -0.99109960 -0.12490548
-1.22331548 -7.11798143 -0.31667054 -0.85512620 -0.96079832 -0.13564861
-1.12968242 -7.17873859 -0.07262548 -0.78967452 -0.96899945 -0.03110977
-1.20372629 -7.16347933 0.17453180 -0.84143293 -0.96693969 0.07476223
-1.43056715 -7.39378977 2.33103752 -1.00000000 -0.99802744 0.99852043
-1.18434083 -7.16104984 -0.31756139 -0.82788205 -0.96661174 -0.13603021
-1.08689857 -7.20152187 -0.07248188 -0.75976759 -0.97207475 -0.03104825
-1.32377219 -7.12167501 0.88193828 -0.92534781 -0.96129686 0.37778604
-1.16869068 -7.16118050 0.17418796 -0.81694221 -0.96662939 0.07461495
-1.30404830 -7.11474562 0.37271205 -0.91156036 -0.96036154 0.15965448
-1.35984099 -7.21304703 2.27108765 -0.95056075 -0.97363043 0.97284043
-1.15089357 -7.16852665 -0.31761089 -0.80450159 -0.96762097 -0.13605142
-1.05777168 -7.24021864 -0.07217672 -0.73940724 -0.97729808 -0.03091753
-1.25371635 -6.96184874 -0.12161262 -0.87637717 -0.93972325 -0.05209384
-1.33291149 -7.17177582 1.46016943 -0.93173641 -0.96805960 0.62547642
-1.13248610 -7.22565413 0.17668091 -0.79163438 -0.97533214 0.07568283
-1.11091292 -7.20922375 -0.31845227 -0.77655417 -0.97311437 -0.13641183
-1.01524234 -7.26851797 -0.07197927 -0.70967823 -0.98111802 -0.03083295
-1.23429215 -7.10745573 -0.12129135 -0.86279917 -0.95937753 -0.05195622
-1.33351123 -7.11214733 0.62562716 -0.93215567 -0.96001083 0.26799291
-1.09114480 -7.26030207 0.17788440 -0.76273584 -0.98000902 0.07619835
-1.31125128 -7.08840609 0.12593536 -0.91659540 -0.95680618 0.05394552
-1.06874657 -7.23782778 -0.31899670 -0.74707896 -0.97697538 -0.13664505
-1.28628159 -7.07481480 -0.36239764 -0.89914101 -0.95497161 -0.15523623
-0.97446865 -7.31243229 -0.07163821 -0.68117642 -0.98704565 -0.03068686
-1.19363511 -7.13873100 -0.12123627 -0.83437896 -0.96359915 -0.05193263
-1.05387771 -7.32637167 0.18046333 -0.73668528 -0.98892719 0.07730306
-1.25919628 -7.05520725 0.12439897 -0.88020772 -0.95232493 0.05328739
-1.02736104 -7.27410746 -0.31973910 -0.71814948 -0.98187250 -0.13696307
-1.24601364 -7.10637331 -0.36314651 -0.87099278 -0.95923144 -0.15555701
-1.34037101 -7.12784576 1.07370055 -0.93695080 -0.96212983 0.45992908
-0.93170553 -7.34421206 -0.07140485 -0.65128404 -0.99133533 -0.03058690
-1.15166461 -7.16385365 -0.12119497 -0.80504060 -0.96699023 -0.05191493
-1.00835752 -7.33680916 0.18063524 -0.70486557 -0.99033606 0.07737670
-1.22414088 -7.11613607 0.12637432 -0.85570318 -0.96054924 0.05413355
-1.34006000 -7.17274904 1.85310423 -0.93673337 -0.96819097 0.79379350
-0.98556173 -7.31015158 -0.32048151 -0.68893075 -0.98673779 -0.13728108
-1.20979905 -7.16331625 -0.36470667 -0.84567791 -0.96691769 -0.15622531
-1.11097836 -7.19860840 -0.12113071 -0.77659994 -0.97168148 -0.05188741
-0.97062731 -7.40840340 0.18347207 -0.67849123 -1.00000000 0.07859188
-1.18106508 -7.13354158 0.12674013 -0.82559222 -0.96289867 0.05429025
-0.94235295 -7.33802176 -0.32102594 -0.65872681 -0.99049973 -0.13751429
-1.16900539 -7.19641542 -0.36551797 -0.81716222 -0.97138548 -0.15657285
-1.06930435 -7.22917843 -0.12107563 -0.74746883 -0.97580791 -0.05186381
-1.15001786 -7.15480757 0.12732542 -0.80388945 -0.96576917 0.05454096
-1.13888097 -7.22552967 -0.36626685 -0.79610449 -0.97531539 -0.15689363
-1.04042482 -7.26975965 -0.12099302 -0.72728139 -0.98128563 -0.05182843
-1.31300807 -7.16410255 0.84647721 -0.91782343 -0.96702385 0.36259598
-1.11372936 -7.21717596 0.12937394 -0.77852297 -0.97418779 0.05541847
-1.29301476 -7.14593935 0.33594373 -0.90384763 -0.96457213 0.14390446
-1.09467673 -7.24044561 -0.36651647 -0.76520473 -0.97732878 -0.15700056
-0.99970227 -7.31180763 -0.12091041 -0.69881535 -0.98696131 -0.05179304
-1.26144993 -7.01106834 -0.16153292 -0.88178313 -0.94636697 -0.06919405
-1.07551062 -7.27146339 0.13112980 -0.75180715 -0.98151559 0.05617061
-1.05558419 -7.29068804 -0.36788940 -0.73787814 -0.98411053 -0.15758866
-0.95770049 -7.34768248 -0.12084156 -0.66945511 -0.99180377 -0.05176355
-1.23485351 -7.12137604 -0.16187873 -0.86319155 -0.96125650 -0.06934218
-1.31746995 -7.12334776 0.59079045 -0.92094243 -0.96152264 0.25307029
-1.03265655 -7.29785919 0.13186142 -0.72185117 -0.98507851 0.05648400
-1.29747486 -7.08294964 0.09084426 -0.90696537 -0.95606965 0.03891394
-1.01087284 -7.30509377 -0.36813903 -0.70662385 -0.98605508 -0.15769559
-1.19170332 -7.13886213 -0.16191199 -0.83302855 -0.96361685 -0.06935643
-0.99060535 -7.33192205 0.13288568 -0.69245636 -0.98967642 0.05692275
-1.23617506 -6.99445820 0.08773250 -0.86411536 -0.94412494 0.03758099
-1.37674737 -7.22927952 2.19946694 -0.96237874 -0.97582155 0.94216102
-0.96949345 -7.34498024 -0.36919996 -0.67769867 -0.99143904 -0.15815006
-1.15274107 -7.18374538 -0.16203834 -0.80579305 -0.96967524 -0.06941055
-1.34095216 -7.14698935 1.38605833 -0.93735701 -0.96471387 0.59373027
-1.21133673 -7.11643887 0.09141581 -0.84675282 -0.96059006 0.03915877
-1.31936276 -7.17187834 2.17912936 -0.92226553 -0.96807343 0.93344927
-0.92408848 -7.35687494 -0.36938718 -0.64595956 -0.99304461 -0.15823026
-1.12008393 -7.19700575 -0.16206494 -0.78296494 -0.97146517 -0.06942195
-1.33130121 -7.11532116 0.78928751 -0.93061078 -0.96043921 0.33809826
-1.18099380 -7.14179945 0.09205087 -0.82554239 -0.96401328 0.03943080
-1.31409013 -7.11460638 0.29294661 -0.91857982 -0.96034276 0.12548625
-1.07889652 -7.23160601 -0.16215804 -0.75417399 -0.97613555 -0.06946182
-1.30341470 -7.08523083 -0.19520788 -0.91111743 -0.95637757 -0.08361901
-1.14072037 -7.17870522 0.09300344 -0.79739028 -0.96899492 0.03983884
-1.03981304 -7.28379822 -0.16231100 -0.72685373 -0.98318058 -0.06952735
-1.26348686 -7.11886692 -0.19541489 -0.88320696 -0.96091783 -0.08370769
-1.10121262 -7.22329378 0.09421004 -0.76977348 -0.97501355 0.04035570
-1.34152234 -7.15989590 1.77828646 -0.93775558 -0.96645600 0.76174468
-0.99561566 -7.30208206 -0.16235089 -0.69595873 -0.98564857 -0.06954443
-1.22353029 -7.15425014 -0.19563781 -0.85527641 -0.96569395 -0.08380318
-1.29466558 -7.09212637 0.53183335 -0.90500164 -0.95730835 0.22781551
-1.06062269 -7.26371002 0.09528963 -0.74140012 -0.98046905 0.04081815
-1.24599349 -6.93426466 0.03817015 -0.87097871 -0.93599987 0.01635052
-0.95476121 -7.34787369 -0.16248390 -0.66740048 -0.99182957 -0.06960141
-1.18152750 -7.17954874 -0.19578113 -0.82591546 -0.96910876 -0.08386457
-1.01956820 -7.30389977 0.09636923 -0.71270210 -0.98589391 0.04128061
-1.23258126 -7.11326361 0.04251698 -0.86160320 -0.96016151 0.01821252
-1.13957274 -7.20657587 -0.19594035 -0.79658806 -0.97275692 -0.08393277
-0.97701651 -7.33593035 0.09719480 -0.68295747 -0.99021745 0.04163425
-1.19053960 -7.13663721 0.04291669 -0.83221513 -0.96331650 0.01838374
-1.10806859 -7.22767401 -0.19606774 -0.77456594 -0.97560483 -0.08398734
-1.16209972 -7.17373228 0.04371610 -0.81233495 -0.96832365 0.01872618
-1.06796479 -7.27009535 -0.19635436 -0.74653244 -0.98133093 -0.08411012
-1.12044442 -7.20261478 0.04426570 -0.78321695 -0.97222227 0.01896160
-1.36513197 -7.17248821 2.10479021 -0.95425928 -0.96815574 0.90160543
-1.02652025 -7.30635738 -0.19659321 -0.71756172 -0.98622566 -0.08421244
-1.32850254 -7.13427401 1.31644976 -0.92865443 -0.96299750 0.56391287
-1.07967365 -7.23916245 0.04501516 -0.75471723 -0.97715557 0.01928264
-1.34117448 -7.29412413 2.13853860 -0.93751246 -0.98457438 0.91606188
-0.98384827 -7.33644056 -0.19678429 -0.68773305 -0.99028635 -0.08429428
-1.04107952 -7.29328775 0.04621428 -0.72773904 -0.98446149 0.01979629
-0.94187391 -7.37420750 -0.19703905 -0.65839195 -0.99538416 -0.08440342
-0.99909210 -7.32740927 0.04691377 -0.69838881 -0.98906726 0.02009593
-0.95987421 -7.38507366 0.04821282 -0.67097461 -0.99685091 0.02065239
-1.32625186 -7.16835690 1.70040429 -0.92708117 -0.96759808 0.72838318
