-2.28538442 5.54726553 -0.02778538 -0.85354263 0.99641865 -0.01201299
-2.29446769 5.47202921 -0.02899618 -0.85693502 0.98290449 -0.01253648
-2.63556004 5.35813856 1.98737681 -0.98432583 0.96244705 0.85924107
-2.25256753 5.49439955 -0.22598335 -0.84128624 0.98692268 -0.09770375
-2.33205199 5.48872232 -0.02844582 -0.87097198 0.98590297 -0.01229853
-2.62679505 5.37110043 1.32334638 -0.98105228 0.96477532 0.57214797
-2.28005672 5.46355200 -0.22571626 -0.85155284 0.98138177 -0.09758828
-2.35689521 5.45196819 -0.02888611 -0.88025039 0.97930104 -0.01248889
-2.64476252 5.32310390 1.31537437 -0.98776275 0.95615399 0.56870127
-2.33877015 5.50609493 -0.22663625 -0.87348109 0.98902345 -0.09798604
-2.39840579 5.45350122 -0.02855589 -0.89575374 0.97957641 -0.01234612
-2.21283054 5.49799061 -0.06242830 -0.82644528 0.98756772 -0.02699083
-2.37251997 5.48945856 -0.22660656 -0.88608593 0.98603517 -0.09797320
-2.42521882 5.42192078 -0.02888611 -0.90576780 0.97390383 -0.01248889
-2.22026062 5.41726780 -0.06334458 -0.82922029 0.97306806 -0.02738699
-2.63422513 5.34765100 1.65857077 -0.98382723 0.96056324 0.71708196
-2.40858650 5.47809887 -0.22666593 -0.89955598 0.98399472 -0.09799886
-2.63221359 5.36541462 1.00739658 -0.98307598 0.96375400 0.43554726
-2.46424270 5.41747999 -0.02866596 -0.92034239 0.97310615 -0.01239371
-2.29243422 5.49562645 -0.06207197 -0.85617560 0.98714310 -0.02683678
-2.43637800 5.44827509 -0.22642851 -0.90993553 0.97863770 -0.09789622
-2.67206764 5.36109304 1.00980008 -0.99796063 0.96297771 0.43658641
-2.23767138 5.48443937 -0.26083359 -0.83572280 0.98513365 -0.11277124
-2.49992394 5.40551376 -0.02859258 -0.93366861 0.97095674 -0.01236198
-2.31994200 5.46452284 -0.06230104 -0.86644918 0.98155612 -0.02693581
-2.26621461 5.53125191 0.14694247 -0.84638309 0.99354225 0.06353048
-2.46285629 5.43855238 -0.22645819 -0.91982460 0.97689122 -0.09790905
-2.26652217 5.48123550 -0.26099962 -0.84649795 0.98455811 -0.11284301
-2.51682806 5.37559271 -0.02895949 -0.93998194 0.96558219 -0.01252062
-2.34723496 5.45720959 -0.06225013 -0.87664253 0.98024249 -0.02691380
-2.29787278 5.50951815 0.14656155 -0.85820675 0.98963833 0.06336579
-2.49866414 5.42659760 -0.22651754 -0.93319809 0.97474390 -0.09793471
-2.31168795 5.49272537 -0.26158074 -0.86336643 0.98662198 -0.11309426
-2.55834293 5.37589693 -0.02862927 -0.95548683 0.96563685 -0.01237785
-2.38227248 5.44418859 -0.06222468 -0.88972825 0.97790366 -0.02690280
-2.33476734 5.50049639 0.14684723 -0.87198609 0.98801786 0.06348930
-2.63775086 5.40622377 1.96066117 -0.98514402 0.97108430 0.84769058
-2.52844119 5.40174961 -0.22636916 -0.94431919 0.97028059 -0.09787056
-2.33834434 5.45968485 -0.26116565 -0.87332201 0.98068714 -0.11291480
-2.58154893 5.33815002 -0.02906957 -0.96415383 0.95885664 -0.01256821
-2.41239738 5.41996384 -0.06235194 -0.90097928 0.97355229 -0.02695782
-2.35985160 5.46367788 0.14570446 -0.88135457 0.98140436 0.06299523
-2.60858035 5.33831596 0.38181370 -0.97424948 0.95888644 0.16507691
-2.67752814 5.40146875 1.96507013 -1.00000000 0.97023016 0.84959680
-2.56406188 5.38936234 -0.22642851 -0.95762277 0.96805555 -0.09789622
-2.37973475 5.46140718 -0.26153922 -0.88878047 0.98099649 -0.11307631
-2.62924695 5.35049105 -0.02848251 -0.98196799 0.96107340 -0.01231439
-2.45376992 5.42112160 -0.06212287 -0.91643107 0.97376025 -0.02685878
-2.63807750 5.34290648 1.28428710 -0.98526603 0.95971102 0.55526066
-2.38616014 5.43042612 0.14475214 -0.89118022 0.97543156 0.06258349
-2.65366697 5.34497976 0.38408136 -0.99108833 0.96008343 0.16605732
-2.59261370 5.36236095 -0.22625045 -0.96828628 0.96320546 -0.09781924
-2.40194225 5.41888475 -0.26091659 -0.89707452 0.97335845 -0.11280712
-2.64662600 5.30171633 -0.02914295 -0.98845869 0.95231229 -0.01259993
-2.48031449 5.38922167 -0.06235194 -0.92634487 0.96803027 -0.02695782
-2.25988770 5.49887323 -0.08449064 -0.84402013 0.98772627 -0.03652947
-2.63247013 5.35850859 -0.22645819 -0.98317176 0.96251351 -0.09790905
-2.44572854 5.42559481 -0.26141468 -0.91342777 0.97456378 -0.11302246
-2.51580930 5.37715960 -0.06230104 -0.93960142 0.96586365 -0.02693581
-2.29283690 5.48088074 -0.08452654 -0.85632598 0.98449439 -0.03654499
-2.62222505 5.34489489 0.58773476 -0.97934544 0.96006817 0.25410673
-2.64015985 5.41588306 2.31294441 -0.98604375 0.97281933 1.00000000
-2.59157658 5.25945950 0.17438087 -0.96789891 0.94472200 0.07539345
-2.45962238 5.43484879 0.14637108 -0.91861683 0.97622597 0.06328344
-2.63936043 5.40436411 1.62582302 -0.98574519 0.97075021 0.70292354
-2.21576071 5.48017454 0.11633421 -0.82753962 0.98436755 0.05029702
-2.65500331 5.34068108 -0.22636916 -0.99158746 0.95931125 -0.09787056
-2.46879649 5.40854406 -0.26129016 -0.92204314 0.97150105 -0.11296863
-2.60849047 5.34248066 0.97089982 -0.97421587 0.95963454 0.41976789
-2.53687143 5.35619307 -0.06242830 -0.94746768 0.96209759 -0.02699083
-2.24951005 5.52212334 -0.28548974 -0.84014434 0.99190253 -0.12343130
-2.31627917 5.46449947 -0.08458039 -0.86508119 0.98155195 -0.03656828
-2.65575600 5.32831383 0.58773476 -0.99186856 0.95708984 0.25410673
-2.47963047 5.38838768 0.14475214 -0.92608941 0.96788049 0.06258349
-2.66220117 5.36518574 1.61890316 -0.99427569 0.96371287 0.69993174
-2.26012015 5.49013090 0.11745173 -0.84410697 0.98615593 0.05078018
-2.50189495 5.39110851 -0.26124865 -0.93440473 0.96836925 -0.11295068
-2.63330364 5.30828953 0.96756661 -0.98348308 0.95349300 0.41832680
-2.57133627 5.34195280 -0.06240285 -0.96033961 0.95953971 -0.02697983
-2.27798438 5.49312639 -0.28509378 -0.85077888 0.98669404 -0.12326011
-2.35136580 5.45167160 -0.08456244 -0.87818527 0.97924775 -0.03656052
-2.30469203 5.49974489 0.11856927 -0.86075360 0.98788285 0.05126335
-2.52979016 5.36260319 -0.26095811 -0.94482297 0.96324897 -0.11282507
-2.60397720 5.32389164 -0.06242830 -0.97253031 0.95629549 -0.02699083
-2.31166959 5.47686577 -0.28504428 -0.86335957 0.98377323 -0.12323871
-2.38476324 5.43496180 -0.08458039 -0.89065850 0.97624630 -0.03656828
-2.54714537 5.35680294 0.14475214 -0.95130479 0.96220714 0.06258349
-2.65343785 5.37840366 0.35612875 -0.99100280 0.96608710 0.15397203
-2.33367157 5.47230816 0.11796752 -0.87157685 0.98295456 0.05100318
-2.56171775 5.34298992 -0.26087508 -0.95674729 0.95972598 -0.11278917
-2.64267945 5.31818914 -0.06227558 -0.98698473 0.95527118 -0.02692481
-2.35080791 5.47323942 -0.28534126 -0.87797689 0.98312187 -0.12336711
-2.41557956 5.41257668 -0.08465219 -0.90216774 0.97222543 -0.03659932
-2.19475079 5.37070513 -0.12453166 -0.81969291 0.96470428 -0.05384118
-2.58862829 5.34118319 0.55213028 -0.96679777 0.95940149 0.23871316
-2.57730055 5.33348608 0.14437123 -0.96256709 0.95801890 0.06241880
-2.36640549 5.45387697 0.11779559 -0.88380229 0.97964388 0.05092885
-2.59610748 5.32858944 -0.26091659 -0.96959108 0.95713931 -0.11280712
-2.38030958 5.44738483 -0.28504428 -0.88899517 0.97847778 -0.12323871
-2.44870710 5.39547396 -0.08467014 -0.91454017 0.96915334 -0.03660708
-2.27872515 5.47886086 -0.12422874 -0.85105556 0.98413157 -0.05371021
-2.64305305 5.36765814 0.55768025 -0.98712426 0.96415699 0.24111269
-2.62387562 5.34413099 0.14579970 -0.97996193 0.95993096 0.06303640
-2.40794420 5.45532799 0.11856927 -0.89931613 0.97990453 0.05126335
-2.18871784 5.42898941 0.07633201 -0.81743973 0.97517353 0.03300209
-2.63306022 5.31935310 -0.26108262 -0.98339218 0.95548028 -0.11287890
-2.41530776 5.43414545 -0.28509378 -0.90206623 0.97609967 -0.12326011
-2.24486709 5.52041864 -0.32395518 -0.83841026 0.99159634 -0.14006181
-2.49015689 5.39629889 -0.08450859 -0.93002081 0.96930152 -0.03653723
-2.31310463 5.46443510 -0.12422874 -0.86389554 0.98154038 -0.05371021
-2.42787313 5.43117046 0.11796752 -0.90675914 0.97556525 0.05100318
-2.24051356 5.48346186 0.07889266 -0.83678430 0.98495805 0.03410919
-2.43592715 5.41178131 -0.28479683 -0.90976715 0.97208256 -0.12313172
-2.27312279 5.51533127 -0.32414240 -0.84896320 0.99068254 -0.14014275
-2.50447345 5.36098719 -0.08474194 -0.93536776 0.96295869 -0.03663812
-2.33882928 5.45347404 -0.12422874 -0.87350315 0.97957152 -0.05371021
-2.47611308 5.44668388 0.11942891 -0.92477572 0.97835183 0.05163501
-2.27948999 5.48036432 0.07933162 -0.85134119 0.98440164 0.03429898
-2.47826529 5.41452074 -0.28529176 -0.92557955 0.97257459 -0.12334570
-2.29852700 5.47878790 -0.32339349 -0.85845113 0.98411846 -0.13981897
-2.54242802 5.35416365 -0.08465219 -0.94954294 0.96173304 -0.03659932
-2.61834431 5.34318733 1.23833585 -0.97789609 0.95976144 0.53539371
-2.36590624 5.42214870 -0.12427004 -0.88361585 0.97394478 -0.05372807
-2.49761891 5.40385485 0.11813945 -0.93280774 0.97065878 0.05107751
-2.31001472 5.45671797 0.07896581 -0.86274153 0.98015422 0.03414082
-2.64748073 5.33447218 1.89382160 -0.98877794 0.95819598 0.81879252
-2.50373960 5.38074398 -0.28479683 -0.93509364 0.96650749 -0.12313172
-2.34147048 5.48449039 -0.32407999 -0.87448961 0.98514277 -0.14011577
-2.57251740 5.33089066 -0.08472399 -0.96078074 0.95755267 -0.03663036
-2.66766167 5.35809088 1.24586511 -0.99631506 0.96243846 0.53864896
-2.40073276 5.40900707 -0.12426545 -0.89662278 0.97158420 -0.05372609
-2.53323436 5.39166641 0.11831138 -0.94610935 0.96846944 0.05115185
-2.34190130 5.43658113 0.07874633 -0.87465048 0.97653717 0.03404593
-2.54524755 5.38114643 -0.28524226 -0.95059597 0.96657979 -0.12332430
-2.37035298 5.45681667 -0.32364312 -0.88527662 0.98017192 -0.13992690
-2.60684800 5.31641483 -0.08470605 -0.97360247 0.95495248 -0.03662260
-2.43712068 5.39929342 -0.12425169 -0.91021293 0.96983939 -0.05372014
-2.58135605 5.24318838 0.71414769 -0.96408176 0.94179928 0.30876130
-2.56012344 5.36124182 0.11762366 -0.95615184 0.96300447 0.05085452
-2.37283015 5.41442585 0.07845368 -0.88620174 0.97255754 0.03391940
-2.61623001 5.27978849 0.31455001 -0.97710645 0.94837356 0.13599549
-2.57726312 5.36145020 -0.28514329 -0.96255314 0.96304190 -0.12328152
-2.61477780 5.35603762 0.93065327 -0.97656405 0.96206969 0.40236732
-2.39817858 5.42716599 -0.32314387 -0.89566886 0.97484601 -0.13971104
-2.64020038 5.29993057 -0.08470605 -0.98605889 0.95199150 -0.03662260
-2.46685696 5.37477160 -0.12427463 -0.92131877 0.96543473 -0.05373006
-2.26854086 5.56720352 -0.15783545 -0.84725189 1.00000000 -0.06824005
-2.60078621 5.35940790 0.11831138 -0.97133851 0.96267503 0.05115185
-2.61791682 5.32531881 1.55543971 -0.97773641 0.95655185 0.67249334
-2.40761042 5.40123844 0.07852685 -0.89919144 0.97018880 0.03395103
-2.60648060 5.33618355 -0.28489581 -0.97346526 0.95850343 -0.12317452
-2.57241511 5.18765306 0.90317380 -0.96074253 0.93182385 0.39048660
-2.44768143 5.44668770 -0.32432961 -0.91415715 0.97835255 -0.14022370
-2.50141811 5.36098099 -0.12427004 -0.93422663 0.96295762 -0.05372807
-2.26550269 5.48630524 -0.15758274 -0.84611726 0.98546880 -0.06813080
-2.60741544 5.34169722 0.52979803 -0.97381437 0.95949382 0.22905783
-2.66580176 5.37854433 2.24842811 -0.99562043 0.96611238 0.97210640
-2.61714363 5.32918739 0.11745173 -0.97744769 0.95724672 0.05078018
-2.63778472 5.30256319 1.55233359 -0.98515666 0.95246440 0.67115039
-2.43548441 5.39530611 0.07874633 -0.90960181 0.96912318 0.03404593
-2.21261692 5.50546837 0.05058187 -0.82636553 0.98891091 0.02186904
-2.63159776 5.32384157 -0.28489581 -0.98284596 0.95628649 -0.12317452
-2.46592498 5.41869211 -0.32376793 -0.92097068 0.97332388 -0.13998085
-2.52834940 5.35275650 -0.12426087 -0.94428492 0.96148032 -0.05372410
-2.31008554 5.49589634 -0.15766920 -0.86276799 0.98719156 -0.06816818
-2.64803934 5.33942890 0.53158623 -0.98898655 0.95908636 0.22983095
-2.47264576 5.38717461 0.07903898 -0.92348075 0.96766257 0.03417245
-2.22273588 5.43233824 0.04854970 -0.83014470 0.97577506 0.02099043
-2.50158930 5.40672588 -0.32389277 -0.93429059 0.97117448 -0.14003482
-2.56365013 5.34037685 -0.12425169 -0.95746899 0.95925665 -0.05372014
-2.33267927 5.45373106 -0.15756945 -0.87120628 0.97961771 -0.06812505
-2.49973416 5.35701942 0.07845368 -0.93359774 0.96224600 0.03391940
-2.28937435 5.49565649 0.05121692 -0.85503280 0.98714846 0.02214360
-2.52537560 5.36915922 -0.32314387 -0.94317424 0.96442664 -0.13971104
-2.59192991 5.31336021 -0.12427922 -0.96803087 0.95440382 -0.05373204
-2.37011719 5.44629145 -0.15759605 -0.88518852 0.97828138 -0.06813655
-2.61184716 5.34439850 0.69935274 -0.97546953 0.95997900 0.30236471
-2.53759527 5.35025167 0.07881949 -0.94773805 0.96103036 0.03407755
-2.62083793 5.32888126 0.28125900 -0.97882742 0.95719177 0.12160215
-2.64087796 5.43925858 1.86462748 -0.98631191 0.97701812 0.80617046
-2.32149935 5.47565031 0.05102640 -0.86703080 0.98355490 0.02206123
-2.56762075 5.37125063 -0.32376793 -0.95895195 0.96480227 -0.13998085
-2.62349939 5.29338026 -0.12428840 -0.97982138 0.95081496 -0.05373601
-2.62065363 5.36198759 1.18842757 -0.97875857 0.96313840 0.51381588
-2.41163254 5.44772625 -0.15765589 -0.90069366 0.97853911 -0.06816243
-2.23368716 5.52578020 -0.18530364 -0.83423477 0.99255937 -0.08011591
-2.56513000 5.32157803 0.07830736 -0.95802170 0.95587993 0.03385613
-2.64985061 5.37113857 1.84664249 -0.98966300 0.96478212 0.79839468
-2.35505986 5.45912313 0.05096290 -0.87956494 0.98058623 0.02203378
-2.59524727 5.34240437 -0.32333109 -0.96926981 0.95962083 -0.13979198
-2.44581389 5.43246603 -0.15765589 -0.91345966 0.97579801 -0.06816243
-2.25553012 5.48015213 -0.18503295 -0.84239268 0.98436356 -0.07999887
-2.59938860 5.30715370 0.07838053 -0.97081655 0.95328897 0.03388777
-2.39012337 5.44604588 0.05102640 -0.89266038 0.97823727 0.02206123
-2.18213463 5.43176413 0.00839189 -0.81498104 0.97567189 0.00362823
-2.62173414 5.31162786 -0.32283184 -0.97916210 0.95409262 -0.13957614
-2.46971464 5.41724634 -0.15764260 -0.92238605 0.97306418 -0.06815667
-2.29278302 5.49718904 -0.18527180 -0.85630584 0.98742378 -0.08010214
-2.41248775 5.42742682 0.05077238 -0.90101302 0.97489285 0.02195141
-2.23686409 5.49374008 0.01034047 -0.83542132 0.98680425 0.00447069
-2.58859444 5.34629107 0.87321723 -0.96678513 0.96031898 0.37753490
-2.49438357 5.38169384 -0.15756945 -0.93159938 0.96667814 -0.06812505
-2.32495189 5.47714376 -0.18522403 -0.86832023 0.98382318 -0.08008149
-2.60318804 5.36022568 1.50696790 -0.97223556 0.96282196 0.65153658
-2.44571185 5.41034269 0.05070888 -0.91342151 0.97182411 0.02192395
-2.27133775 5.47957706 0.01034047 -0.84829652 0.98426026 0.00447069
-2.63686824 5.36012983 0.87835008 -0.98481441 0.96280473 0.37975407
-2.52900696 5.36772108 -0.15757610 -0.94453049 0.96416831 -0.06812792
-2.35538602 5.45323420 -0.18514441 -0.87968677 0.97952843 -0.08004706
-2.63814402 5.38112020 2.18978190 -0.98529088 0.96657509 0.94675076
-2.64362264 5.35767794 1.51097524 -0.98733699 0.96236432 0.65326917
-2.48049855 5.39668274 0.05077238 -0.92641360 0.96937048 0.02195141
-2.30572200 5.46519756 0.01034047 -0.86113828 0.98167735 0.00447069
-2.55659342 5.33911896 -0.15752955 -0.95483345 0.95903069 -0.06810780
-2.39119959 5.44199467 -0.18517625 -0.89306235 0.97750956 -0.08006083
-2.50753832 5.36652613 0.05026434 -0.93651241 0.96395367 0.02173175
-2.33453798 5.43772316 0.00999072 -0.87190044 0.97674233 0.00431948
-2.59449577 5.33192682 -0.15756279 -0.96898919 0.95773882 -0.06812217
-2.42291594 5.42137718 -0.18512850 -0.90490776 0.97380620 -0.08004019
-2.59282207 5.28875875 0.65793777 -0.96836406 0.94998479 0.28445897
-2.55070901 5.37049484 0.05096290 -0.95263577 0.96466655 0.02203378
-2.37262774 5.43212223 0.01024054 -0.88612616 0.97573626 0.00442749
-2.63002396 5.33359385 0.25008336 -0.98225820 0.95803821 0.10812338
-2.62437558 5.30836105 -0.15753619 -0.98014867 0.95350581 -0.06811067
-2.46432257 5.42245865 -0.18527180 -0.92037225 0.97400045 -0.08010214
-2.57215095 5.32920074 0.05007382 -0.96064383 0.95724910 0.02164938
-2.40026784 5.40246820 0.00984083 -0.89644915 0.97040969 0.00425468
-2.48735833 5.40532637 -0.18522403 -0.92897558 0.97092307 -0.08008149
-2.60356665 5.35312843 0.46076623 -0.97237694 0.96154708 0.19921197
-2.60518765 5.33315849 0.05064537 -0.97298235 0.95796001 0.02189649
-2.43221259 5.40570641 0.01024054 -0.90837985 0.97099131 0.00442749
-2.52127171 5.38959122 -0.18522403 -0.94164151 0.96809667 -0.08008149
-2.63626194 5.33488321 0.46056587 -0.98458797 0.95826983 0.19912535
-2.62880230 5.29702139 0.04994681 -0.98180193 0.95146894 0.02159447
-2.46117592 5.37939167 0.00994076 -0.91919702 0.96626461 0.00429788
-2.54911709 5.36098003 -0.18511257 -0.95204121 0.96295744 -0.08003329
-2.49492693 5.36382151 0.00994076 -0.93180233 0.96346784 0.00429788
-2.62459421 5.38325453 1.78341746 -0.98023027 0.96695846 0.77105939
-2.64329934 5.38389015 1.13724911 -0.98721629 0.96707261 0.49168891
-2.58620644 5.35207224 -0.18517625 -0.96589327 0.96135741 -0.08006083
-2.59727025 5.33042479 0.62139237 -0.97002536 0.95746899 0.26865858
-2.52857924 5.34803963 0.00994076 -0.94437075 0.96063304 0.00429788
-2.64297128 5.33584213 1.77295816 -0.98709375 0.95844209 0.76653731
-2.59031653 5.28465366 0.21254073 -0.96742833 0.94924742 0.09189185
-2.61978340 5.33571720 -0.18517625 -0.97843355 0.95841962 -0.08006083
-2.56041241 5.32843637 0.00984083 -0.95625973 0.95711184 0.00425468
-2.59732533 5.31944275 0.01004069 -0.97004592 0.95549637 0.00434108
-2.57997870 5.25278711 1.42183638 -0.96356738 0.94352347 0.61473000
-2.63035202 5.35030985 2.11186147 -0.98238075 0.96104079 0.91306192
-2.60882235 5.34249735 1.07237482 -0.97433984 0.95963752 0.46364054
-2.63840055 5.37164736 1.71893454 -0.98538667 0.96487355 0.74318022
-2.61521840 5.36116791 1.38508224 -0.97672862 0.96299118 0.59883940
-2.61523628 5.36483192 2.05013895 -0.97673529 0.96364933 0.88637620
