6.11275244 4.48420572 2.11874342 0.97673661 0.92810464 0.89420897
6.15377903 4.25166655 0.51647699 0.98329210 0.87997556 0.21797748
5.83750772 4.53018904 1.64355576 0.93275619 0.93762189 0.69365752
6.17255402 4.32237005 0.52136117 0.98629212 0.89460921 0.22003883
5.81810808 4.57403517 1.64621317 0.92965633 0.94669682 0.69477904
6.18536806 4.26093102 0.26217610 0.98833960 0.88189304 0.11065059
6.12419224 4.34602118 0.51909351 0.97856456 0.89950430 0.21908177
6.08655834 4.24921036 0.25749367 0.97255111 0.87946719 0.10867439
6.10322237 4.38908482 0.51979125 0.97521383 0.90841728 0.21937625
6.13133669 4.33832026 0.26217610 0.97970611 0.89791042 0.11065059
6.03374195 4.39672470 0.51525599 0.96411180 0.90999854 0.21746217
5.81174088 4.52142239 1.24911284 0.92863894 0.93580741 0.52718413
6.09099817 4.36741304 0.26132476 0.97326058 0.90393180 0.11029129
5.81577682 4.59790993 2.07119584 0.92928386 0.95163822 0.87414163
5.97560549 4.41198015 0.51194173 0.95482236 0.91315597 0.21606340
6.14262199 4.22326469 0.47625455 0.98150939 0.87409717 0.20100173
5.80792284 4.57743073 1.25460637 0.92802888 0.94739962 0.52950263
6.05582047 4.38548565 0.26036698 0.96763963 0.90767235 0.10988706
5.97068787 4.45204401 0.51368606 0.95403659 0.92144805 0.21679957
6.18990183 4.29859734 0.48299211 0.98906404 0.88968891 0.20384529
6.01207685 4.41158962 0.25930279 0.96064997 0.91307515 0.10943793
6.22807693 4.24951553 0.22141349 0.99516392 0.87953037 0.09344687
6.18794012 4.49343729 2.07667494 0.98875058 0.93001533 0.87645411
5.93149233 4.48103333 0.51246500 0.94777364 0.92744803 0.21628423
6.14644003 4.32597637 0.48134881 0.98211944 0.89535558 0.20315175
5.96984434 4.43851328 0.25834504 0.95390177 0.91864759 0.10903370
6.24899197 4.32138729 0.22417520 0.99850589 0.89440578 0.09461243
5.88901043 4.50727606 0.51089513 0.94098562 0.93287957 0.21562168
6.09962749 4.35067368 0.47937685 0.97463942 0.90046728 0.20231949
5.92273569 4.46146297 0.25706801 0.94637448 0.92339754 0.10849474
6.13976669 4.30345631 0.21941362 0.98105311 0.89069456 0.09260283
6.03979921 4.36564779 0.47609022 0.96507967 0.90356648 0.20093237
5.83934593 4.55480146 1.60449970 0.93304986 0.94271594 0.67717403
5.88032770 4.48764420 0.25611025 0.93959820 0.92881632 0.10809052
6.08812904 4.32466125 0.21798515 0.97280210 0.89508343 0.09199995
5.99130344 4.38825655 0.47395393 0.95733064 0.90824586 0.20003076
5.80223513 4.46821785 0.75491965 0.92712009 0.92479557 0.31861144
5.84097862 4.51592112 0.25536531 0.93331075 0.93466884 0.10777612
5.60789919 4.77245426 2.05698633 0.89606774 0.98776400 0.86814457
6.06895924 4.36864185 0.21846130 0.96973902 0.90418613 0.09220091
5.96200943 4.42463064 0.47378960 0.95264989 0.91577429 0.19996141
5.84210348 4.54320860 0.76436919 0.93349051 0.94031656 0.32259959
6.00135326 4.36325312 0.21569960 0.95893651 0.90307087 0.09103534
5.91392231 4.43242931 0.47099596 0.94496620 0.91738838 0.19878235
6.22884560 4.29748917 0.44327021 0.99528676 0.88945955 0.18708079
5.87278175 4.53886127 1.22055984 0.93839246 0.93941677 0.51513344
5.96576166 4.39497185 0.21522345 0.95324945 0.90963572 0.09083437
5.86491537 4.59202862 2.02184892 0.93713552 0.95042092 0.85331494
5.88277435 4.46709776 0.47066730 0.93998915 0.92456377 0.19864364
6.19682741 4.33309984 0.44281048 0.99017066 0.89682996 0.18688676
5.92840481 4.42522526 0.21465205 0.94728029 0.91589731 0.09059322
5.84667492 4.49791670 0.46984565 0.93422097 0.93094242 0.19829687
6.23767376 4.28490639 0.18759833 0.99669737 0.88685524 0.07917529
6.15973616 4.36500549 0.44189104 0.98424399 0.90343350 0.18649872
5.87493658 4.44317675 0.21312834 0.93873680 0.91961277 0.08995014
6.13697290 4.27243900 0.18372995 0.98060673 0.88427484 0.07754264
6.11440611 4.39077902 0.44020543 0.97700083 0.90876794 0.18578731
5.85315180 4.49444580 0.72024751 0.93525589 0.93022406 0.30397817
5.84849215 4.48121262 0.21322358 0.93451130 0.92748517 0.08999033
6.16541195 4.35023117 0.18665273 0.98515087 0.90037566 0.07877620
6.06738663 4.41497850 0.43836656 0.96948773 0.91377652 0.18501122
5.82951117 4.53478003 0.72094125 0.93147844 0.93857211 0.30427098
6.11037874 4.36905146 0.18519135 0.97635734 0.90427095 0.07815942
6.01710176 4.43638515 0.43622124 0.96145290 0.91820711 0.18410580
6.22390747 4.26760006 0.39483550 0.99449772 0.88327336 0.16663907
6.07517195 4.38722897 0.18441767 0.97073174 0.90803319 0.07783289
6.11747932 4.46587133 1.99495161 0.97749192 0.92430991 0.84196299
5.98495579 4.45632362 0.43514857 0.95631641 0.92233384 0.18365307
6.15936422 4.26633120 0.39103082 0.98418456 0.88301075 0.16503333
5.67897034 4.78725147 2.01599360 0.90742397 0.99082661 0.85084373
6.02334642 4.40754843 0.18312821 0.96245068 0.91223872 0.07728868
6.19960403 4.22160721 0.13661690 0.99061435 0.87375408 0.05765873
5.94412851 4.48419762 0.43392265 0.94979274 0.92810297 0.18313569
6.16515589 4.32778358 0.39384910 0.98510998 0.89572966 0.16622277
5.87111616 4.56434965 1.55624104 0.93812633 0.94469219 0.65680659
5.65906668 4.83157349 2.01971960 0.90424365 1.00000000 0.85241628
5.95708990 4.41664028 0.18106507 0.95186383 0.91412050 0.07641794
6.21580458 4.28987837 0.13851909 0.99320298 0.88788432 0.05846155
5.89528275 4.50565863 0.43193057 0.94198781 0.93254477 0.18229493
6.10038042 4.33993673 0.39060807 0.97475970 0.89824498 0.16485490
5.81932449 4.58293486 1.54996657 0.92985070 0.94853878 0.65415847
5.88322306 4.53036880 0.94506389 0.94006085 0.93765908 0.39886123
5.92284489 4.44916439 0.18072121 0.94639188 0.92085207 0.07627282
6.11817122 4.27977848 0.13537316 0.97760248 0.88579392 0.05713381
5.85426950 4.53280973 0.43070465 0.93543446 0.93816429 0.18177754
6.07137012 4.37701845 0.39046717 0.97012424 0.90591985 0.16479543
5.83440065 4.55136442 0.94130683 0.93225968 0.94200462 0.39727557
5.88366652 4.47778940 0.18011947 0.94013172 0.92677665 0.07601885
6.10749674 4.32964993 0.13610478 0.97589684 0.89611590 0.05744259
6.00178099 4.38459539 0.38680342 0.95900482 0.90748811 0.16324916
5.82380295 4.51322460 1.15847743 0.93056631 0.93411070 0.48893175
5.84879780 4.48605108 0.69028914 0.93456018 0.92848659 0.29133436
5.84436226 4.50609779 0.17951772 0.93385142 0.93263566 0.07576489
5.84189510 4.55215454 1.94991338 0.93345720 0.94216812 0.82295477
6.04927111 4.34586620 0.13471471 0.96659315 0.89947224 0.05685592
5.96929312 4.41867113 0.38638067 0.95381373 0.91454083 0.16307074
5.81082630 4.56196165 1.16167271 0.92849284 0.94419795 0.49028030
5.78369093 4.47936583 0.68403041 0.92415696 0.92710292 0.28869286
5.81280422 4.57363939 1.94732487 0.92880887 0.94661486 0.82186228
6.02386189 4.37081671 0.13449523 0.96253306 0.90463626 0.05676329
5.92598820 4.43008995 0.38440788 0.94689417 0.91690421 0.16223814
6.25834274 4.30010796 0.35757169 1.00000000 0.89000154 0.15091200
5.95110226 4.37555313 0.13244671 0.95090705 0.90561658 0.05589871
5.89644289 4.46603584 0.38426697 0.94217324 0.92434400 0.16217867
6.12419558 4.58944988 2.36940527 0.97856504 0.94988722 1.00000000
6.14946604 4.28210020 0.35105726 0.98260295 0.88627446 0.14816260
5.90743160 4.40096188 0.13171509 0.94392908 0.91087550 0.05558994
5.83813000 4.48000288 0.38158959 0.93285561 0.92723477 0.16104868
6.03432989 4.58184814 2.34542537 0.96420574 0.94831389 0.98987937
6.18802595 4.23180771 0.10024305 0.98876429 0.87586534 0.04230727
6.15824413 4.34606695 0.35392362 0.98400557 0.89951378 0.14937234
5.86058760 4.53128004 0.90511048 0.93644398 0.93784767 0.38199902
5.88126183 4.43919182 0.13178825 0.93974745 0.91878802 0.05562082
6.13508415 4.49360371 1.93275058 0.98030490 0.93004978 0.81571126
6.17279339 4.27860689 0.10068759 0.98633033 0.88555145 0.04249488
6.09517145 4.35903692 0.35105726 0.97392738 0.90219820 0.14816260
5.86414146 4.53660727 1.48465431 0.93701190 0.93895030 0.62659365
5.81984282 4.45065355 0.13025187 0.92993355 0.92116028 0.05497239
6.10672903 4.53206253 1.93275058 0.97577417 0.93800962 0.81571126
6.13925791 4.31269264 0.10043357 0.98097181 0.89260626 0.04238767
6.05798578 4.39019442 0.35027552 0.96798563 0.90864694 0.14783268
5.86024904 4.59263277 1.49107659 0.93638992 0.95054597 0.62930417
5.83304882 4.48081684 0.63823092 0.93204367 0.92740321 0.26936334
5.66190672 4.73511314 1.94318342 0.90469748 0.98003542 0.82011443
5.88364124 4.63015747 2.31724906 0.94012767 0.95831257 0.97798765
6.08957815 4.32067442 0.09929048 0.97303367 0.89425826 0.04190523
6.00990677 4.39858055 0.34806061 0.96030325 0.91038263 0.14689788
6.20973492 4.23156643 0.30959871 0.99223310 0.87581539 0.13066515
5.66292715 4.79690075 1.95405483 0.90486050 0.99282372 0.82470268
6.04935169 4.34947968 0.09878243 0.96660602 0.90022010 0.04169081
5.96615314 4.42432308 0.34675771 0.95331198 0.91571063 0.14634800
6.19783688 4.28067112 0.31066918 0.99033195 0.88597870 0.13111694
6.01061678 4.37913179 0.09833789 0.96041667 0.90635729 0.04150319
5.93346024 4.45811224 0.34636685 0.94808811 0.92270404 0.14618303
6.10527229 4.27390957 0.30591145 0.97554135 0.88457924 0.12910897
5.82186079 4.52789259 1.09242034 0.93025601 0.93714660 0.46105254
5.78094196 4.50624561 1.86161983 0.92371768 0.93266624 0.78569078
5.96853876 4.40608644 0.09776635 0.95369315 0.91193610 0.04126198
5.90057802 4.49166584 0.34597600 0.94283396 0.92964864 0.14601807
6.12397909 4.34440660 0.30924186 0.97853047 0.89917016 0.13051455
5.88346338 4.51499414 0.86444616 0.94009924 0.93447697 0.36483678
5.91357994 4.42307186 0.09668675 0.94491148 0.91545165 0.04080634
5.84858418 4.51030445 0.34402165 0.93452603 0.93350631 0.14519325
6.06732607 4.36190128 0.30710089 0.96947807 0.90279102 0.12961096
5.84717178 4.54576778 0.86310518 0.93430036 0.94084626 0.36427081
5.67670345 4.76378202 2.29326892 0.90706176 0.98596907 0.96786690
5.87454319 4.45165825 0.09624221 0.93867391 0.92136824 0.04061872
6.03171539 4.39408112 0.30650616 0.96378797 0.90945137 0.12935996
5.88291025 4.48471069 0.60621709 0.94001091 0.92820913 0.25585201
5.83924294 4.46831942 0.09567067 0.93303341 0.92481661 0.04037751
6.06436300 4.51434565 2.26047993 0.96900463 0.93434274 0.95402843
5.97710419 4.39770222 0.30400836 0.95506179 0.91020083 0.12830576
5.78860950 4.47031736 0.59780258 0.92494285 0.92523015 0.25230068
5.95095873 4.43635941 0.30412731 0.95088410 0.91820180 0.12835597
5.76195002 4.77401733 1.90119255 0.92068303 0.98808748 0.80239230
5.89582825 4.45328093 0.30210525 0.94207501 0.92170405 0.12750256
5.85660934 4.48177481 0.30127266 0.93580836 0.92760152 0.12715118
5.83502865 4.54035187 1.40982747 0.93236005 0.93972528 0.59501320
5.83065271 4.49762392 0.80531383 0.93166083 0.93088180 0.33988014
5.93533182 4.45993137 1.81306207 0.94838715 0.92308050 0.76519710
5.84531498 4.58355331 2.22038579 0.93400365 0.94866681 0.93710679
5.97037315 4.54550934 1.83286488 0.95398629 0.94079274 0.77355480
5.84631634 4.45987177 0.04586453 0.93416363 0.92306817 0.01935698
5.88069582 4.67154932 2.24537182 0.93965703 0.96687949 0.94765210
5.83589125 4.46938801 0.54497892 0.93249786 0.92503780 0.23000664
5.97191811 4.59140015 1.84010971 0.95423317 0.95029086 0.77661246
5.84058046 4.54865170 1.80774915 0.93324715 0.94144315 0.76295483
6.14512634 4.46969128 2.19197345 0.98190951 0.92510056 0.92511547
6.12775803 4.51615524 2.19591069 0.97913432 0.93471730 0.92677718
5.82229280 4.65329695 1.82030702 0.93032503 0.96310174 0.76825482
5.77487898 4.67508364 1.81451106 0.92274892 0.96761101 0.76580864
5.76036501 4.72362328 1.81934094 0.92042977 0.97765732 0.76784712
5.60654163 4.79357958 2.20469666 0.89585084 0.99213630 0.93048525
5.86797380 4.51894379 1.34426045 0.93762422 0.93529445 0.56734085
5.84878635 4.56295538 1.34645605 0.93455833 0.94440359 0.56826752
5.83134604 4.57307673 2.13685107 0.93177158 0.94649845 0.90185124
5.83210278 4.56264591 1.72772288 0.93189251 0.94433957 0.72917998
5.62782335 4.81247663 2.13516378 0.89925140 0.99604750 0.90113914
