-1.24295688 3.20233917 0.52197582 -0.26482499 0.57094568 0.20097318
-1.17983770 3.36790824 -0.24931687 -0.25137678 0.60046500 -0.09599296
-1.08781302 3.22908545 0.48644146 -0.23176996 0.57571429 0.18729161
-1.30776274 3.28878832 -0.10608488 -0.27863255 0.58635873 -0.04084522
-1.30942678 3.18002272 0.70124328 -0.27898711 0.56696689 0.26999545
-1.20227993 3.28050041 -0.12982814 -0.25615835 0.58488107 -0.04998694
-1.14688265 3.18147802 0.65859097 -0.24435538 0.56722635 0.25357330
-1.69166529 3.17481065 1.39256346 -0.36042702 0.56603760 0.53617024
-1.43452334 3.26196241 0.27602038 -0.30564025 0.58157593 0.10627445
-1.49059069 3.15051913 1.32278001 -0.31758597 0.56170666 0.50930196
-1.02917516 3.29469490 -0.14932328 -0.21927656 0.58741182 -0.05749304
-0.90486008 3.19267750 0.61394471 -0.19278993 0.56922311 0.23638341
-0.93682039 3.31857729 -0.16530408 -0.19959940 0.59166980 -0.06364603
-0.76921463 3.27466202 0.59190959 -0.16388924 0.58384013 0.22789936
-1.21645355 3.12590265 1.24050832 -0.25917819 0.55731779 0.47762540
-1.20440137 3.43298006 0.24562386 -0.25661033 0.61206669 0.09457106
-1.05292654 3.14011836 1.19413352 -0.22433704 0.55985230 0.45976999
-1.30643499 3.14293480 1.46080518 -0.27834967 0.56035447 0.56244493
-1.26066160 3.43721914 0.37689656 -0.26859719 0.61282247 0.14511420
-1.11870754 3.10510993 1.38564646 -0.23835237 0.55361068 0.53350705
-1.00631678 3.35129380 0.21374020 -0.21440634 0.59750283 0.08229509
-0.80862582 3.12693286 1.12772715 -0.17228621 0.55750149 0.43420193
-0.86861503 3.21068692 0.17079401 -0.18506753 0.57243401 0.06575978
-0.69042647 3.29507852 1.14095449 -0.14710259 0.58748019 0.43929479
-1.18227863 3.73549604 0.39108601 -0.25189686 0.66600233 0.15057747
-0.85562003 3.06682420 1.29491222 -0.18229882 0.54678470 0.49857220
-0.92001355 3.21569562 0.28992674 -0.19601853 0.57332700 0.11162873
-0.72869694 3.17613673 1.29273069 -0.15525652 0.56627405 0.49773225
-1.68729770 3.17432642 0.98634732 -0.35949647 0.56595129 0.37976733
-1.52165473 3.21019053 0.94608498 -0.32420450 0.57234550 0.36426535
-1.78873587 3.17387629 1.19874001 -0.38110894 0.56587106 0.46154359
-1.61212444 3.20709085 1.15569961 -0.34348002 0.57179284 0.44497201
-1.24895787 3.19285464 0.88400632 -0.26610357 0.56925470 0.34036359
-1.06861842 3.15948892 0.82822019 -0.22768036 0.56330591 0.31888458
-1.33136618 3.18843007 1.08397472 -0.28366151 0.56846583 0.41735619
-1.18245530 3.24472976 1.04990876 -0.25193450 0.57850349 0.40423998
-0.98702347 3.26690149 -0.02949838 -0.21029569 0.58245653 -0.01135758
-0.84812874 3.19723988 0.78863037 -0.18070272 0.57003653 0.30364156
-0.89119273 3.25883579 -0.05346296 -0.18987796 0.58101845 -0.02058452
-0.72817677 3.36559534 0.78499800 -0.15514569 0.60005265 0.30224302
-1.13290513 3.55329204 0.10533243 -0.24137731 0.63351715 0.04055550
-0.89865738 3.12775636 0.95306164 -0.19146837 0.55764830 0.36695153
-0.93845993 3.25106907 0.06350440 -0.19994873 0.57963377 0.02445071
-0.77251798 3.25129247 0.94441080 -0.16459306 0.57967359 0.36362076
-1.58887517 3.32873034 -0.19259705 -0.33852652 0.59347999 -0.07415447
-1.72226870 3.25091481 0.60705411 -0.36694741 0.57960624 0.23373036
-1.47491610 3.33422303 -0.21355632 -0.31424633 0.59445930 -0.08222429
-1.53188300 3.23226070 0.57057726 -0.32638374 0.57628042 0.21968590
-1.62543404 3.29711962 -0.07042028 -0.34631577 0.58784413 -0.02711349
-1.81333029 3.23309612 0.80737966 -0.38634902 0.57642937 0.31086048
-1.51730096 3.30296588 -0.09159663 -0.32327688 0.58888644 -0.03526689
-1.60931778 3.21348095 0.76097053 -0.34288204 0.57293212 0.29299188
-1.28939366 3.31774426 -0.22599876 -0.27471885 0.59152126 -0.08701493
-1.25715876 3.17981291 0.51941961 -0.26785085 0.56692946 0.19998898
-1.20362353 3.36797357 -0.24956650 -0.25644460 0.60047668 -0.09608907
-1.06069744 3.08168030 0.46379650 -0.22599271 0.54943341 0.17857274
-1.32383323 3.26941037 -0.10619258 -0.28205654 0.58290380 -0.04088669
-1.32938147 3.17173243 0.70124328 -0.28323865 0.56548882 0.26999545
-1.22011161 3.26537132 -0.12984650 -0.25995758 0.58218372 -0.04999401
-1.17150426 3.18711042 0.66140074 -0.24960126 0.56823057 0.25465512
-1.69947898 3.15375328 1.38665795 -0.36209181 0.56228328 0.53389651
-1.51575601 3.16536856 1.33222401 -0.32294771 0.56435418 0.51293814
-1.04345644 3.28600335 -0.14930998 -0.22231933 0.58586216 -0.05748792
-0.92211783 3.19590855 0.61547822 -0.19646688 0.56979918 0.23697384
-0.95298940 3.31605124 -0.16532001 -0.20304438 0.59121943 -0.06365216
-0.78016675 3.25185347 0.58825028 -0.16622271 0.57977360 0.22649044
-1.22977722 3.11666656 1.23908567 -0.26201692 0.55567110 0.47707763
-1.21859515 3.42163420 0.24499367 -0.25963446 0.61004382 0.09432843
-1.06533813 3.12800789 1.19134843 -0.22698146 0.55769312 0.45869765
-1.33924854 3.17881417 1.48094046 -0.28534093 0.56675142 0.57019752
-1.28364873 3.44983912 0.37968838 -0.27349481 0.61507249 0.14618911
-1.13580775 3.10671926 1.38881218 -0.24199575 0.55389762 0.53472590
-0.81893200 3.10673976 1.12162709 -0.17448205 0.55390126 0.43185326
-0.88632214 3.21617317 0.17171976 -0.18884023 0.57341218 0.06611621
-0.70171428 3.27145576 1.13369679 -0.14950758 0.58326852 0.43650040
-1.17704976 3.66019225 0.38116288 -0.25078279 0.65257639 0.14675683
-0.88037372 3.09819245 1.31034267 -0.18757285 0.55237734 0.50451326
-0.93461382 3.20941663 0.28967234 -0.19912927 0.57220751 0.11153079
-0.73789692 3.14738870 1.28215718 -0.15721667 0.56114852 0.49366120
-1.70407867 3.16971874 0.98744035 -0.36307183 0.56512976 0.38018817
-1.54582930 3.22215629 0.95194018 -0.32935515 0.57447886 0.36651975
-1.81693017 3.18838000 1.20772362 -0.38711601 0.56845689 0.46500251
-1.63062322 3.20624566 1.15821910 -0.34742138 0.57164216 0.44594207
-1.26254416 3.18335056 0.88297099 -0.26899827 0.56756020 0.33996496
-1.08596647 3.16175818 0.83022386 -0.23137654 0.56371051 0.31965604
-1.34787989 3.18561649 1.08520746 -0.28717995 0.56796420 0.41783085
-1.19447660 3.23015428 1.04691124 -0.25449577 0.57590485 0.40308589
-0.86163199 3.18759656 0.78718138 -0.18357973 0.56831723 0.30308366
-0.90601480 3.25267076 -0.05351292 -0.19303595 0.57991934 -0.02060376
-0.73339015 3.31267071 0.77295929 -0.15625647 0.59061670 0.29760784
-1.14713478 3.54033327 0.10481127 -0.24440908 0.63120669 0.04035485
-0.91503239 3.12898707 0.95480484 -0.19495724 0.55786771 0.36762270
-0.94660413 3.22166538 0.06195813 -0.20168394 0.57439137 0.02385536
-0.78077292 3.21772957 0.93541121 -0.16635185 0.57368964 0.36015570
-1.60366392 3.31941032 -0.19256738 -0.34167740 0.59181833 -0.07414305
-1.73380840 3.23583674 0.60568076 -0.36940604 0.57691795 0.23320159
-1.49303389 3.33272362 -0.21368085 -0.31810653 0.59419197 -0.08227224
-1.54794037 3.22678900 0.57091057 -0.32980493 0.57530487 0.21981423
-1.63824570 3.28407001 -0.07053035 -0.34904543 0.58551747 -0.02715587
-1.82854569 3.22451520 0.80737966 -0.38959083 0.57489944 0.31086048
-1.54368055 3.31941319 -0.09126575 -0.32889733 0.59181881 -0.03513950
-1.62357020 3.20411468 0.76053840 -0.34591866 0.57126224 0.29282549
-1.31839943 3.34503818 -0.22688964 -0.28089881 0.59638751 -0.08735794
-1.27511096 3.18116617 0.52069771 -0.27167577 0.56717074 0.20048109
-1.22887385 3.38862753 -0.25044018 -0.26182446 0.60415906 -0.09642546
-1.12709582 3.22815180 0.48825306 -0.24013957 0.57554781 0.18798912
-1.35385489 3.29820490 -0.10585152 -0.28845298 0.58803761 -0.04075537
-1.35981584 3.20134497 0.70960921 -0.28972301 0.57076842 0.27321652
-1.24525678 3.28582525 -0.12978224 -0.26531503 0.58583045 -0.04996927
-1.19189918 3.19627333 0.66461188 -0.25394660 0.56986421 0.25589147
-2.10409975 4.33197069 0.44889858 -0.44830051 0.77234793 0.17283669
-1.73368144 3.16902351 1.39846909 -0.36937901 0.56500584 0.53844404
-1.54286504 3.17090464 1.33876216 -0.32872358 0.56534123 0.51545548
-1.06911016 3.29457164 -0.14936318 -0.22778513 0.58738983 -0.05750840
-0.94728750 3.20696330 0.61892855 -0.20182954 0.57177013 0.23830231
-0.97933728 3.32921720 -0.16547924 -0.20865807 0.59356678 -0.06371347
-0.79966497 3.24306345 0.58751839 -0.17037700 0.57820642 0.22620864
-1.25641048 3.12617970 1.24619877 -0.26769143 0.55736721 0.47981635
-1.24541831 3.42889571 0.24667418 -0.26534942 0.61133850 0.09497546
-1.09283173 3.14432359 1.20039976 -0.23283926 0.56060207 0.46218264
-1.39063895 3.24250221 1.51557314 -0.29629022 0.57810634 0.58353192
-1.30668330 3.44541693 0.38024676 -0.27840257 0.61428404 0.14640410
-1.15909076 3.10987139 1.39356089 -0.24695644 0.55445957 0.53655428
-1.12709415 3.60356808 0.24158822 -0.24013923 0.64248085 0.09301724
-0.84145111 3.11241293 1.12569380 -0.17927998 0.55491275 0.43341905
-0.90757120 3.21438026 0.17209005 -0.19336756 0.57309252 0.06625879
-0.72740799 3.29097986 1.14227402 -0.15498190 0.58674943 0.43980283
-1.18305326 3.60197449 0.37392166 -0.25206190 0.64219671 0.14396879
-0.90034938 3.09436822 1.31111419 -0.19182888 0.55169553 0.50481033
-0.96031088 3.22252631 0.29221621 -0.20460430 0.57454485 0.11251023
-0.75174004 3.11744785 1.27158356 -0.16016610 0.55581039 0.48959011
-2.14183784 4.38784504 0.12212940 -0.45634100 0.78230977 0.04702274
-1.74165273 3.19093609 0.99782431 -0.37107736 0.56891263 0.38418624
-1.57606316 3.23323226 0.95832771 -0.33579677 0.57645363 0.36897910
-1.83214104 3.16872811 1.20451522 -0.39035687 0.56495315 0.46376717
-1.66107523 3.21623421 1.16577733 -0.35390949 0.57342303 0.44885218
-1.28619123 3.18428969 0.88555938 -0.27403653 0.56772763 0.34096155
-1.99939644 5.49727631 0.07618569 -0.42599237 0.98011047 0.02933331
-1.10769892 3.16036582 0.83172661 -0.23600687 0.56346226 0.32023466
-1.35022211 3.25231051 0.13234967 -0.28767899 0.57985508 0.05095779
-1.37625825 3.19625902 1.09198701 -0.29322624 0.56986165 0.42044112
-1.21938562 3.23511100 1.05110776 -0.25980288 0.57678860 0.40470165
-0.88217282 3.18398690 0.78766435 -0.18795617 0.56767368 0.30326962
-0.92911887 3.25654340 -0.05326310 -0.19795851 0.58060974 -0.02050757
-0.75292635 3.30229855 0.77157021 -0.16041885 0.58876747 0.29707301
-1.16871917 3.53116441 0.10468099 -0.24900787 0.62957197 0.04030468
-0.93635452 3.12866569 0.95654809 -0.19950014 0.55781043 0.36829391
-1.05694759 3.52211165 0.08098911 -0.22519377 0.62795800 0.03118274
-0.80052215 3.21089530 0.93484879 -0.17055963 0.57247114 0.35993916
-1.64052868 3.34149337 -0.19310156 -0.34953183 0.59575552 -0.07434872
-1.76076257 3.23695827 0.60808420 -0.37514892 0.57711792 0.23412697
-1.52295125 3.34334350 -0.21413743 -0.32448074 0.59608537 -0.08244804
-1.57501638 3.23121929 0.57357717 -0.33557376 0.57609475 0.22084093
-1.66341627 3.28260541 -0.07034690 -0.35440826 0.58525634 -0.02708524
-1.84484184 3.20622206 0.80560815 -0.39306289 0.57163799 0.31017843
-1.56704032 3.31508660 -0.09118940 -0.33387437 0.59104747 -0.03511010
-1.64985621 3.20603967 0.76356339 -0.35151917 0.57160544 0.29399016
-1.32957196 3.31262255 -0.22624622 -0.28327924 0.59060812 -0.08711021
-1.30188549 3.18950295 0.52357346 -0.27738035 0.56865710 0.20158832
-1.24672723 3.37144518 -0.25012815 -0.26562831 0.60109562 -0.09630533
-1.14213789 3.20607567 0.48583758 -0.24334446 0.57161188 0.18705909
-1.37455130 3.28963327 -0.10585152 -0.29286256 0.58650935 -0.04075537
-1.37282586 3.17662144 0.70584452 -0.29249495 0.56636047 0.27176702
-1.27226472 3.29476500 -0.12974094 -0.27106935 0.58742428 -0.04995337
-1.21195829 3.18872142 0.66461188 -0.25822043 0.56851774 0.25589147
-2.12773228 4.31155872 0.44792941 -0.45333567 0.76870865 0.17246354
-1.75993896 3.16940784 1.40363646 -0.37497345 0.56507432 0.54043365
-1.56602240 3.16784883 1.34166801 -0.33365750 0.56479639 0.51657426
-1.09491241 3.30294681 -0.14941639 -0.23328257 0.58888304 -0.05752888
-0.96683931 3.19907260 0.61854517 -0.20599525 0.57036328 0.23815469
-1.00080109 3.32491660 -0.16549516 -0.21323116 0.59280002 -0.06371959
-0.81531483 3.21888542 0.58385915 -0.17371137 0.57389569 0.22479974
-1.27818310 3.12340093 1.24833262 -0.27233031 0.55687177 0.48063794
-1.28054452 3.45838213 0.25087544 -0.27283344 0.61659563 0.09659305
-1.11318219 3.13916588 1.20109606 -0.23717514 0.55968249 0.46245071
-1.35013616 3.21952486 0.37051895 -0.28766066 0.57400972 0.14265867
-1.43101287 3.27888894 1.53731930 -0.30489230 0.58459377 0.59190470
-1.18759203 3.12662101 1.40464127 -0.25302893 0.55744588 0.54082048
-1.14416838 3.57938600 0.23978512 -0.24377707 0.63816941 0.09232301
-0.85636503 3.09077358 1.11959374 -0.18245755 0.55105466 0.43107039
-0.73420143 3.22366762 1.11984134 -0.15642931 0.57474834 0.43116572
-1.18965304 3.54757905 0.36721686 -0.25346807 0.63249856 0.14138728
-0.91116947 3.06040859 1.29876983 -0.19413421 0.54564083 0.50005746
-1.11378074 3.66316485 0.35199705 -0.23730266 0.65310639 0.13552728
-0.76914251 3.10366130 1.26780725 -0.16387388 0.55335242 0.48813614
-2.14073205 4.31716490 0.11872400 -0.45610541 0.76970816 0.04571158
-1.75601721 3.16986418 0.99454516 -0.37413788 0.56515568 0.38292369
-1.59465528 3.21980095 0.95726311 -0.33975804 0.57405895 0.36856920
-1.87233233 3.19135308 1.21799076 -0.39892003 0.56898695 0.46895558
-1.67863393 3.20067596 1.16388774 -0.35765055 0.57064915 0.44812462
-1.33910704 3.30217314 0.01532655 -0.28531080 0.58874512 0.00590109
-1.30393720 3.17079854 0.88400632 -0.27781749 0.56532228 0.34036359
-1.12817490 3.15517068 0.83222753 -0.24036948 0.56253600 0.32042751
-1.37771106 3.26025391 0.13372882 -0.29353580 0.58127129 0.05148879
-1.39863455 3.19276381 1.09383595 -0.29799375 0.56923848 0.42115301
-1.23834097 3.22381520 1.04990876 -0.26384154 0.57477462 0.40423998
-0.90378517 3.18397260 0.78911334 -0.19256091 0.56767112 0.30382752
-0.95065999 3.25448632 -0.05316317 -0.20254807 0.58024299 -0.02046909
-0.76716465 3.26904988 0.76462477 -0.16345248 0.58283955 0.29439884
-1.19023359 3.52186441 0.10455070 -0.25359175 0.62791389 0.04025452
-0.95770866 3.12819982 0.95829129 -0.20404987 0.55772734 0.36896509
-1.10379350 3.59760785 0.08610369 -0.23517478 0.64141822 0.03315198
-0.82114542 3.20766425 0.93541121 -0.17495364 0.57189512 0.36015570
-1.66239369 3.33290434 -0.19313124 -0.35419041 0.59422415 -0.07436015
-1.78202796 3.22755075 0.60842752 -0.37967974 0.57544065 0.23425916
-1.54973960 3.34644198 -0.21442798 -0.33018827 0.59663779 -0.08255991
-1.60480428 3.24075270 0.57724375 -0.34192038 0.57779443 0.22225265
-1.69695675 3.29691005 -0.06983323 -0.36155441 0.58780676 -0.02688746
-1.88083124 3.22142982 0.81269437 -0.40073082 0.57434934 0.31290677
-1.59383035 3.31782699 -0.09101123 -0.33958226 0.59153605 -0.03504150
-1.67444086 3.20428896 0.76572406 -0.35675719 0.57129329 0.29482210
-1.36416388 3.33743930 -0.22713710 -0.29064941 0.59503269 -0.08745322
-1.32574153 3.19035339 0.52517110 -0.28246313 0.56880873 0.20220344
-1.26858044 3.36541986 -0.25019056 -0.27028435 0.60002136 -0.09632935
-1.17886066 3.24539161 0.49338591 -0.25116864 0.57862151 0.18996538
-1.40233135 3.29745531 -0.10568997 -0.29878139 0.58790398 -0.04069317
-1.40631771 3.19829035 0.71295559 -0.29963073 0.57022381 0.27450496
-1.29005539 3.27924466 -0.12975930 -0.27485982 0.58465719 -0.04996043
-1.24172318 3.20668125 0.67023134 -0.26456213 0.57171983 0.25805509
-2.15836930 4.30518866 0.44889858 -0.45986322 0.76757294 0.17283669
-1.79917240 3.19218564 1.41913855 -0.38333255 0.56913543 0.54640228
-1.59168220 3.16963673 1.34675312 -0.33912459 0.56511515 0.51853216
-1.11760056 3.30167389 -0.14943634 -0.23811652 0.58865607 -0.05753657
-0.99283117 3.21165276 0.62237895 -0.21153308 0.57260621 0.23963079
-1.02513576 3.33005166 -0.16559070 -0.21841592 0.59371555 -0.06375638
-0.83359110 3.20607519 0.58239543 -0.17760533 0.57161176 0.22423618
-1.30288696 3.12735629 1.25331175 -0.27759373 0.55757695 0.48255500
-1.13915348 3.14977932 1.20805860 -0.24270859 0.56157476 0.46513146
-1.35774016 3.18192816 0.36589482 -0.28928077 0.56730658 0.14087826
-1.46663201 3.30321193 1.55342758 -0.31248131 0.58893031 0.59810680
-1.20395088 3.11051297 1.40068400 -0.25651437 0.55457395 0.53929687
-1.14465499 3.50603795 0.23277302 -0.24388075 0.62509221 0.08962318
-0.88102061 3.10340023 1.12637162 -0.18771067 0.55330586 0.43368003
-0.75024658 3.20058250 1.11324346 -0.15984790 0.57063246 0.42862538
-1.18648696 3.46704245 0.35675734 -0.25279349 0.61813968 0.13736011
-0.93916225 3.08281016 1.31111419 -0.20009837 0.54963481 0.50481033
-1.13272250 3.64281249 0.35021633 -0.24133840 0.64947778 0.13484167
-0.79040933 3.10595775 1.27082825 -0.16840500 0.55376184 0.48929930
-1.78827822 3.18050051 1.00164998 -0.38101143 0.56705207 0.38565922
-1.62342119 3.22698855 0.96258605 -0.34588692 0.57534045 0.37061867
-1.89136946 3.17790365 1.21734905 -0.40297610 0.56658906 0.46870852
-1.71106970 3.21359253 1.17270589 -0.36456135 0.57295203 0.45151982
-1.35519040 3.28263879 0.01481076 -0.28873754 0.58526230 0.00570250
-1.33442509 3.18742895 0.89125389 -0.28431326 0.56828731 0.34315407
-1.15515232 3.16807365 0.83773768 -0.24611731 0.56483650 0.32254905
-1.40295804 3.26249743 0.13464825 -0.29891491 0.58167130 0.05184280
-1.41945195 3.18564630 1.09445226 -0.30242911 0.56796950 0.42139032
-1.26131165 3.22309446 1.05230677 -0.26873568 0.57464617 0.40516329
-0.92321956 3.17637086 0.78863037 -0.19670160 0.56631577 0.30364156
-0.97670114 3.26763916 -0.05266354 -0.20809641 0.58258802 -0.02027672
-0.78190506 3.23954177 0.75860542 -0.16659307 0.57757854 0.29208124
-1.20771039 3.50113511 0.10363867 -0.25731537 0.62421805 0.03990337
-0.97909385 3.12758899 0.96003455 -0.20860621 0.55761844 0.36963627
-1.10699594 3.52763343 0.08217855 -0.23585708 0.62894249 0.03164071
-0.84080714 3.20058250 0.93484879 -0.17914277 0.57063246 0.35993916
-1.69243741 3.34018278 -0.19342799 -0.36059153 0.59552187 -0.07447441
-1.81199825 3.23342538 0.61186099 -0.38606521 0.57648808 0.23558113
-1.56989360 3.33482480 -0.21438648 -0.33448228 0.59456658 -0.08254392
-1.61900079 3.21823907 0.57491046 -0.34494510 0.57378048 0.22135429
-1.71202230 3.27558017 -0.07005337 -0.36476430 0.58400381 -0.02697222
-1.91106546 3.22627497 0.81712323 -0.40717253 0.57521319 0.31461200
-1.60857403 3.29513335 -0.09118940 -0.34272355 0.58748996 -0.03511010
-1.69725740 3.19889522 0.76702046 -0.36161849 0.57033163 0.29532123
-1.37965703 3.31591105 -0.22679065 -0.29395041 0.59119445 -0.08731983
-1.33796334 3.16382241 0.52197582 -0.28506711 0.56407851 0.20097318
-1.29817605 3.37982392 -0.25093943 -0.27659002 0.60258949 -0.09661768
-1.19382286 3.22305655 0.49097043 -0.25435647 0.57463938 0.18903537
-1.42221749 3.28674817 -0.10570792 -0.30301833 0.58599496 -0.04070008
-1.42476761 3.18582988 0.71211898 -0.30356169 0.56800222 0.27418286
-1.32309711 3.30270767 -0.12968126 -0.28189972 0.58884043 -0.04993039
-1.26184678 3.19881606 0.67023134 -0.26884970 0.57031757 0.25805509
-2.02005911 3.97026157 0.40480053 -0.43039477 0.70785874 0.15585789
-1.81919384 3.18081808 1.41913855 -0.38759831 0.56710869 0.54640228
-1.61993742 3.17622089 1.35401773 -0.34514466 0.56628907 0.52132922
-1.13699508 3.29081368 -0.14942303 -0.24224871 0.58671981 -0.05753144
-1.01359367 3.20721936 0.62276232 -0.21595676 0.57181579 0.23977840
-1.04309237 3.31398916 -0.16551109 -0.22224176 0.59085178 -0.06372573
-0.85421395 3.20267725 0.58276135 -0.18199924 0.57100594 0.22437707
-1.34885740 3.23344803 0.25530910 -0.28738821 0.57649207 0.09830011
-1.32399094 3.12254119 1.25473440 -0.28209016 0.55671847 0.48310277
-1.16083550 3.14784884 1.21014738 -0.24732818 0.56123060 0.46593571
-1.40486419 3.23489642 0.37572107 -0.29932106 0.57675034 0.14466161
-1.50185001 3.32555103 1.56873035 -0.31998488 0.59291315 0.60399872
-1.22811413 3.11487651 1.40622413 -0.26166260 0.55535197 0.54142994
-1.15962267 3.47804976 0.23056923 -0.24706976 0.62010217 0.08877467
-0.89406294 3.07616138 1.11823821 -0.19048949 0.54844940 0.43054846
-1.07431459 3.55567479 0.20689794 -0.22889398 0.63394195 0.07966066
-0.77034152 3.19580531 1.11324346 -0.16412933 0.56978077 0.42862538
-1.20824754 3.45951915 0.35675734 -0.25742981 0.61679834 0.13736011
-0.95571387 3.06805730 1.30725658 -0.20362486 0.54700452 0.50332505
-1.13313711 3.56366181 0.34054965 -0.24142674 0.63536596 0.13111976
-0.80853909 3.09554577 1.26856244 -0.17226774 0.55190545 0.48842689
-1.81400287 3.17919564 1.00492907 -0.38649234 0.56681943 0.38692173
-1.64366472 3.21672463 0.96258605 -0.35020000 0.57351047 0.37061867
-1.90734768 3.15949225 1.21478224 -0.40638041 0.56330651 0.46772024
-1.73390722 3.20780277 1.17459548 -0.36942711 0.57191980 0.45224735
-1.35303509 3.22076702 0.01231781 -0.28827831 0.57423121 0.00474265
-1.35672879 3.18429995 0.89280689 -0.28906530 0.56772947 0.34375203
-1.17968118 3.17348576 0.84124410 -0.25134343 0.56580138 0.32389912
-1.42585814 3.25908494 0.13510796 -0.30379403 0.58106291 0.05201980
-1.43864453 3.17493629 1.09383595 -0.30651829 0.56606001 0.42115301
-1.27875376 3.20799947 1.04990876 -0.27245191 0.57195485 0.40423998
-0.94654781 3.18164802 0.79152834 -0.20167193 0.56725663 0.30475736
-1.00065207 3.27293062 -0.05236376 -0.21319942 0.58353144 -0.02016130
-0.79950309 3.22321725 0.75582725 -0.17034252 0.57466805 0.29101157
-1.23439550 3.50662971 0.10455070 -0.26300091 0.62519771 0.04025452
-0.99932009 3.12319446 0.96061563 -0.21291563 0.55683494 0.36985999
-1.12674165 3.51299071 0.08170277 -0.24006411 0.62633181 0.03145752
-0.86236399 3.20080495 0.93653619 -0.18373568 0.57067215 0.36058885
-1.71616495 3.33480239 -0.19351703 -0.36564693 0.59456259 -0.07450869
-1.83719552 3.23051333 0.61357772 -0.39143378 0.57596886 0.23624210
-1.59764016 3.33936286 -0.21471854 -0.34039399 0.59537566 -0.08267178
-1.65604937 3.24146414 0.58124363 -0.35283870 0.57792127 0.22379270
-1.76098192 3.31759357 -0.06895264 -0.37519565 0.59149444 -0.02654842
-1.93636668 3.22253537 0.81933773 -0.41256323 0.57454646 0.31546465
-1.64418268 3.31550169 -0.09075671 -0.35031036 0.59112144 -0.03494350
-1.72923613 3.21058488 0.77263820 -0.36843190 0.57241583 0.29748419
-1.40915477 3.32738042 -0.22733508 -0.30023521 0.59323931 -0.08752944
-1.36018908 3.16077995 0.52293444 -0.28980255 0.56353611 0.20134227
-1.31651425 3.36413813 -0.25068980 -0.28049716 0.59979284 -0.09652157
-1.21679974 3.22290683 0.49217817 -0.25925195 0.57461268 0.18950038
-1.44855332 3.29052806 -0.10558227 -0.30862948 0.58666891 -0.04065170
-1.44803655 3.18391705 0.71379220 -0.30851936 0.56766123 0.27482709
-1.33935344 3.28319240 -0.12970880 -0.28536329 0.58536100 -0.04994099
-1.28192043 3.19082451 0.67023134 -0.27312660 0.56889272 0.25805509
-2.00543022 3.88183069 0.39438176 -0.42727792 0.69209236 0.15184641
-1.88435221 3.24624491 1.45457184 -0.40148100 0.57877362 0.56004494
-1.64240479 3.17095852 1.35619712 -0.34993157 0.56535083 0.52216834
-1.16035330 3.29113412 -0.14944963 -0.24722543 0.58677697 -0.05754168
-1.03556871 3.20638013 0.62391245 -0.22063877 0.57166612 0.24022123
-1.06750166 3.31881428 -0.16560663 -0.22744243 0.59171206 -0.06376252
-0.87634796 3.20484591 0.58422506 -0.18671513 0.57139260 0.22494063
-1.33450592 3.14461422 0.24547398 -0.28433049 0.56065387 0.09451336
-1.35259342 3.13470292 1.26327002 -0.28818420 0.55888683 0.48638919
-1.18253827 3.14576983 1.21223617 -0.25195217 0.56085992 0.46673992
-1.44541526 3.27114534 0.38294622 -0.30796087 0.58321315 0.14744346
-1.54127204 3.35587382 1.58806026 -0.32838416 0.59831941 0.61144120
-1.25305355 3.12076712 1.41255569 -0.26697621 0.55640221 0.54386777
-1.17623937 3.45565343 0.22896646 -0.25061014 0.61610913 0.08815756
-0.92268819 3.10108495 1.12976050 -0.19658840 0.55289304 0.43498483
-1.09028161 3.52789021 0.20486131 -0.23229593 0.62898827 0.07887651
-0.78819293 3.18172503 1.10994458 -0.16793276 0.56727040 0.42735523
-1.22928476 3.44999623 0.35648915 -0.26191202 0.61510050 0.13725686
-0.97896874 3.07427430 1.31265724 -0.20857956 0.54811299 0.50540447
-1.14465690 3.52245235 0.33597070 -0.24388115 0.62801874 0.12935676
-0.83171594 3.10473919 1.27460456 -0.17720580 0.55354458 0.49075326
-1.84464717 3.18599081 1.01094091 -0.39302140 0.56803095 0.38923645
-1.67262673 3.22349548 0.96790898 -0.35637066 0.57471764 0.37266812
-1.95111454 3.18608594 1.23018277 -0.41570541 0.56804788 0.47364980
-1.76125860 3.21019912 1.17963433 -0.37525460 0.57234704 0.45418745
-1.40747917 3.29100800 0.01601426 -0.29987818 0.58675444 0.00616587
-1.38060343 3.18455219 0.89539534 -0.29415202 0.56777442 0.34474865
-1.19689679 3.15875220 0.83924043 -0.25501141 0.56317455 0.32312766
-1.45451880 3.26823378 0.13664034 -0.30990049 0.58269405 0.05260980
-1.46017718 3.16928124 1.09506857 -0.31110606 0.56505179 0.42162761
-1.33786309 3.24996400 0.11004882 -0.28504574 0.57943672 0.04237143
-1.29959202 3.20167375 1.05050826 -0.27689171 0.57082707 0.40447083
-0.96479046 3.17007828 0.79007936 -0.20555872 0.56519389 0.30419946
-1.01241839 3.23790169 -0.05311321 -0.21570635 0.57728612 -0.02044986
-0.81598949 3.20302343 0.75212306 -0.17385511 0.57106769 0.28958538
-1.01892388 3.11685395 0.96061563 -0.21709241 0.55570453 0.36985999
-1.15001452 3.50964308 0.08194066 -0.24502265 0.62573498 0.03154911
-0.88145900 3.19161725 0.93541121 -0.18780409 0.56903410 0.36015570
-1.74550641 3.33985949 -0.19378412 -0.37189844 0.59546423 -0.07461152
-1.86739790 3.23591757 0.61701119 -0.39786869 0.57693237 0.23756407
-1.62723422 3.34728956 -0.21513361 -0.34669930 0.59678894 -0.08283158
-1.67368805 3.22572851 0.58024365 -0.35659680 0.57511580 0.22340769
-1.79424775 3.32928085 -0.06847566 -0.38228330 0.59357816 -0.02636477
-1.96067214 3.21694493 0.82110929 -0.41774175 0.57354975 0.31614673
-1.67121124 3.31764221 -0.09057854 -0.35606909 0.59150308 -0.03487490
-1.76050103 3.22027946 0.77782387 -0.37509319 0.57414424 0.29948080
-1.43323970 3.32578754 -0.22753306 -0.30536675 0.59295529 -0.08760567
-1.40088618 3.19907188 0.53124213 -0.29847348 0.57036316 0.20454094
-1.33835542 3.35766101 -0.25075221 -0.28515065 0.59863806 -0.09654560
-1.23073447 3.19855356 0.48946077 -0.26222089 0.57027072 0.18845411
-1.47499263 3.29410625 -0.10545662 -0.31426266 0.58730686 -0.04060332
-1.47299993 3.18537831 0.71630198 -0.31383806 0.56792176 0.27579340
-1.35617352 3.26545501 -0.12973176 -0.28894699 0.58219862 -0.04994983
-1.30633008 3.19361377 0.67263967 -0.27832732 0.56939006 0.25898236
-2.03204989 3.88813400 0.39656246 -0.43294954 0.69321620 0.15268603
-1.97368121 3.36197615 1.51215100 -0.42051348 0.59940737 0.58221430
-1.65904009 3.16649461 1.35765004 -0.35347590 0.56455493 0.52272773
-1.18201315 3.30254126 -0.14950949 -0.25184029 0.58881074 -0.05756473
-1.05004358 3.19960332 0.62352908 -0.22372280 0.57045794 0.24007362
-1.08373952 3.31565142 -0.16562255 -0.23090206 0.59114814 -0.06376865
-0.89144069 3.20068073 0.58422506 -0.18993078 0.57064998 0.22494063
-1.39547110 3.24391747 0.25843844 -0.29731974 0.57835871 0.09950498
-1.36735022 3.12829423 1.26327002 -0.29132831 0.55774420 0.48638919
-1.19866395 3.14367390 1.21362865 -0.25538793 0.56048626 0.46727607
-1.45262766 3.24627995 0.38005614 -0.30949757 0.57877988 0.14633071
-1.33868742 3.23248553 0.35400355 -0.28522140 0.57632047 0.13629983
-1.26433539 3.10630083 1.40859854 -0.26937991 0.55382299 0.54234415
-1.19185007 3.44819522 0.22876611 -0.25393614 0.61477941 0.08808043
-0.93729144 3.09670234 1.12976050 -0.19969977 0.55211169 0.43498483
-1.09516454 3.48465157 0.20115834 -0.23333628 0.62127924 0.07745077
-0.80272639 3.17614198 1.10928476 -0.17102927 0.56627500 0.42710117
-1.24279130 3.43672490 0.35541639 -0.26478970 0.61273438 0.13684382
-0.99692029 3.08013868 1.31728625 -0.21240433 0.54915851 0.50718671
-1.14717615 3.47361541 0.33011979 -0.24441791 0.61931157 0.12710401
-0.84728998 3.10436463 1.27611506 -0.18052401 0.55347776 0.49133483
-1.86258316 3.18222785 1.01258039 -0.39684287 0.56736004 0.38986769
-2.13426042 4.38938046 0.09466039 -0.45472655 0.78258353 0.03644652
-1.68602562 3.21215343 0.96684438 -0.35922542 0.57269549 0.37225822
-1.96409571 3.17364573 1.22889948 -0.41847119 0.56582993 0.47315571
-1.78092492 3.21018863 1.18278360 -0.37944472 0.57234514 0.45539999
-1.42538631 3.28982568 0.01627215 -0.30369350 0.58654368 0.00626517
-1.39480770 3.17624664 0.89487767 -0.29717842 0.56629366 0.34454933
-1.22134054 3.17843819 0.84625334 -0.26021940 0.56668437 0.32582778
-1.48079622 3.17440224 1.09938288 -0.31549916 0.56596482 0.42328870
-1.36755478 3.27869058 0.11272618 -0.29137188 0.58455837 0.04340228
-1.32539833 3.22204590 1.05950069 -0.28239000 0.57445920 0.40793312
-0.98439986 3.18030047 0.79394329 -0.20973670 0.56701642 0.30568716
-1.03004217 3.24073100 -0.05291336 -0.21946128 0.57779056 -0.02037291
-0.83298475 3.20668721 0.75397515 -0.17747614 0.57172090 0.29029846
-1.03974497 3.13014174 0.96642637 -0.22152856 0.55807358 0.37209728
-1.17460251 3.52885485 0.08348692 -0.25026137 0.62916023 0.03214446
-0.90360534 3.21333838 0.94328582 -0.19252259 0.57290673 0.36318761
-1.76500225 3.33864832 -0.19390284 -0.37605223 0.59524828 -0.07465723
-1.88964069 3.23895693 0.61941463 -0.40260777 0.57747430 0.23848945
-1.63862538 3.33058929 -0.21492608 -0.34912631 0.59381145 -0.08275168
-1.69793701 3.23531795 0.58357692 -0.36176327 0.57682550 0.22469108
-1.80701745 3.31553674 -0.06858573 -0.38500401 0.59112769 -0.02640715
-1.98509622 3.22256517 0.82509530 -0.42294556 0.57455176 0.31768143
-1.68862331 3.31330347 -0.09052764 -0.35977891 0.59072953 -0.03485531
-1.77846253 3.21709037 0.77912027 -0.37892008 0.57357568 0.29997995
-1.45375729 3.32996392 -0.22783001 -0.30973822 0.59369993 -0.08772001
-1.42000067 3.20143533 0.53283978 -0.30254602 0.57078451 0.20515606
-1.36671710 3.38289642 -0.25181311 -0.29119340 0.60313725 -0.09695408
-1.24508584 3.19087219 0.48915884 -0.26527858 0.56890124 0.18833786
-1.49551630 3.29801941 -0.10534891 -0.31863543 0.58800453 -0.04056185
-1.49554968 3.19429946 0.72006661 -0.31864253 0.56951231 0.27724287
-1.38608479 3.29413700 -0.12964454 -0.29531989 0.58731234 -0.04991625
-1.32284439 3.19105101 0.67344248 -0.28184587 0.56893313 0.25929147
-2.15406466 4.05721903 0.42176133 -0.45894605 0.72336239 0.16238821
-2.01395416 3.38134956 1.52691483 -0.42909405 0.60286146 0.58789873
-1.68929219 3.17580867 1.36636758 -0.35992143 0.56621557 0.52608424
-1.20692015 3.30629754 -0.14954938 -0.25714698 0.58948046 -0.05758009
-1.07203138 3.19851470 0.62467915 -0.22840752 0.57026380 0.24051642
-1.10828412 3.32018089 -0.16571809 -0.23613155 0.59195572 -0.06380543
-0.91100556 3.19312239 0.58385915 -0.19409929 0.56930244 0.22479974
-1.41986215 3.24416614 0.25955608 -0.30251652 0.57840300 0.09993530
-1.39159608 3.12986207 1.26753795 -0.29649413 0.55802375 0.48803243
-1.21839249 3.13608050 1.21362865 -0.25959128 0.55913240 0.46727607
-1.34000587 3.17827654 0.34702399 -0.28550231 0.56665558 0.13361254
-1.30253351 3.14422417 1.42996764 -0.27751842 0.56058437 0.55057174
-1.21618140 3.44813013 0.22956750 -0.25912020 0.61476779 0.08838898
-0.95843303 3.09613395 1.13179386 -0.20420420 0.55201036 0.43576771
-1.10207665 3.43021750 0.19652964 -0.23480898 0.61157417 0.07566862
-0.82451779 3.17835760 1.11192393 -0.17567216 0.56667000 0.42811733
-1.27062452 3.44554973 0.35783011 -0.27071989 0.61430776 0.13777316
-1.01920462 3.08255529 1.32114387 -0.21715222 0.54958940 0.50867200
-1.15027499 3.40984178 0.32248819 -0.24507815 0.60794139 0.12416567
-0.86824107 3.10433960 1.27838087 -0.18498786 0.55347329 0.49220723
-1.89047170 3.18365240 1.01695263 -0.40278482 0.56761402 0.39155111
-2.14951420 4.35075760 0.09332715 -0.45797655 0.77569741 0.03593319
-1.71783769 3.22367978 0.97376418 -0.36600333 0.57475048 0.37492251
-1.99110723 3.17243481 1.23339128 -0.42422625 0.56561404 0.47488517
-1.80935872 3.21386838 1.18845236 -0.38550285 0.57300121 0.45758259
-1.41553521 3.16917944 0.89539534 -0.30159461 0.56503361 0.34474865
-1.32978034 3.26041412 -0.00904720 -0.28332365 0.58129990 -0.00348339
-1.24337220 3.17612314 0.84775609 -0.26491347 0.56627160 0.32640639
-1.49988699 3.16332126 1.09876645 -0.31956664 0.56398916 0.42305139
-1.38735926 3.26819253 0.11258527 -0.29559144 0.58268666 0.04334802
-1.34489012 3.21189022 1.05890131 -0.28654295 0.57264853 0.40770236
-1.00436270 3.17405272 0.79394329 -0.21399000 0.56590247 0.30568716
-1.05583966 3.25134230 -0.05246368 -0.22495770 0.57968247 -0.02019977
-0.85066909 3.19197464 0.75165999 -0.18124397 0.56909782 0.28940707
-1.07628918 3.17237663 0.98211539 -0.22931470 0.56560367 0.37813792
-1.19232714 3.50814867 0.08265432 -0.25403780 0.62546849 0.03182389
-0.92169774 3.20020747 0.94103593 -0.19637737 0.57056564 0.36232135
-1.79167581 3.33803415 -0.19408089 -0.38173532 0.59513879 -0.07472578
-1.92311978 3.24899149 0.62387812 -0.40974084 0.57926333 0.24020800
-1.67720294 3.35609722 -0.21575622 -0.35734567 0.59835923 -0.08307131
-1.72557282 3.23854971 0.58624351 -0.36765137 0.57740164 0.22571778
-1.82879126 3.30586219 -0.06854904 -0.38964316 0.58940279 -0.02639302
-2.01364255 3.22321725 0.82863837 -0.42902765 0.57466805 0.31904560
-1.71577477 3.31509542 -0.09034947 -0.36556381 0.59104902 -0.03478671
-1.81093943 3.22806025 0.78473800 -0.38583964 0.57553148 0.30214292
-1.47875965 3.32987761 -0.22807749 -0.31506523 0.59368455 -0.08781529
-1.43926549 3.19065499 0.53252029 -0.30665061 0.56886250 0.20503306
-1.38794541 3.37424231 -0.25181311 -0.29571632 0.60159433 -0.09695408
-1.27158391 3.19956040 0.49187624 -0.27092427 0.57045025 0.18938412
-1.51705623 3.29036927 -0.10533097 -0.32322472 0.58664060 -0.04055494
-1.51729143 3.18836188 0.72090322 -0.32327485 0.56845367 0.27756500
-1.40442467 3.27983403 -0.12965831 -0.29922739 0.58476228 -0.04992155
-1.34737420 3.19353437 0.67585081 -0.28707221 0.56937587 0.26021874
-2.19565868 4.07324219 0.42588037 -0.46780810 0.72621918 0.16397414
-2.02546597 3.35276914 1.51953292 -0.43154675 0.59776586 0.58505654
-1.71622181 3.17828870 1.37217927 -0.36565906 0.56665772 0.52832186
-1.22412813 3.28929758 -0.14951614 -0.26081333 0.58644950 -0.05756729
-1.09275365 3.19356918 0.62506253 -0.23282263 0.56938207 0.24066404
-1.13292813 3.32453227 -0.16581362 -0.24138221 0.59273154 -0.06384221
-0.93374914 3.19678903 0.58568877 -0.19894505 0.56995612 0.22550419
-1.43939900 3.23336983 0.25933254 -0.30667904 0.57647812 0.09984923
-1.41669559 3.13294697 1.27251709 -0.30184186 0.55857372 0.48994952
-1.30970836 3.17578888 0.22419748 -0.27904710 0.56621200 0.08632139
-1.24350798 3.14234304 1.21919870 -0.26494241 0.56024897 0.46942067
-2.02747607 4.36525965 0.56357527 -0.43197504 0.77828300 0.21698996
-1.54530692 3.21847749 1.53409767 -0.32924384 0.57382298 0.59066433
-1.38459182 3.22818017 0.35595784 -0.29500180 0.57555288 0.13705228
-1.31241465 3.11222458 1.41888738 -0.27962369 0.55487913 0.54630560
-1.23508608 3.43294597 0.22876611 -0.26314804 0.61206061 0.08808043
-0.98134136 3.10079312 1.13586044 -0.20908506 0.55284101 0.43733346
-1.12299716 3.42132950 0.19634449 -0.23926632 0.60998952 0.07559733
-0.84921414 3.19138932 1.11852181 -0.18093398 0.56899345 0.43065766
-1.29012525 3.43194437 0.35702553 -0.27487472 0.61188203 0.13746338
-1.03735030 3.07260156 1.31960082 -0.22101836 0.54781473 0.50807792
-1.17802954 3.42133999 0.32503206 -0.25099155 0.60999137 0.12514512
-0.88922524 3.10417342 1.28064656 -0.18945876 0.55344367 0.49307957
-1.92045462 3.18813682 1.02241778 -0.40917298 0.56841356 0.39365530
-1.74713707 3.22983003 0.97908711 -0.37224588 0.57584703 0.37697196
-2.03972077 3.20445275 1.25135863 -0.43458390 0.57132250 0.48180303
-1.83697629 3.21566367 1.19349122 -0.39138705 0.57332128 0.45952269
-1.44593942 3.18302727 0.90212518 -0.30807257 0.56750256 0.34733978
-1.36233163 3.28159881 -0.00787662 -0.29025903 0.58507693 -0.00303269
-1.26259732 3.16644549 0.84725517 -0.26900959 0.56454617 0.32621351
-1.53143549 3.17776370 1.10739505 -0.32628837 0.56656414 0.42637360
-1.41645277 3.27960682 0.11413532 -0.30179012 0.58472174 0.04394483
-1.37315917 3.22273302 1.06549573 -0.29256597 0.57458168 0.41024137
-1.02915311 3.18242335 0.79780728 -0.21927185 0.56739491 0.30717489
-1.09231985 3.29408097 -0.05116463 -0.23273019 0.58730233 -0.01969961
-0.87171048 3.19032669 0.75258607 -0.18572706 0.56880397 0.28976366
-2.11474276 5.54952526 0.24956222 -0.45056811 0.98942596 0.09608743
-1.09365165 3.15833354 0.97979105 -0.23301396 0.56309992 0.37724301
-1.21176994 3.49302888 0.08217855 -0.25818029 0.62277281 0.03164071
-0.94603896 3.20910692 0.94553572 -0.20156352 0.57215232 0.36405388
-1.83290434 3.36347914 -0.19470410 -0.39051950 0.59967536 -0.07496574
-1.94554234 3.24021149 0.62456483 -0.41451818 0.57769793 0.24047241
-1.70183837 3.35264444 -0.21592225 -0.36259452 0.59774363 -0.08313523
-1.75238729 3.23982167 0.58857679 -0.37336448 0.57762843 0.22661614
-1.85347962 3.30125976 -0.06840228 -0.39490327 0.58858228 -0.02633651
-2.05280018 3.24005675 0.83661044 -0.43737060 0.57767034 0.32211503
-1.74209428 3.31490135 -0.09019676 -0.37117144 0.59101444 -0.03472791
-1.83214283 3.21832037 0.78517014 -0.39035723 0.57379496 0.30230930
-1.50881672 3.34051371 -0.22862191 -0.32146922 0.59558088 -0.08802491
-1.46178496 3.18691802 0.53347886 -0.31144860 0.56819624 0.20540212
-1.41825998 3.38763332 -0.25256202 -0.30217516 0.60398179 -0.09724242
-1.32235897 3.26866269 0.50455743 -0.28174245 0.58277053 0.19426669
-1.54972494 3.30605769 -0.10507966 -0.33018515 0.58943766 -0.04045818
-1.54677224 3.19807887 0.72550446 -0.32955605 0.57018614 0.27933657
-1.43919456 3.30403042 -0.12957570 -0.30663550 0.58907622 -0.04988974
-1.37427449 3.20124960 0.67946333 -0.29280359 0.57075143 0.26160964
-2.21256256 4.04372978 0.42369971 -0.47140965 0.72095740 0.16313453
-2.06412005 3.36841416 1.53282046 -0.43978241 0.60055524 0.59017253
-1.74679494 3.18711138 1.38089681 -0.37217298 0.56823069 0.53167832
-1.25557339 3.30952859 -0.14961588 -0.26751307 0.59005648 -0.05760569
-1.11872232 3.20328331 0.62851292 -0.23835552 0.57111400 0.24199252
-1.15896261 3.33248997 -0.16594101 -0.24692914 0.59415030 -0.06389126
-0.95657468 3.20029521 0.58751839 -0.20380826 0.57058126 0.22620864
-1.43556154 3.12229013 1.27180576 -0.30586144 0.55667371 0.48967564
-1.35999477 3.24103475 0.23259997 -0.28976116 0.57784474 0.08955655
-1.26529825 3.13969755 1.22128749 -0.26958504 0.55977732 0.47022492
-1.50784111 3.09221601 1.47691345 -0.32126135 0.55131179 0.56864703
-1.40641069 3.22305632 0.35651621 -0.29965055 0.57463932 0.13726728
-1.33837044 3.11914706 1.42601037 -0.28515387 0.55611336 0.54904813
-1.26358950 3.44376135 0.23076957 -0.26922098 0.61398888 0.08885181
-1.00375569 3.10349941 1.13924932 -0.21386068 0.55332351 0.43863824
-1.15380538 3.44258165 0.19912171 -0.24583033 0.61377859 0.07666662
-0.86779219 3.18051696 1.11654246 -0.18489222 0.56705499 0.42989558
-1.31525970 3.43300438 0.35836649 -0.28022987 0.61207104 0.13797967
-1.05847180 3.07124519 1.32191539 -0.22551851 0.54757291 0.50896907
-1.19820893 3.41012025 0.32452330 -0.25529099 0.60799104 0.12494924
-0.90871167 3.09852505 1.28064656 -0.19361055 0.55243665 0.49307957
-1.94854426 3.18909717 1.02679002 -0.41515779 0.56858474 0.39533874
-1.76647758 3.21709371 0.97855484 -0.37636656 0.57357627 0.37676704
-2.06085014 3.19315958 1.25200021 -0.43908572 0.56930906 0.48205003
-1.86563051 3.21888566 1.19915998 -0.39749214 0.57389575 0.46170530
-1.47329223 3.18962121 0.90678436 -0.31390035 0.56867820 0.34913367
-1.38292348 3.27297425 -0.00787662 -0.29464635 0.58353925 -0.00303269
-1.29323351 3.18542457 0.85476899 -0.27553695 0.56792998 0.32910651
-1.55391145 3.17319059 1.10924399 -0.33107713 0.56574875 0.42708549
-1.44178379 3.28162861 0.11498080 -0.30718714 0.58508223 0.04427036
-1.39712477 3.22281647 1.06849325 -0.29767209 0.57459658 0.41139546
-1.05098832 3.18141150 0.79925627 -0.22392409 0.56721449 0.30773279
-1.09850311 3.24351048 -0.05231379 -0.23404761 0.57828611 -0.02014206
-0.89173859 3.18478656 0.75258607 -0.18999426 0.56781620 0.28976366
-1.11606836 3.15860152 0.98211539 -0.23779006 0.56314766 0.37813792
-0.96238202 3.19021344 0.94159842 -0.20504558 0.56878376 0.36253792
-1.84716105 3.33968306 -0.19449636 -0.39355704 0.59543276 -0.07488576
-1.97206604 3.23798704 0.62662488 -0.42016935 0.57730132 0.24126558
-1.72286987 3.34188533 -0.21592225 -0.36707550 0.59582537 -0.08313523
-1.77552748 3.23394895 0.58957672 -0.37829474 0.57658142 0.22700115
-1.89217114 3.32072687 -0.06774184 -0.40314689 0.59205306 -0.02608223
-2.06567764 3.21564770 0.83351016 -0.44011429 0.57331848 0.32092136
-1.77220631 3.32158470 -0.08994223 -0.37758714 0.59220600 -0.03462991
-1.86974168 3.23727798 0.79294860 -0.39836806 0.57717490 0.30530420
-1.53484297 3.34184122 -0.22891887 -0.32701439 0.59581751 -0.08813924
-1.48009050 3.17410159 0.53283978 -0.31534880 0.56591117 0.20515606
-1.44338381 3.38787222 -0.25287405 -0.30752805 0.60402441 -0.09736256
-1.32431018 3.21447968 0.49700910 -0.28215817 0.57311022 0.19136040
-1.56698573 3.28905272 -0.10515146 -0.33386275 0.58640587 -0.04048583
-1.56509042 3.18479657 0.72466791 -0.33345893 0.56781799 0.27901450
-1.45512664 3.28392386 -0.12960324 -0.31002998 0.58549142 -0.04990035
-1.39281392 3.18895173 0.67866057 -0.29675362 0.56855881 0.26130056
-2.18643618 3.93798804 0.41085798 -0.46584314 0.70210469 0.15819015
-2.09414673 3.36954165 1.53946412 -0.44617993 0.60075623 0.59273052
-1.76857889 3.17933989 1.38234973 -0.37681428 0.56684512 0.53223771
-1.28073406 3.31274199 -0.14965579 -0.27287382 0.59062940 -0.05762106
-1.14016676 3.19988108 0.62927967 -0.24292448 0.57050741 0.24228774
-1.18053615 3.32703090 -0.16595694 -0.25152561 0.59317702 -0.06389739
-0.97328293 3.18291926 0.58532286 -0.20736814 0.56748331 0.22536331
-1.45996010 3.12334061 1.27607358 -0.31105980 0.55686104 0.49131885
-1.38572526 3.24526095 0.23407042 -0.29524329 0.57859820 0.09012271
-1.29201329 3.14907336 1.22825015 -0.27527699 0.56144893 0.47290570
-1.54697704 3.12193418 1.49624324 -0.32959968 0.55661029 0.57608944
-1.43773532 3.23956227 0.36042476 -0.30632457 0.57758218 0.13877216
-1.36881328 3.13599205 1.43788218 -0.29164001 0.55911666 0.55361903
-1.27034450 3.39669585 0.22656231 -0.27066022 0.60559756 0.08723191
-1.02383697 3.09891438 1.13992715 -0.21813920 0.55250603 0.43889922
-1.17541289 3.43526411 0.19912171 -0.25043404 0.61247391 0.07666662
-0.88726151 3.17318034 1.11588264 -0.18904036 0.56574696 0.42964152
-1.08647084 3.08884954 1.33271670 -0.23148401 0.55071157 0.51312780
-1.22158813 3.40813780 0.32528645 -0.26027215 0.60763758 0.12524307
-0.93181020 3.10519385 1.28593338 -0.19853193 0.55362564 0.49511513
-1.97774363 3.19145942 1.03170872 -0.42137900 0.56900591 0.39723253
-1.80152249 3.23295808 0.98707151 -0.38383326 0.57640475 0.38004616
-2.07982683 3.17856836 1.25135863 -0.44312891 0.56670761 0.48180303
-1.89535046 3.22351551 1.20545852 -0.40382430 0.57472122 0.46413037
-1.50161588 3.19774008 0.91196114 -0.31993499 0.57012570 0.35112685
-1.39878714 3.25317693 -0.00831559 -0.29802626 0.58000958 -0.00320170
-1.31322241 3.17723608 0.85476899 -0.27979580 0.56647003 0.32910651
-1.57553291 3.16676164 1.11047661 -0.33568379 0.56460255 0.42756006
-1.41354775 3.20522332 1.06549573 -0.30117115 0.57145989 0.41024137
-1.07474589 3.18575621 0.80215418 -0.22898588 0.56798911 0.30884856
-1.13234305 3.27630782 -0.05126456 -0.24125756 0.58413357 -0.01973808
-0.91383088 3.18661499 0.75443816 -0.19470125 0.56814224 0.29047674
-1.13985121 3.16230512 0.98560184 -0.24285725 0.56380802 0.37948030
-0.99017251 3.20982718 0.94947302 -0.21096663 0.57228070 0.36556983
-1.87601340 3.34191990 -0.19473378 -0.39970434 0.59583157 -0.07497717
-2.00490475 3.24558115 0.63074505 -0.42716599 0.57865530 0.24285194
-1.75484717 3.35231209 -0.21642035 -0.37388858 0.59768438 -0.08332702
-1.80911744 3.24691963 0.59424329 -0.38545144 0.57889396 0.22879788
-1.91400850 3.31049848 -0.06770515 -0.40779957 0.59022945 -0.02606810
-2.11266851 3.24332023 0.84458244 -0.45012617 0.57825220 0.32518446
-1.79964197 3.32272911 -0.08976407 -0.38343260 0.59241003 -0.03456131
-1.88613284 3.21870565 0.79122007 -0.40186039 0.57386369 0.30463865
-1.55495405 3.33032465 -0.22886938 -0.33129928 0.59376425 -0.08812018
-1.51284373 3.19142628 0.53763276 -0.32232723 0.56900001 0.20700148
-1.46228695 3.37322092 -0.25268683 -0.31155556 0.60141224 -0.09729048
-1.35428178 3.22985554 0.50093424 -0.28854394 0.57585156 0.19287167
-1.59908044 3.30247903 -0.10491811 -0.34070086 0.58879966 -0.04039598
-1.59478986 3.19409251 0.72926915 -0.33978671 0.56947541 0.28078607
-1.47735405 3.27837229 -0.12959406 -0.31476578 0.58450162 -0.04989681
-1.41831803 3.19270372 0.68147027 -0.30218753 0.56922776 0.26238236
-2.24748373 3.98800445 0.41982296 -0.47884998 0.71102208 0.16164188
-2.12526798 3.37199140 1.54684615 -0.45281062 0.60119301 0.59557277
-1.79940391 3.18769836 1.39106727 -0.38338187 0.56833535 0.53559417
-1.30077970 3.30277300 -0.14964914 -0.27714476 0.58885205 -0.05761850
-1.16433847 3.20369887 0.63157988 -0.24807452 0.57118809 0.24317336
-1.19940782 3.31389451 -0.16590917 -0.25554642 0.59083492 -0.06387900
-0.99786478 3.19178271 0.58825028 -0.21260555 0.56906354 0.22649044
-1.48767674 3.13094187 1.28318667 -0.31696513 0.55821627 0.49405757
-1.40530634 3.23466158 0.23386036 -0.29941526 0.57670844 0.09004183
-1.30821288 3.13222146 1.22476888 -0.27872846 0.55844438 0.47156534
-1.87931478 3.85940528 0.48756659 -0.40040770 0.68809414 0.18772480
-1.57655358 3.13171697 1.50590825 -0.33590126 0.55835444 0.57981074
-1.40172625 3.15762568 1.45212829 -0.29865247 0.56297368 0.55910414
-1.04267514 3.09064126 1.13924932 -0.22215287 0.55103105 0.43863824
-1.20214176 3.44288087 0.20060290 -0.25612891 0.61383194 0.07723692
-0.90463847 3.15845180 1.11258376 -0.19274271 0.56312102 0.42837137
-1.10522306 3.08022928 1.33194518 -0.23547935 0.54917467 0.51283079
-1.24968362 3.41906500 0.32783031 -0.26625821 0.60958576 0.12622252
-0.94651151 3.08331394 1.27913606 -0.20166419 0.54972464 0.49249798
-2.01737404 3.20981383 1.04209268 -0.42982268 0.57227832 0.40123063
-1.82555902 3.22830844 0.98920071 -0.38895449 0.57557577 0.38086593
-2.12509036 3.20318770 1.26675916 -0.45277277 0.57109696 0.48773259
-1.92520189 3.22789836 1.21175718 -0.41018444 0.57550263 0.46655551
-1.52588880 3.19693518 0.91454953 -0.32510662 0.56998223 0.35212344
-1.32945824 3.15997648 0.85226434 -0.28325501 0.56339282 0.32814217
-1.60321069 3.17203832 1.11602354 -0.34158084 0.56554335 0.42969576
-1.43520033 3.19976926 1.06669474 -0.30578446 0.57048750 0.41070300
-1.09345520 3.17527819 0.80118823 -0.23297210 0.56612098 0.30847663
-0.93383479 3.18081045 0.75443816 -0.19896330 0.56710732 0.29047674
-1.16238225 3.16224957 0.98792613 -0.24765772 0.56379813 0.38037521
-1.00748992 3.19437313 0.94666070 -0.21465629 0.56952542 0.36448702
-1.90396750 3.34219289 -0.19494152 -0.40566024 0.59588021 -0.07505715
-2.03369665 3.24623299 0.63349187 -0.43330041 0.57877153 0.24390954
-1.77773345 3.34476137 -0.21650337 -0.37876475 0.59633815 -0.08335898
-1.83140504 3.23893237 0.59490991 -0.39020005 0.57746989 0.22905456
-1.93579197 3.30012655 -0.06766845 -0.41244078 0.58838022 -0.02605397
-2.14058805 3.24133468 0.84768265 -0.45607471 0.57789820 0.32637811
-1.82811558 3.32541704 -0.08956045 -0.38949919 0.59288925 -0.03448291
-1.92114925 3.23205090 0.79770207 -0.40932098 0.57624298 0.30713439
-1.58105159 3.33129811 -0.22916633 -0.33685961 0.59393781 -0.08823452
-1.55107522 3.21910548 0.54434282 -0.33047283 0.57393497 0.20958501
-1.48902774 3.37680125 -0.25312367 -0.31725296 0.60205054 -0.09745867
-1.37837565 3.23039722 0.50244391 -0.29367739 0.57594818 0.19345292
-1.62247717 3.29773545 -0.10486425 -0.34568578 0.58795393 -0.04037525
-1.61751091 3.18922687 0.73052400 -0.34462765 0.56860787 0.28126922
-1.50532889 3.28543115 -0.12955275 -0.32072610 0.58576018 -0.04988091
-1.44392407 3.19626069 0.68428004 -0.30764318 0.56986195 0.26346418
-2.14314747 3.36506438 1.54832256 -0.45662004 0.59995800 0.59614122
-1.92233157 3.37075496 1.47678947 -0.40957290 0.60097259 0.56859928
-1.31783366 3.30031276 -0.14966244 -0.28077829 0.58841342 -0.05762362
-1.18011272 3.20001411 0.63196325 -0.25143540 0.57053113 0.24332097
-1.22179723 3.32701826 -0.16606840 -0.26031670 0.59317476 -0.06394031
-1.01815176 3.20394206 0.59154361 -0.21692790 0.57123148 0.22775845
-1.50979471 3.13901448 1.28958833 -0.32167760 0.55965549 0.49652237
-1.32872152 3.13986993 1.23033893 -0.28309804 0.55980802 0.47370994
-1.60053730 3.14214325 1.51476777 -0.34101126 0.56021333 0.58322185
-1.40618491 3.12747025 1.44104791 -0.29960245 0.55759728 0.55483794
