-15.52214813 1.90414894 0.60748190 -0.69586295 0.57562727 0.26725420
-15.42614365 1.09732533 1.21560979 -0.69155902 0.33172321 0.53479260
-15.43728447 1.66650617 1.14179432 -0.69205844 0.50378752 0.50231844
-15.62555790 2.49803519 0.54280144 -0.70049882 0.75516009 0.23879884
-15.75539398 3.11679077 0.44996664 -0.70631945 0.94221085 0.19795731
-15.56872845 2.25652409 1.07062781 -0.69795114 0.68215090 0.47100958
-16.62194252 1.35424459 -0.38534731 -0.74516708 0.40939033 -0.16952883
-15.92618847 1.90033543 -0.47082099 -0.71397620 0.57447445 -0.20713192
-15.34371662 1.05574465 0.14433192 -0.68786377 0.31915331 0.06349706
-15.45288277 1.62217748 0.05989545 -0.69275773 0.49038687 0.02635027
-15.55717564 2.21965981 0.00319669 -0.69743323 0.67100674 0.00140634
-15.63312340 2.81077003 -0.10139512 -0.70083797 0.84970033 -0.04460754
-15.84613419 1.27907705 1.80140018 -0.71038735 0.38666704 0.79250395
-15.47784424 1.78362656 1.67483854 -0.69387680 0.53919321 0.73682469
-15.54921436 1.22584391 0.69306451 -0.69707632 0.37057459 0.30490524
-15.49412441 1.80191624 0.60557729 -0.69460660 0.54472220 0.26641631
-15.36512852 0.99608600 1.20967913 -0.68882370 0.30111840 0.53218353
-15.40382957 1.56498885 1.13817894 -0.69055867 0.47309867 0.50072789
-15.60143661 2.39379835 0.54108214 -0.69941747 0.72364908 0.23804246
-15.75111485 3.01319957 0.44908872 -0.70612758 0.91089511 0.19757108
-15.55296516 2.15459275 1.06832922 -0.69724447 0.65133685 0.46999836
-17.31418037 1.30034900 -0.39552644 -0.77620035 0.39309761 -0.17400701
-15.91198826 1.79728103 -0.47028139 -0.71333963 0.54332095 -0.20689453
-15.29016972 0.95565438 0.14323120 -0.68546325 0.28889588 0.06301281
-15.42297173 1.52107489 0.05938640 -0.69141680 0.45982340 0.02612632
-15.55297756 2.11946082 0.00303513 -0.69724500 0.64071643 0.00133527
-15.63077354 2.70904875 -0.10144102 -0.70073265 0.81894982 -0.04462773
-15.88355827 1.18165970 1.80503464 -0.71206510 0.35721764 0.79410285
-15.51046658 1.68873537 1.67738235 -0.69533926 0.51050740 0.73794383
-15.54465675 1.12727070 0.69242597 -0.69687200 0.34077576 0.30462432
-15.48330021 1.70209908 0.60452974 -0.69412136 0.51454729 0.26595545
-15.38301849 0.90020758 1.21072567 -0.68962574 0.27213421 0.53264391
-15.38558292 1.46549094 1.13587832 -0.68974066 0.44302028 0.49971575
-15.58453274 2.29111576 0.53970671 -0.69865966 0.69260800 0.23743735
-15.73633289 2.90795684 0.44784498 -0.70546490 0.87908006 0.19702391
-15.52862740 2.05191422 1.06541765 -0.69615340 0.62029696 0.46871743
-17.48362160 1.20246255 -0.39793023 -0.78379643 0.36350638 -0.17506453
-20.18730164 2.15729260 -0.55931538 -0.90500331 0.65215302 -0.24606395
-15.23996544 0.85649794 0.14220385 -0.68321258 0.25892070 0.06256084
-15.41430473 1.42246270 0.05915733 -0.69102830 0.43001276 0.02602554
-15.53425026 2.01761723 0.00274793 -0.69640547 0.60992897 0.00120892
-15.58634472 2.60050297 -0.10158330 -0.69874090 0.78613627 -0.04469033
-15.85897541 1.07972062 1.80115783 -0.71096301 0.32640129 0.79239732
-16.31313133 1.67352712 1.77011275 -0.73132294 0.50590998 0.77873939
-15.74196911 3.26787353 -0.19130559 -0.70571756 0.98788345 -0.08416255
-15.51356602 1.02712178 0.69040400 -0.69547820 0.31050056 0.30373478
-15.45991230 1.60123861 0.60291082 -0.69307286 0.48405701 0.26524323
-16.00918961 0.83513188 1.26514924 -0.71769714 0.25246170 0.55658692
-15.36073875 1.36574674 1.13308477 -0.68862689 0.41286746 0.49848676
-15.57289314 2.18956733 0.53858918 -0.69813788 0.66190976 0.23694570
-15.70904827 2.80089903 0.44616225 -0.70424175 0.84671628 0.19628362
-15.50163651 1.94938052 1.06235290 -0.69494337 0.58930087 0.46736914
-15.63387585 2.55825686 0.98075479 -0.70087171 0.77336520 0.43147105
-15.70629025 3.17159319 0.90791190 -0.70411807 0.95877773 0.39942470
-18.14353561 1.13259828 -0.40763453 -0.81338060 0.34238628 -0.17933382
-20.36159325 2.04676962 -0.56267750 -0.91281682 0.61874175 -0.24754307
-15.41496849 1.32488883 0.05905552 -0.69105804 0.40051603 0.02598075
-15.49500656 1.91366720 0.00228122 -0.69464618 0.57850468 0.00100360
-15.59053040 2.50060463 -0.10161084 -0.69892853 0.75593680 -0.04470244
-15.83614731 1.00325346 1.79776573 -0.70993960 0.30328515 0.79090500
-16.06581688 1.57136750 1.74028170 -0.72023576 0.47502694 0.76561558
-15.72582436 3.18733859 -0.19119918 -0.70499378 0.96353757 -0.08411574
-15.25508404 0.93817270 0.67635679 -0.68389034 0.28361112 0.29755488
-15.39970207 1.52160048 0.59967291 -0.69037366 0.45998228 0.26381874
-15.98508453 0.75839490 1.26270711 -0.71661651 0.22926401 0.55551255
-15.35508823 1.29232740 1.13209879 -0.68837357 0.39067265 0.49805298
-15.48600197 2.10310817 0.53437698 -0.69424248 0.63577300 0.23509261
-15.67875862 2.71927190 0.44455272 -0.70288384 0.82204026 0.19557552
-15.47500992 1.87204504 1.05959463 -0.69374973 0.56592226 0.46615568
-15.56696033 2.47193885 0.97511828 -0.69787186 0.74727112 0.42899135
-15.75239944 3.10367727 0.90999651 -0.70618516 0.93824667 0.40034181
-18.78757858 1.08323121 -0.41713107 -0.84225327 0.32746255 -0.18351170
-20.35509109 1.94925487 -0.56234545 -0.91252536 0.58926290 -0.24739699
-16.17141914 0.72934145 0.15915507 -0.72496998 0.22048110 0.07001832
-15.37520027 1.24845004 0.05847012 -0.68927521 0.37740847 0.02572321
-15.48398876 1.83829582 0.00210172 -0.69415224 0.55571979 0.00092462
-15.55076981 2.41904926 -0.10173017 -0.69714606 0.73128247 -0.04475494
-15.81636906 0.90229607 1.79461586 -0.70905298 0.27276555 0.78951925
-16.12878036 1.47534573 1.74652541 -0.72305846 0.44599938 0.76836246
-15.69646358 3.07890630 -0.19103293 -0.70367754 0.93075836 -0.08404259
-15.62363625 0.86185312 0.69572496 -0.70041269 0.26053959 0.30607566
-15.41691399 1.42555809 0.60005385 -0.69114524 0.43094853 0.26398635
-15.32515144 1.19283485 1.12897646 -0.68703151 0.36059591 0.49667937
-15.52269363 2.00881219 0.53540856 -0.69588739 0.60726714 0.23554644
-15.66794109 2.61606264 0.44352844 -0.70239890 0.79083997 0.19512491
-15.46863461 1.77275634 1.05821550 -0.69346392 0.53590709 0.46554893
-15.59795952 2.37650490 0.97624558 -0.69926161 0.71842128 0.42948729
-15.77368355 3.24643707 0.37369710 -0.70713937 0.98140317 0.16440345
-15.75786209 3.00204420 0.90908450 -0.70643008 0.90752280 0.39994058
-18.98774719 0.97490406 -0.42000973 -0.85122687 0.29471508 -0.18477814
-20.31117630 1.81628001 -0.56118327 -0.91055661 0.54906440 -0.24688570
-16.57933044 0.64287591 0.16656664 -0.74325675 0.19434242 0.07327895
-15.37875271 1.15151691 0.05841921 -0.68943447 0.34810543 0.02570082
-15.46939373 1.73810232 0.00186836 -0.69349796 0.52543116 0.00082196
-15.52610683 2.31534290 -0.10182196 -0.69604039 0.69993192 -0.04479532
-15.77413845 0.80054802 1.78880072 -0.70715976 0.24200696 0.78696096
-15.99324989 1.36149311 1.72964430 -0.71698260 0.41158158 0.76093584
-15.89805603 0.77647918 0.71009141 -0.71271503 0.23473091 0.31239602
-15.62458038 1.34606838 0.60957700 -0.70045501 0.40691864 0.26817593
-15.31842804 1.09550738 1.12782621 -0.68673009 0.33117366 0.49617332
-15.49930573 1.90689588 0.53386116 -0.69483888 0.57645768 0.23486568
-15.62487888 2.50798845 0.44133362 -0.70046836 0.75816894 0.19415931
-15.40412045 1.66747344 1.05239248 -0.69057173 0.50407994 0.46298718
-15.56324005 2.27118778 0.97272271 -0.69770509 0.68658376 0.42793745
-15.75259018 3.13911271 0.37236348 -0.70619375 0.94895881 0.16381675
-15.70966339 2.89078093 0.90465468 -0.70426929 0.87388772 0.39799175
-19.70672989 0.88694590 -0.43060431 -0.88345909 0.26812518 -0.18943909
-20.30226135 1.68695045 -0.56076819 -0.91015697 0.50996786 -0.24670309
-16.99477196 0.55156255 0.17412499 -0.76188111 0.16673824 0.07660415
-15.33381557 1.05124223 0.05775746 -0.68741995 0.31779224 0.02540969
-15.45017338 1.63774836 0.00159911 -0.69263631 0.49509397 0.00070351
-15.50471592 2.21261215 -0.10190458 -0.69508147 0.66887623 -0.04483167
-15.95990372 1.25764823 1.72478807 -0.71548766 0.38018909 0.75879937
-16.07039452 2.94260001 -0.19217011 -0.72044098 0.88955271 -0.08454289
-16.39151001 0.69674802 0.73616397 -0.73483670 0.21062805 0.32386631
-15.59091473 1.24447799 0.60757715 -0.69894576 0.37620771 0.26729611
-17.50022507 0.49800888 1.39440501 -0.78454077 0.15054889 0.61345142
-15.28921032 0.99685603 1.12486815 -0.68542027 0.30135119 0.49487197
-15.46731186 1.80443716 0.53196996 -0.69340461 0.54548424 0.23403367
-15.60675430 2.40454841 0.44008988 -0.69965583 0.72689885 0.19361214
-15.39445210 1.56865883 1.05086005 -0.69013828 0.47420809 0.46231300
-15.53966808 2.16807032 0.97004539 -0.69664836 0.65541118 0.42675957
-15.75433350 3.03669214 0.37179193 -0.70627189 0.91799694 0.16356531
-19.80383873 0.76657194 -0.43196943 -0.88781250 0.23173593 -0.19003966
-20.26262093 1.55547905 -0.55973047 -0.90837985 0.47022381 -0.24624656
-17.43169403 0.45560256 0.18208691 -0.78146851 0.13772939 0.08010691
-15.31417179 0.95322746 0.05742658 -0.68653929 0.28816220 0.02526412
-15.42433262 1.53711760 0.00127600 -0.69147784 0.46467313 0.00056136
-15.50444317 2.11324143 -0.10193671 -0.69506919 0.63883632 -0.04484580
-16.72729874 0.63708419 1.90413404 -0.74989021 0.19259158 0.83770043
-15.88031769 1.15091527 1.71461320 -0.71191978 0.34792355 0.75432307
-16.06492805 2.83742452 -0.19209030 -0.72019595 0.85775799 -0.08450778
-15.56601048 1.75644898 1.62305975 -0.69782931 0.53097737 0.71404523
-16.74086380 0.60582000 0.75457436 -0.75049835 0.18314037 0.33196574
-15.54862213 1.14276767 0.60519636 -0.69704980 0.34546050 0.26624873
-17.53886414 0.38879585 1.39754486 -0.78627294 0.11753362 0.61483276
-15.27328587 0.89945400 1.12306058 -0.68470639 0.27190641 0.49407673
-15.45252037 1.70440412 0.53085244 -0.69274151 0.51524413 0.23354203
-15.58992481 2.30172992 0.43891931 -0.69890141 0.69581670 0.19309717
-15.35437107 1.46722555 1.04702914 -0.68834144 0.44354466 0.46062765
-15.49959755 2.06321263 0.96624070 -0.69485199 0.62371248 0.42508575
-15.72396088 2.92855763 0.37020430 -0.70491028 0.88530773 0.16286685
-20.01214218 0.64852607 -0.43499646 -0.89715081 0.19605048 -0.19137137
-20.24606705 1.42628276 -0.55919087 -0.90763777 0.43116757 -0.24600917
-17.87006378 0.35421079 0.19008555 -0.80112076 0.10707849 0.08362581
-15.24398994 0.85264248 0.05645939 -0.68339300 0.25775519 0.02483862
-20.44499016 2.19265962 -0.64688993 -0.91655552 0.66284454 -0.28459129
-15.41377068 1.43834198 0.00109650 -0.69100434 0.43481311 0.00048239
-15.47775459 2.01057863 -0.10202850 -0.69387275 0.60780114 -0.04488619
-15.86345005 1.04951000 1.71183825 -0.71116364 0.31726858 0.75310224
-16.16132164 2.74975109 -0.19235630 -0.72451729 0.83125418 -0.08462480
-15.55104446 1.65590847 1.62015390 -0.69715840 0.50058383 0.71276689
-17.17355347 0.51293391 0.77745432 -0.76989597 0.15506075 0.34203151
-15.52958584 1.04327631 0.60395837 -0.69619638 0.31538412 0.26570410
-17.95532990 0.28468958 1.43382716 -0.80494326 0.08606212 0.63079470
-16.02700615 0.84382486 1.18484890 -0.71849591 0.25508961 0.52125978
-15.44901085 1.60585213 0.53025067 -0.69258416 0.48545170 0.23327729
-15.56648445 2.19837189 0.43752924 -0.69785053 0.66457134 0.19248563
-15.33944893 1.36862767 1.04519022 -0.68767250 0.41373834 0.45981863
-15.50434017 1.96477211 0.96567702 -0.69506460 0.59395379 0.42483777
-15.71646786 2.82513881 0.36937875 -0.70457435 0.85404402 0.16250366
-15.64514828 2.57518959 0.89696765 -0.70137709 0.77848399 0.39460993
-15.81846333 3.20127344 0.82343507 -0.70914686 0.96775013 0.36226016
-19.94985008 0.52111810 -0.43401712 -0.89435828 0.15753484 -0.19094051
-20.20474434 1.29579604 -0.55815321 -0.90578526 0.39172122 -0.24555266
-18.36781502 0.24807172 0.19918491 -0.82343513 0.07499248 0.08762896
-20.40464783 2.05879164 -0.64555365 -0.91474700 0.62237602 -0.28400341
-15.39062214 1.33873570 0.00080929 -0.68996656 0.40470195 0.00035604
-15.47023582 1.91081238 -0.10207439 -0.69353569 0.57764167 -0.04490638
-15.83054829 0.97238153 1.70744455 -0.70968860 0.29395249 0.75116932
-16.19778252 2.67744708 -0.19243611 -0.72615182 0.80939656 -0.08465991
-15.95417976 1.62231851 1.66485894 -0.71523106 0.49042949 0.73243427
-17.59706116 0.44209698 0.79990864 -0.78888196 0.13364664 0.35191000
-15.26318836 0.95279562 0.59100688 -0.68425369 0.28803167 0.26000622
-18.32305145 0.20374350 1.46592307 -0.82142836 0.06159199 0.64491487
-16.02284050 0.76789856 1.18419158 -0.71830916 0.23213698 0.52097058
-15.37288284 1.52485907 0.52664024 -0.68917131 0.46096736 0.23168892
-15.51331234 2.11626530 0.43518806 -0.69546682 0.63975042 0.19145565
-15.32386875 1.29450977 1.04350460 -0.68697399 0.39133239 0.45907706
-15.49560642 1.88949156 0.96440881 -0.69467306 0.57119638 0.42427984
-15.67051983 2.74078918 0.36747357 -0.70251447 0.82854497 0.16166550
-15.62754250 2.49675035 0.89501333 -0.70058781 0.75477165 0.39375016
-15.86274529 3.13253427 0.82521921 -0.71113199 0.94697016 0.36304507
-19.93408966 0.42673439 -0.43375003 -0.89365172 0.12900250 -0.19082302
-20.19665527 1.19972539 -0.55786264 -0.90542263 0.36267892 -0.24542484
-18.87467957 0.16540112 0.20846772 -0.84615803 0.05000103 0.09171282
-16.01356888 0.72017556 0.06615672 -0.71789348 0.21771024 0.02910484
-20.37829590 1.95920587 -0.64466274 -0.91356564 0.59227109 -0.28361148
-15.38081264 1.26490414 0.00066569 -0.68952680 0.38238257 0.00029286
-15.43736839 1.83288324 -0.10217078 -0.69206226 0.55408359 -0.04494878
-15.81056118 0.87144232 1.70443833 -0.70879257 0.26343843 0.74984676
-16.04833412 2.54947066 -0.19187750 -0.71945202 0.77070910 -0.08441415
-16.09267616 1.53414214 1.67938805 -0.72143990 0.46377364 0.73882622
-18.06675529 0.33978522 0.82481056 -0.80993849 0.10271762 0.36286530
-15.37457943 0.86294919 0.59605414 -0.68924737 0.26087093 0.26222670
-19.15677834 0.09171613 1.53883672 -0.85880458 0.02772593 0.67699236
-15.40603828 1.43042433 0.52767175 -0.69065768 0.43241960 0.23214272
-15.52432156 2.01849103 0.43511492 -0.69596040 0.61019307 0.19142348
-15.31380558 1.19682753 1.04212546 -0.68652290 0.36180291 0.45847031
-15.46952248 1.78769243 0.96173143 -0.69350374 0.54042232 0.42310196
-15.66377163 2.63832092 0.36671153 -0.70221198 0.79756868 0.16133024
-15.72362900 3.23263836 0.26325583 -0.70489538 0.97723180 0.11581618
-15.63305664 2.39701128 0.89436185 -0.70083499 0.72462040 0.39346355
-15.92720699 3.04147410 0.82795489 -0.71402186 0.91944253 0.36424860
-19.90438461 0.30102605 -0.43327522 -0.89232004 0.09100066 -0.19061412
-20.14988518 1.06988633 -0.55674195 -0.90332592 0.32342836 -0.24493180
-18.97932816 0.04695133 0.21037565 -0.85084945 0.01419346 0.09255219
-16.39144897 0.63447374 0.07091630 -0.73483396 0.19180244 0.03119875
-20.34240723 1.82688284 -0.64347494 -0.91195673 0.55226964 -0.28308892
-15.34059143 1.16466904 0.00023488 -0.68772370 0.35208133 0.00010333
-15.40287495 1.73065567 -0.10227634 -0.69051588 0.52318001 -0.04499522
-15.78993130 0.77079266 1.70143211 -0.70786774 0.23301187 0.74852419
-16.02053070 2.44201064 -0.19173120 -0.71820557 0.73822373 -0.08434979
-16.15545464 1.43768883 1.68542325 -0.72425425 0.43461564 0.74148130
-18.59175682 0.23222554 0.85269219 -0.83347452 0.07020216 0.37513149
-15.90441513 0.79317158 0.62110001 -0.71300012 0.23977704 0.27324533
-19.68894005 -0.03001084 1.58541059 -0.88266158 -0.00907232 0.69748199
-17.75023842 0.62942123 1.32600904 -0.79574895 0.19027506 0.58336145
-15.54214191 1.34445262 0.53317344 -0.69675928 0.40643018 0.23456313
-15.49504948 1.91570532 0.43357852 -0.69464809 0.57912081 0.19074756
-15.28521729 1.09806061 1.03936720 -0.68524122 0.33194551 0.45725685
-15.45070553 1.68717253 0.95961773 -0.69266015 0.51003498 0.42217207
-15.63267136 2.53224063 0.36518738 -0.70081770 0.76550043 0.16065972
-15.72598648 3.13024545 0.26280618 -0.70500106 0.94627827 0.11561836
-15.61620903 2.29413867 0.89227724 -0.70007974 0.69352180 0.39254645
-15.89889336 2.93259048 0.82510024 -0.71275252 0.88652682 0.36299273
-19.89588356 0.17587982 -0.43312684 -0.89193892 0.05316876 -0.19054884
-20.13823509 0.94240123 -0.55636835 -0.90280360 0.28488940 -0.24476744
-19.83709335 -0.07648661 0.22611608 -0.88930333 -0.02312203 0.09947700
-16.79885101 0.54506028 0.07605766 -0.75309795 0.16477260 0.03346064
-20.30964661 1.69541705 -0.64238608 -0.91048807 0.51252729 -0.28260988
-15.32765388 1.06689656 0.00005538 -0.68714368 0.32252455 0.00002436
-15.38759327 1.63106847 -0.10233600 -0.68983078 0.49307463 -0.04502147
-16.74512482 0.71321374 1.81219983 -0.75068939 0.21560566 0.79725510
-16.00982666 2.33757901 -0.19164474 -0.71772575 0.70665389 -0.08431175
-15.86703110 1.31196666 1.65189445 -0.71132416 0.39660963 0.72673070
-19.14206314 0.11821447 0.88195729 -0.85814488 0.03573642 0.38800630
-16.24835777 0.70844394 0.63728935 -0.72841913 0.21416375 0.28036764
-20.36574554 -0.15970719 1.64471829 -0.91300297 -0.04827974 0.72357368
-17.61238670 0.51359314 1.31434166 -0.78956902 0.15526004 0.57822853
-15.39690113 1.23467624 0.52655423 -0.69024807 0.37324461 0.23165108
-15.49090195 1.81642711 0.43299323 -0.69446218 0.54910886 0.19049007
-15.28186512 1.00136101 1.03860104 -0.68509096 0.30271304 0.45691979
-15.44711113 1.58861339 0.95863134 -0.69249898 0.48024040 0.42173812
-15.62061405 2.42970276 0.36429831 -0.70027721 0.73450309 0.16026857
-15.74141788 3.03061390 0.26270625 -0.70569289 0.91615945 0.11557440
-15.60264206 2.19212294 0.89045322 -0.69947153 0.66268229 0.39174399
-15.89342403 2.82841015 0.82367295 -0.71250737 0.85503298 0.36236483
-19.84060287 0.05078173 -0.43229589 -0.88946068 0.01535140 -0.19018328
-20.09381104 0.81377780 -0.55533069 -0.90081209 0.24600634 -0.24431093
-17.20775795 0.45060652 0.08122447 -0.77142936 0.13621908 0.03573371
-20.30594254 1.56671250 -0.64203960 -0.91032201 0.47361973 -0.28245744
-15.30012131 0.96846694 -0.00024978 -0.68590939 0.29276910 -0.00010989
-15.36967945 1.53154075 -0.10240026 -0.68902773 0.46298724 -0.04504974
-16.69369125 0.60590237 1.80572486 -0.74838358 0.18316527 0.79440653
-15.98853683 2.23200846 -0.19152504 -0.71677130 0.67473978 -0.08425909
-15.89874363 1.21403146 1.65457678 -0.71274585 0.36700368 0.72791076
-19.42203140 -0.00238737 0.89685583 -0.87069595 -0.00072171 0.39456072
-16.66571236 0.62227297 0.65700227 -0.74712932 0.18811412 0.28904009
-20.55757713 -0.29058763 1.66163838 -0.92160285 -0.08784511 0.73101747
-17.61128044 0.40282604 1.31401289 -0.78951943 0.12177496 0.57808387
-15.38442612 1.13646507 0.52569461 -0.68968880 0.34355521 0.23127291
-15.47023010 1.71549368 0.43182266 -0.69353545 0.51859653 0.18997508
-15.25202084 0.90324879 1.03584266 -0.68375301 0.27305356 0.45570630
-15.39523602 1.48550463 0.95426303 -0.69017345 0.44907045 0.41981632
-15.59602165 2.32566261 0.36302820 -0.69917470 0.70305157 0.15970981
-15.71887970 2.92391777 0.26165700 -0.70468247 0.88390505 0.11511279
-15.51718807 2.08091140 0.88393873 -0.69564056 0.62906289 0.38887802
-15.67283726 2.68736362 0.80928075 -0.70261836 0.81239438 0.35603315
-19.80453491 -0.07370970 -0.43176168 -0.88784373 -0.02228256 -0.18994826
-20.08453941 0.68701679 -0.55504012 -0.90039641 0.20768629 -0.24418309
-17.64811707 0.35170981 0.08679853 -0.79117084 0.10632244 0.03818595
-20.27150536 1.43603206 -0.64095074 -0.90877819 0.43411481 -0.28197843
-15.23601532 0.86842489 -0.00087804 -0.68303549 0.26252624 -0.00038628
-15.35510540 1.43267953 -0.10245533 -0.68837434 0.43310133 -0.04507397
-15.56869793 2.09920335 -0.19008197 -0.69794977 0.63459253 -0.08362424
-15.93229771 2.74961305 -0.26657572 -0.71425009 0.83121246 -0.11727672
-15.88049698 1.13742375 1.65189445 -0.71192783 0.34384504 0.72673070
-15.57939053 1.69340158 1.51650286 -0.69842911 0.51191801 0.66716683
-17.08175278 0.55771744 0.67671520 -0.76578051 0.16859889 0.29771256
-21.55994225 -0.40737653 1.74955332 -0.96653920 -0.12315058 0.76969457
-17.89597130 0.32529622 1.33734787 -0.80228221 0.09833758 0.58834982
-15.55707073 1.07531083 0.53291559 -0.69742852 0.32506821 0.23444968
-15.44634724 1.63915694 0.43065208 -0.69246477 0.49551979 0.18946011
-15.58467388 0.84883177 1.06112707 -0.69866598 0.25660321 0.46682984
-15.39014626 1.41183090 0.95341754 -0.68994522 0.42679876 0.41944435
-15.55140018 2.24421978 0.36125004 -0.69717431 0.67843127 0.15892753
-15.68921185 2.84191680 0.26055780 -0.70335245 0.85911602 0.11462921
-15.53869915 2.00928569 0.88472050 -0.69660491 0.60741031 0.38922194
-15.64791775 2.60719538 0.80702084 -0.70150125 0.78815937 0.35503894
-20.97778511 -0.17814124 -0.44918191 -0.94044089 -0.05385238 -0.19761208
-20.02759552 0.59053445 -0.55379486 -0.89784360 0.17851952 -0.24363527
-18.09948158 0.27590528 0.09252530 -0.81140566 0.08340661 0.04070537
-20.23614883 1.33776164 -0.63991141 -0.90719312 0.40440750 -0.28152117
-15.32583141 1.35708189 -0.10253795 -0.68706203 0.41024804 -0.04511032
-15.93275166 2.04598498 -0.19125904 -0.71427041 0.61850458 -0.08414207
-16.05577469 2.66728544 -0.26743558 -0.71978557 0.80632472 -0.11765501
-15.86551285 1.03622496 1.64943576 -0.71125609 0.31325248 0.72564906
-15.80338383 1.61762726 1.53918958 -0.70847082 0.48901135 0.67714757
-16.34154129 0.82961619 2.25021720 -0.73259658 0.25079432 0.98995548
-20.43731308 -0.22830611 0.95102286 -0.91621137 -0.06901731 0.41839084
-17.53423882 0.46275899 0.69814229 -0.78606564 0.13989279 0.30713916
-18.38795662 0.21923484 1.37777328 -0.82433808 0.06627505 0.60613447
-15.28031731 0.96012521 0.52070868 -0.68502158 0.29024741 0.22907941
-15.38674259 1.53503704 0.42809144 -0.68979269 0.46404418 0.18833359
-15.81279659 0.76134861 1.07828975 -0.70889282 0.23015691 0.47438037
-15.38479996 1.31389785 0.95243114 -0.68970555 0.39719343 0.41901040
-15.54934883 2.14429975 0.36074200 -0.69708234 0.64822525 0.15870403
-15.67131424 2.73704600 0.25965846 -0.70255011 0.82741344 0.11423355
-15.53714943 1.90992761 0.88380843 -0.69653547 0.57737422 0.38882068
-15.63245583 2.50373340 0.80511773 -0.70080805 0.75688267 0.35420167
-21.62210083 -0.32011348 -0.45876750 -0.96932578 -0.09677082 -0.20182914
-20.02291489 0.46449292 -0.55362886 -0.89763379 0.14041696 -0.24356224
-18.59679222 0.16717887 0.09883747 -0.83370024 0.05053844 0.04348233
-20.20423698 1.20824170 -0.63892150 -0.90576249 0.36525342 -0.28108567
-15.82004642 0.72653180 0.00429166 -0.70921779 0.21963173 0.00188806
-15.30017376 1.25792992 -0.10261597 -0.68591177 0.38027424 -0.04514464
-15.91948032 1.94272017 -0.19117258 -0.71367544 0.58728743 -0.08410404
-16.00705719 2.55586433 -0.26691014 -0.71760160 0.77264190 -0.11742384
-15.84988499 0.93525934 1.64697695 -0.71055549 0.28273040 0.72456735
-16.08641815 1.54488289 1.56817818 -0.72115934 0.46702060 0.68990076
-16.32072830 0.72581255 2.24646020 -0.73166353 0.21941431 0.98830265
-21.05848694 -0.36820734 0.98422539 -0.94405878 -0.11130967 0.43299791
-17.96022415 0.36158386 0.71833134 -0.80516267 0.10930739 0.31602105
-15.29602432 0.86464840 0.52113849 -0.68572575 0.26138461 0.22926849
-15.40802193 1.43946087 0.42853040 -0.69074661 0.43515134 0.18852669
-15.36491108 1.21496856 0.95045835 -0.68881392 0.36728695 0.41814250
-15.53476334 2.04294562 0.35985294 -0.69642848 0.61758578 0.15831289
-15.62117958 2.62716651 0.25795969 -0.70030254 0.79419667 0.11348621
-15.50720787 1.80746984 0.88107240 -0.69519317 0.54640102 0.38761699
-15.59658337 2.39751029 0.80202520 -0.69919991 0.72477120 0.35284117
-19.97545624 0.33778083 -0.55259115 -0.89550620 0.10211169 -0.24310571
-21.86840248 -0.73935926 0.26361424 -0.98036760 -0.22350949 0.11597385
-19.17942429 0.05254057 0.10624408 -0.85981983 0.01588310 0.04674078
-20.17548943 1.07938528 -0.63803065 -0.90447372 0.32629991 -0.28069377
-16.15804100 0.63991475 0.00728936 -0.72437024 0.19344726 0.00320686
-15.28982830 1.16038597 -0.10265728 -0.68544799 0.35078654 -0.04516281
-15.92739773 1.84220290 -0.19115928 -0.71403039 0.55690092 -0.08409818
-16.00698853 2.45279598 -0.26678273 -0.71759850 0.74148417 -0.11736780
-15.83361530 0.83453107 1.64451814 -0.70982611 0.25228009 0.72348559
-16.11561584 1.44558096 1.57027888 -0.72246832 0.43700147 0.69082493
-16.50691223 0.62997216 2.27304888 -0.74001026 0.19044159 1.00000000
-16.27560806 1.22819245 2.16171241 -0.72964078 0.37128457 0.95101887
-15.89099789 2.61639428 1.35889125 -0.71239859 0.79094023 0.59782755
-18.46751022 0.25630042 0.74242491 -0.82790446 0.07748003 0.32662073
-19.45165443 -0.01135564 1.46536160 -0.87202400 -0.00343283 0.64466786
-15.89788914 0.79770201 0.54684174 -0.71270752 0.24114661 0.24057633
-15.40481663 1.34156549 0.42809144 -0.69060290 0.40555742 0.18833359
-18.38803482 0.65055984 1.27566063 -0.82434160 0.19666529 0.56121129
-15.34239864 1.11619377 0.94834465 -0.68780470 0.33742717 0.41721261
-15.50761604 1.94038606 0.35858282 -0.69521147 0.58658183 0.15775412
-15.63145828 2.52799916 0.25780982 -0.70076334 0.76421821 0.11342027
-15.49048138 1.70697606 0.87924838 -0.69444329 0.51602161 0.38681456
-15.58566666 2.29565215 0.80047894 -0.69871050 0.69397932 0.35216090
-21.83825684 -0.59807587 -0.46206161 -0.97901613 -0.18079931 -0.20327835
-19.95319176 0.21198612 -0.55209309 -0.89450806 0.06408375 -0.24288659
-19.68133354 -0.06921410 0.11263261 -0.88232058 -0.02092353 0.04955134
-20.13593674 0.95047653 -0.63689232 -0.90270060 0.28733060 -0.28019297
-16.74941635 0.55721551 0.01256676 -0.75088179 0.16844715 0.00552859
-15.25292778 1.06118262 -0.10275825 -0.68379372 0.32079720 -0.04520723
-15.88298225 1.73607850 -0.19097309 -0.71203923 0.52481931 -0.08401627
-15.99438572 2.34807158 -0.26655981 -0.71703351 0.70982581 -0.11726972
-15.91034031 1.32618022 1.54759204 -0.71326572 0.40090641 0.68084413
-16.24546814 1.12326384 2.15640783 -0.72828960 0.33956447 0.94868523
-16.24733734 2.57075930 1.39092195 -0.72837341 0.77714467 0.61191905
-19.04208374 0.14524686 0.76975638 -0.85366279 0.04390836 0.33864489
-20.34016800 -0.13874806 1.53865314 -0.91185635 -0.04194376 0.67691159
-16.15412712 0.70851296 0.55767322 -0.72419477 0.21418461 0.24534149
-15.36911869 1.24115109 0.42648187 -0.68900257 0.37520197 0.18762547
-15.29934692 1.01640105 0.94482183 -0.68587470 0.30725968 0.41566280
-15.49369240 1.83988035 0.35775727 -0.69458723 0.55619878 0.15739092
-15.60752773 2.42354798 0.25681055 -0.69969052 0.73264247 0.11298066
-15.46317959 1.60574615 0.87677288 -0.69321936 0.48541966 0.38572550
-15.57013512 2.19346404 0.79869479 -0.69801420 0.66308773 0.35137600
-19.91613770 0.08640954 -0.55130440 -0.89284694 0.02612174 -0.24253961
-20.11154366 0.82274514 -0.63614988 -0.90160704 0.24871719 -0.27986634
-17.13644409 0.46185535 0.01601322 -0.76823235 0.13961962 0.00704482
-15.25330734 0.96493858 -0.10277203 -0.68381071 0.29170248 -0.04521329
-15.88163853 1.63503540 -0.19093318 -0.71197903 0.49427384 -0.08399872
-15.96526051 2.24135828 -0.26620951 -0.71572781 0.67756623 -0.11711562
-16.73653984 0.67019945 1.74510455 -0.75030452 0.20260237 0.76773739
-15.89654732 1.22447896 1.54528141 -0.71264738 0.37016198 0.67982763
-16.28580284 1.02332222 2.16115403 -0.73009783 0.30935195 0.95077324
-15.62364483 1.78485882 1.44466305 -0.70041305 0.53956568 0.63556182
-15.76711082 2.39269876 1.34426451 -0.70684469 0.72331667 0.59139270
-15.97008991 1.59478521 2.03269362 -0.71594429 0.48210615 0.89425868
-19.35626411 0.02635647 0.78470767 -0.86774760 0.00796760 0.34522253
-20.58803177 -0.26956135 1.55919445 -0.92296815 -0.08148883 0.68594849
-16.64548683 0.62468976 0.57864839 -0.74622256 0.18884473 0.25456926
-15.35070515 1.14259744 0.42553079 -0.68817711 0.34540904 0.18720706
-18.43861961 0.42039528 1.27903187 -0.82660931 0.12708618 0.56269437
-15.23971939 0.91621453 0.94017166 -0.68320155 0.27697313 0.41361701
-15.46322441 1.73786116 0.35642365 -0.69322139 0.52535826 0.15680422
-15.58290291 2.31949759 0.25581127 -0.69858658 0.70118785 0.11254103
-15.39548683 1.50110567 0.87169158 -0.69018465 0.45378667 0.38349003
-15.51436901 2.08618903 0.79453176 -0.69551420 0.63065833 0.34954453
-19.84630394 -0.03866351 -0.54985166 -0.88971627 -0.01168804 -0.24190050
-20.09833145 0.69576085 -0.63570446 -0.90101475 0.21032962 -0.27967039
-17.62889481 0.36371750 0.02041105 -0.79030907 0.10995238 0.00897959
-15.25307846 0.86873168 -0.10278580 -0.68380046 0.26261899 -0.04521935
-15.83342838 1.55477571 -0.19074698 -0.70981771 0.47001120 -0.08391680
-16.04499626 2.17559147 -0.26676682 -0.71930242 0.65768480 -0.11736079
-16.80903244 0.59369451 1.75292790 -0.75355440 0.17947480 0.77117914
-15.89023972 1.14867938 1.54402101 -0.71236461 0.34724763 0.67927313
-15.62792587 1.71078658 1.44426239 -0.70060498 0.51717353 0.63538551
-15.78412056 2.31924772 1.34481990 -0.70760727 0.70111233 0.59163702
-15.52484703 2.05163527 1.86915827 -0.69598395 0.62021267 0.82231325
-19.88157463 -0.06606615 0.80975360 -0.89129746 -0.01997191 0.35624117
-21.63482666 -0.38420761 1.64563251 -0.96989632 -0.11614658 0.72397584
-17.07164383 0.55961764 0.59687275 -0.76532733 0.16917332 0.26258686
-15.31604671 1.06741452 0.42406756 -0.68662333 0.32268113 0.18656333
-18.34469032 0.33187571 1.27167642 -0.82239842 0.10032656 0.55945843
-15.44902611 0.85602742 0.95468575 -0.69258487 0.25877848 0.42000228
-15.45335197 1.66307175 0.35585210 -0.69277877 0.50274926 0.15655278
-15.55606651 2.24057508 0.25486195 -0.69738352 0.67732948 0.11212339
-15.42226410 1.43035674 0.87299448 -0.69138509 0.43239915 0.38406321
-15.52402687 2.01305652 0.79453176 -0.69594717 0.60855025 0.34954453
-22.13452148 -0.45782405 0.14391349 -0.99229777 -0.13840096 0.06331298
-20.07540703 0.60029173 -0.63506103 -0.89998698 0.18146916 -0.27938733
-18.00635719 0.28619006 0.02378571 -0.80723083 0.08651572 0.01046423
-15.42276478 0.80572253 -0.10240485 -0.69140756 0.24357122 -0.04505176
-15.77117920 1.44876719 -0.19050758 -0.70702708 0.43796465 -0.08381148
-15.94332790 2.05972791 -0.26584327 -0.71474457 0.62265909 -0.11695449
-15.86340714 1.04654706 1.54044998 -0.71116167 0.31637287 0.67770207
-16.15368080 0.83663797 2.14105272 -0.72417474 0.25291702 0.94192994
-15.62054920 1.61074638 1.44245923 -0.70027429 0.48693123 0.63459224
-15.72542953 2.20968175 1.33796942 -0.70497608 0.66799039 0.58862323
-17.50029182 0.46310750 0.61518312 -0.78454375 0.13999814 0.27064228
-15.25663280 0.96690136 0.42165324 -0.68395978 0.29229584 0.18550117
-18.45010185 0.21771608 1.27964485 -0.82712406 0.06581593 0.56296408
-15.79481697 0.77612346 0.97878200 -0.70808679 0.23462337 0.43060315
-15.42172527 1.56176841 0.35451847 -0.69136095 0.47212511 0.15596606
-15.53617191 2.13811207 0.25401258 -0.69649160 0.64635473 0.11174972
-15.40509510 1.33122849 0.87130076 -0.69061542 0.40243253 0.38331810
-15.50863361 1.91202080 0.79286653 -0.69525707 0.57800698 0.34881192
-21.91929626 -0.59136885 0.14121555 -0.98264915 -0.17877176 0.06212605
-20.05079651 0.47351077 -0.63436812 -0.89888370 0.14314307 -0.27908248
-18.56175804 0.17774552 0.02875795 -0.83212966 0.05373276 0.01265171
-20.00240517 0.92502970 -0.09189450 -0.89671433 0.27963796 -0.04042786
-15.74210453 1.34645629 -0.19038121 -0.70572364 0.40703592 -0.08375588
-15.92816830 1.95606494 -0.26562035 -0.71406496 0.59132159 -0.11685642
-18.05505943 0.40912336 1.89240766 -0.80941415 0.12367865 0.83254158
-15.86569881 0.94661230 1.54002976 -0.71126443 0.28616244 0.67751724
-16.15268517 0.73484808 2.14021516 -0.72413009 0.22214577 0.94156146
-16.07607079 1.55511773 1.48753703 -0.72069550 0.47011459 0.65442371
-15.94226265 2.13835835 1.35703969 -0.71469682 0.64642918 0.59701300
-21.47119141 -0.33956283 0.88565308 -0.96256047 -0.10265039 0.38963223
-17.94237137 0.36149842 0.63409519 -0.80436236 0.10928155 0.27896240
-15.25043583 0.87032342 0.42121425 -0.68368196 0.26310018 0.18530805
-16.07044220 0.68882889 0.99794626 -0.72044313 0.20823409 0.43903422
-15.42526245 1.46428180 0.35432798 -0.69151950 0.44265476 0.15588225
-15.51758671 2.03625059 0.25321317 -0.69565845 0.61556184 0.11139803
-15.52258301 1.24302876 0.87846661 -0.69588244 0.37576962 0.38647062
-15.47672272 1.80938303 0.79024976 -0.69382650 0.54697943 0.34766069
-20.01339340 0.34686702 -0.63337827 -0.89720690 0.10485846 -0.27864701
-19.08448601 0.06226247 0.03344298 -0.85556370 0.01882205 0.01471283
-19.98983574 0.79859668 -0.09193581 -0.89615083 0.24141707 -0.04044604
-15.73031425 1.24596632 -0.19031473 -0.70519507 0.37665763 -0.08372663
-15.91829586 1.85337543 -0.26544517 -0.71362239 0.56027836 -0.11677935
-18.11092949 0.29649085 1.89844275 -0.81191885 0.08962967 0.83519661
-15.84750175 0.84560490 1.53750908 -0.71044862 0.25562772 0.67640829
-16.37860870 0.64231074 2.17148376 -0.73425835 0.19417158 0.95531768
-16.34319687 1.47704422 1.51358187 -0.73267084 0.44651285 0.66588181
-15.97513390 2.04069686 1.35889125 -0.71617043 0.61690593 0.59782755
-22.28552246 -0.49174216 0.92460275 -0.99906719 -0.14865445 0.40676764
-18.42380524 0.25486067 0.65472651 -0.82594514 0.07704479 0.28803891
-15.84440899 0.80516374 0.44279686 -0.71030998 0.24340230 0.19480304
-19.42052269 -0.01595709 1.35411870 -0.87062836 -0.00482385 0.59572792
-16.44127464 0.60172158 1.02387440 -0.73706770 0.18190141 0.45044100
-15.39233875 1.36368418 0.35299435 -0.69004357 0.41224393 0.15529554
-15.49040127 1.93370628 0.25221390 -0.69443971 0.58456254 0.11095841
-15.51217175 1.14417577 0.87729400 -0.69541568 0.34588617 0.38595474
-15.46199226 1.70921946 0.78870350 -0.69316614 0.51669979 0.34698045
-19.98118973 0.22077222 -0.63253689 -0.89576322 0.06673980 -0.27827686
-19.63047409 -0.05988042 0.03834342 -0.88004053 -0.01810195 0.01686872
-17.20214462 0.57615495 -0.09834758 -0.77117771 0.17417257 -0.04326681
-15.22913742 1.11068702 -0.18861893 -0.68272716 0.33576247 -0.08298059
-15.87993526 1.74778867 -0.26504710 -0.71190268 0.52835935 -0.11660422
-16.19548416 1.36135662 1.49775457 -0.72604883 0.41154030 0.65891880
-15.91055298 1.93082821 1.35167038 -0.71327525 0.58369249 0.59465080
-16.16479683 1.12808502 2.05361271 -0.72467309 0.34102193 0.90346175
-19.03446770 0.14302421 0.68094552 -0.85332137 0.04323645 0.29957363
-16.05879593 0.71519750 0.45047876 -0.71992105 0.21620536 0.19818261
-20.41507339 -0.14609051 1.43058455 -0.91521436 -0.04416339 0.62936813
-16.84553337 0.51105022 1.05219805 -0.75519073 0.15449131 0.46290165
-15.39064121 1.26613867 0.35267684 -0.68996745 0.38275576 0.15515585
-15.47643757 1.83324850 0.25156438 -0.69381374 0.55419397 0.11067267
-15.50909805 1.04602957 0.87664258 -0.69527787 0.31621644 0.38566816
-15.44264507 1.60889351 0.78691936 -0.69229877 0.48637110 0.34619552
-19.94819450 0.09509578 -0.63169551 -0.89428401 0.02874761 -0.27790669
-20.72760773 -0.19460551 0.04819815 -0.92922539 -0.05882956 0.02120418
-17.98111153 0.49007922 -0.09656679 -0.80609906 0.14815174 -0.04248337
-15.30965805 1.01979864 -0.18886499 -0.68633693 0.30828679 -0.08308884
-15.85281277 1.64401042 -0.26474458 -0.71068674 0.49698702 -0.11647113
-16.67758369 0.68090701 1.62426496 -0.74766147 0.20583929 0.71457547
-15.85252476 1.23271370 1.46229351 -0.71067381 0.37265134 0.64331812
-16.17354393 1.02662015 2.05388069 -0.72506523 0.31034893 0.90357965
-15.93095589 1.59847438 1.91418469 -0.71418995 0.48322138 0.84212208
-19.48457336 0.02349799 0.70028740 -0.87349975 0.00710348 0.30808285
-16.54027939 0.63314176 0.46796432 -0.74150610 0.19139977 0.20587517
-20.60516739 -0.27712181 1.44529545 -0.92373633 -0.08377437 0.63584000
-17.29914474 0.41658145 1.08404458 -0.77552629 0.12593324 0.47691214
-15.34646225 1.16554451 0.35102570 -0.68798691 0.35234597 0.15442945
-15.45586491 1.73236680 0.25076497 -0.69289142 0.52369726 0.11032097
-15.26833248 0.93378460 0.86048675 -0.68448430 0.28228459 0.37856060
-15.38092709 1.50474131 0.78263736 -0.68953198 0.45488572 0.34431171
-19.93040276 -0.03019784 -0.63125008 -0.89348644 -0.00912886 -0.27771074
-18.06581497 0.37890336 -0.09637861 -0.80989635 0.11454310 -0.04240059
-15.27237034 0.94510412 -0.18872534 -0.68466532 0.28570649 -0.08302740
-15.80068493 1.56330407 -0.26426688 -0.70834982 0.47258934 -0.11626098
-16.73228264 0.60423750 1.62972653 -0.75011367 0.18266197 0.71697819
-15.92961216 1.16312289 1.46950591 -0.71412969 0.35161394 0.64649111
-15.59832478 1.71869707 1.32056546 -0.69927794 0.51956493 0.58096659
-20.19979858 -0.07157576 0.73106253 -0.90556353 -0.02163747 0.32162201
-16.96254539 0.56978416 0.48332819 -0.76043642 0.17224668 0.21263431
-21.77197266 -0.39659166 1.53509307 -0.97604460 -0.11989030 0.67534536
-18.42587471 0.35816601 1.16351998 -0.82603794 0.10827416 0.51187634
-15.33184338 1.09181976 0.35039064 -0.68733150 0.33005887 0.15415007
-15.44397926 1.65735435 0.25026533 -0.69235861 0.50102091 0.11010116
-15.39013386 0.86830187 0.86817378 -0.68994468 0.26248905 0.38194242
-15.41368580 1.43468320 0.78418368 -0.69100052 0.43370706 0.34499201
-18.73329735 0.30534315 -0.09485025 -0.83981979 0.09230573 -0.04172821
-15.31794834 0.85129356 -0.18885835 -0.68670857 0.25734740 -0.08308592
-15.77037144 1.46025610 -0.26394841 -0.70699090 0.44143778 -0.11612087
-17.34009552 0.51785189 1.69358563 -0.77736211 0.15654746 0.74507225
-15.92072010 1.06197262 1.46790314 -0.71373105 0.32103604 0.64578599
-15.72962570 1.63335860 1.33185959 -0.70516425 0.49376693 0.58593529
-16.08686638 0.84375995 2.04073930 -0.72117943 0.25507000 0.89779824
-16.26960373 1.45236313 1.95564973 -0.72937161 0.43905172 0.86036414
-17.41330719 0.47594953 0.49971631 -0.78064424 0.14388031 0.21984407
-18.44371986 0.24261403 1.16464722 -0.82683796 0.07334261 0.51237226
-15.32443619 0.99457830 0.34994611 -0.68699944 0.30066264 0.15395451
-15.41430855 1.55621600 0.24926604 -0.69102848 0.47044662 0.10966154
-15.90359783 0.79638976 0.90139747 -0.71296346 0.24074991 0.39655876
-15.55564308 1.34954333 0.79215288 -0.69736451 0.40796912 0.34849796
-20.13451958 0.48941499 -0.76666760 -0.90263706 0.14795095 -0.33728603
-19.10482216 0.19174017 -0.09400116 -0.85647535 0.05796336 -0.04135466
-17.21680832 0.84583193 -0.19516267 -0.77183509 0.25569636 -0.08585943
-15.74337387 1.35799992 -0.26366180 -0.70578057 0.41052556 -0.11599478
-17.96137619 0.42419586 1.75891507 -0.80521435 0.12823509 0.77381313
-15.87940311 0.95910108 1.46309483 -0.71187878 0.28993779 0.64367062
-15.37691498 1.49866700 1.29797745 -0.68935210 0.45304945 0.57102925
-16.09383011 0.74275607 2.04100752 -0.72149163 0.22453636 0.89791626
-15.81189251 1.31083298 1.89561450 -0.70885229 0.39626694 0.83395237
-21.49391556 -0.34759733 0.78685313 -0.96357924 -0.10507923 0.34616640
-17.83956718 0.37593982 0.51522648 -0.79975361 0.11364722 0.22666758
-15.24656200 0.89347303 0.34727886 -0.68350834 0.27009833 0.15278108
-15.40387917 1.45742548 0.24876641 -0.69056088 0.44058207 0.10944173
-16.21535683 0.70949966 0.92146194 -0.72693974 0.21448289 0.40538588
-15.51805019 1.24803746 0.78941715 -0.69567925 0.37728375 0.34729439
-19.83764076 0.07522421 -0.09232134 -0.88932788 0.02274040 -0.04061564
-17.87721252 0.76493800 -0.19734392 -0.80144125 0.23124199 -0.08681904
-15.71372128 1.25597882 -0.26335925 -0.70445120 0.37968442 -0.11586168
-18.13072968 0.31441778 1.77656031 -0.81280649 0.09504900 0.78157592
-15.87716675 0.85888976 1.46229351 -0.71177852 0.25964376 0.64331812
-15.52880096 1.41522145 1.31130803 -0.69616121 0.42782372 0.57689393
-16.37148285 0.65216905 2.07801819 -0.73393887 0.19715175 0.91419864
-15.88706017 1.21669495 1.90426362 -0.71222204 0.36780885 0.83775747
-22.30632973 -0.50171465 0.82192641 -1.00000000 -0.15166914 0.36159647
-18.30520630 0.27122864 0.53219992 -0.82062835 0.08199286 0.23413484
-19.23534393 0.01216534 1.22044909 -0.86232668 0.00367760 0.53692162
-15.77093983 0.82411253 0.36379027 -0.70701635 0.24913055 0.16004507
-15.38883591 1.35847068 0.24816684 -0.68988651 0.41066787 0.10917796
-16.53860474 0.61915612 0.94230819 -0.74143100 0.18717189 0.41455695
-15.52558517 1.15051067 0.78941715 -0.69601703 0.34780124 0.34729439
-19.74772072 -0.04928809 -0.09252788 -0.88529670 -0.01489987 -0.04070651
-18.03157043 0.65789807 -0.19784267 -0.80836117 0.19888365 -0.08703846
-16.04438782 1.18142343 -0.26593882 -0.71927512 0.35714620 -0.11699653
-15.88622570 0.75929922 1.46269417 -0.71218467 0.22953738 0.64349437
-15.43818283 1.30908072 1.30205071 -0.69209874 0.39573720 0.57282126
-16.51986313 0.55396277 2.09759617 -0.74059081 0.16746384 0.92281175
-15.89043427 1.11656713 1.90375483 -0.71237332 0.33754006 0.83753359
-18.86415100 0.16158652 0.55261189 -0.84568602 0.04884787 0.24311483
-20.44202042 -0.11423751 1.30570185 -0.91642243 -0.03453418 0.57442755
-15.84969521 0.72830552 0.36613998 -0.71054697 0.22016793 0.16107880
-15.37315750 1.25976253 0.24756728 -0.68918365 0.38082823 0.10891419
-16.88727951 0.52555394 0.96484816 -0.75706220 0.15887581 0.42447314
-15.51657391 1.05183744 0.78846562 -0.69561303 0.31797215 0.34687579
-18.67107582 0.56306916 -0.19995742 -0.83703041 0.17021672 -0.08796881
-16.39667130 1.10426676 -0.26869354 -0.73506808 0.33382162 -0.11820843
-20.35286522 0.09964670 2.01099014 -0.91242558 0.03012336 0.88471049
-16.19887352 0.67186409 1.49374771 -0.72620076 0.20310560 0.65715599
-15.41235638 1.20936179 1.29890311 -0.69094092 0.36559203 0.57143652
-15.88129997 1.01567006 1.90171981 -0.71196383 0.30703869 0.83663833
-19.14860153 0.04401091 0.56300080 -0.85843801 0.01330457 0.24768530
-20.41695976 -0.24241503 1.30401099 -0.91529894 -0.07328245 0.57368368
-16.51513863 0.65407622 0.38716024 -0.74037904 0.19772829 0.17032640
-15.34688091 1.16053820 0.24671791 -0.68800563 0.35083258 0.10854052
-17.25536919 0.42806566 0.98869103 -0.77356380 0.12940493 0.43496251
-15.29174232 0.93981057 0.77466816 -0.68553376 0.28410625 0.34080577
-20.94806671 -0.01657697 -0.79187989 -0.93910861 -0.00501125 -0.34837785
-18.82547569 0.47877821 -0.20046282 -0.84395218 0.14473543 -0.08819116
-17.15812874 1.07529116 -0.27472842 -0.76920450 0.32506225 -0.12086340
-20.35907555 0.00374239 2.01162052 -0.91270399 0.00113133 0.88498777
-16.65925789 0.61175925 1.53982723 -0.74683994 0.18493581 0.67742813
-15.45958614 1.13984942 1.30279124 -0.69305825 0.34457833 0.57314706
-15.82848549 0.93734568 1.89434254 -0.70959616 0.28336111 0.83339280
-19.84013367 -0.04715978 0.58831459 -0.88943964 -0.01425648 0.25882179
-21.52868271 -0.35597798 1.38264084 -0.96513784 -0.10761272 0.60827589
-16.91361237 0.58955610 0.39973429 -0.75824273 0.17822376 0.17585820
-15.32027245 1.08590102 0.24591850 -0.68681276 0.32826963 0.10818883
-17.65228271 0.35421994 1.01448822 -0.79135758 0.10708126 0.44631165
-15.32390499 0.86935991 0.77633339 -0.68697566 0.26280892 0.34153837
-22.04151154 -0.43355265 -0.08725435 -0.98812813 -0.13106367 -0.03838648
-19.63997650 0.37515250 -0.20316277 -0.88046652 0.11340921 -0.08937898
-15.31566429 0.86105812 -0.25998351 -0.68660623 0.26029927 -0.11437656
-20.35272980 -0.12414625 2.01099014 -0.91241950 -0.03752961 0.88471049
-17.38680267 0.52822393 1.61275291 -0.77945602 0.15968294 0.70951086
-15.40286827 1.03832233 1.29686654 -0.69051558 0.31388652 0.57054055
-15.82019615 0.83712298 1.89256179 -0.70922452 0.25306362 0.83260936
-22.05258179 -0.50275767 1.41984200 -0.98862439 -0.15198445 0.62464207
-17.37258339 0.49574113 0.41421351 -0.77881855 0.14986335 0.18222816
-15.26893616 0.98580754 0.24446955 -0.68451136 0.29801121 0.10755138
-18.23687363 0.25066042 1.05253255 -0.81756496 0.07577505 0.46304879
-15.70788479 0.79266804 0.79893267 -0.70418960 0.23962483 0.35148063
-19.86792946 0.25440663 -0.20391424 -0.89068574 0.07690754 -0.08970957
-17.95922470 0.90002894 -0.28101808 -0.80511785 0.27208021 -0.12363046
-20.71152306 -0.25612092 2.04901147 -0.92850429 -0.07742577 0.90143746
-17.48726082 0.42120427 1.62256992 -0.78395957 0.12733074 0.71382976
-15.35343647 0.93804938 1.29168236 -0.68829954 0.28357384 0.56825984
-21.33882332 -0.31735849 0.64325875 -0.95662636 -0.09593798 0.28299379
-17.78905487 0.39529675 0.42735913 -0.79748911 0.11949885 0.18801141
-15.23291588 0.88735360 0.24342032 -0.68289655 0.26824844 0.10708979
-19.01841164 0.14102221 1.10347545 -0.85260159 0.04263124 0.48546049
-16.26101494 0.71889132 0.83164215 -0.72898656 0.21732201 0.36587077
-19.80713654 0.12922771 -0.20370810 -0.88796037 0.03906574 -0.08961888
-18.06042671 0.79148161 -0.28178242 -0.80965477 0.23926617 -0.12396672
-18.08646011 0.32125181 1.68267357 -0.81082189 0.09711494 0.74027163
-15.76264954 0.86421382 1.32926750 -0.70664471 0.26125324 0.58479494
-16.61633682 0.67099887 1.99355328 -0.74491578 0.20284404 0.87703931
-22.21963501 -0.46927202 0.67559600 -0.99611342 -0.14186169 0.29722017
-18.24291039 0.29019991 0.44171134 -0.81783557 0.08772790 0.19432549
-15.77526093 0.82024419 0.25686049 -0.70721006 0.24796115 0.11300263
-19.51386833 0.02155486 1.13578713 -0.87481302 0.00651607 0.49967563
-16.61432457 0.63038057 0.85245728 -0.74482554 0.19056506 0.37502813
-19.83355713 0.00475365 -0.20379454 -0.88914478 0.00143704 -0.08965691
-18.82445145 0.70734632 -0.28783321 -0.84390628 0.21383193 -0.12662870
-15.90301609 0.77189559 1.34185755 -0.71293736 0.23334529 0.59033376
-16.70943832 0.56973332 2.00500059 -0.74908954 0.17223130 0.88207543
-18.76209259 0.17997637 0.45815921 -0.84111071 0.05440715 0.20156153
-16.00778008 0.73180777 0.26255634 -0.71763396 0.22122666 0.11550844
-20.20214081 -0.10533725 1.18073678 -0.90566856 -0.03184362 0.51945066
-17.02501488 0.53936023 0.87672180 -0.76323694 0.16304946 0.38570303
-20.67116928 -0.12578724 -0.20658095 -0.92669523 -0.03802569 -0.09088276
-18.88649178 0.59093183 -0.28829500 -0.84668756 0.17863965 -0.12683186
-19.17755699 0.09838080 1.79226255 -0.85973608 0.02974068 0.78848398
-19.08269119 0.06279956 0.46832007 -0.85548323 0.01898441 0.20603168
-16.48152733 0.65031779 0.27429777 -0.73887223 0.19659212 0.12067395
-20.46050644 -0.23551218 1.19767439 -0.91725117 -0.07119571 0.52690220
-17.42123032 0.44283199 0.90015364 -0.78099942 0.13386883 0.39601156
-19.70273018 0.52442235 -0.29477575 -0.88327980 0.15853372 -0.12968299
-19.82652855 0.00759083 1.85757518 -0.88882971 0.00229472 0.81721741
-16.49955750 0.61984396 1.39666152 -0.73968053 0.18737982 0.61444414
-19.81240463 -0.02894066 0.49149954 -0.88819653 -0.00874881 0.21622920
-16.88002968 0.58687520 0.28419057 -0.75673723 0.17741331 0.12502615
-21.57862091 -0.35120192 1.27076638 -0.96737659 -0.10616891 0.55905807
-17.82830811 0.36959389 0.92429918 -0.79924881 0.11172883 0.40663409
-22.01830864 -0.37745211 -0.21106979 -0.98708791 -0.11410438 -0.09285757
-19.95757103 0.40599886 -0.29678208 -0.89470440 0.12273411 -0.13056564
-20.35350609 -0.12063461 1.91066670 -0.91245431 -0.03646804 0.84057438
-17.40674973 0.54553920 1.48071885 -0.78035027 0.16491738 0.65142411
-17.31306076 0.49355808 0.29493272 -0.77615011 0.14920340 0.12975204
-22.10072517 -0.49910995 1.30503237 -0.99078268 -0.15088174 0.57413298
-18.19558716 0.26326260 0.94606590 -0.81571406 0.07958471 0.41621011
-19.86174202 0.27911720 -0.29600185 -0.89040834 0.08437758 -0.13022238
-20.61897659 -0.25203842 1.93751299 -0.92435539 -0.07619162 0.85238510
-17.42974091 0.43668130 1.48257029 -0.78138095 0.13200946 0.65223861
-21.25958061 -0.29971781 0.53754091 -0.95307392 -0.09060518 0.23648454
-17.73757362 0.39463499 0.30547503 -0.79518116 0.11929879 0.13439000
-18.62809944 0.15294316 0.97175771 -0.83510375 0.04623497 0.42751288
-19.86510468 0.15433510 -0.29601777 -0.89055908 0.04665575 -0.13022938
-18.01351738 0.33874857 1.53663373 -0.80755180 0.10240424 0.67602319
-22.06668663 -0.45056170 0.56326056 -0.98925674 -0.13620552 0.24779958
-18.20348930 0.29111475 0.31706655 -0.81606835 0.08800445 0.13948955
-19.10783958 0.03734355 1.00030422 -0.85661066 0.01128902 0.44007158
-19.81968307 0.02940131 -0.29565153 -0.88852280 0.00888806 -0.13006827
-18.40756035 0.23091470 1.57310796 -0.82521689 0.06980588 0.69206959
-18.72076797 0.18231761 0.32995713 -0.83925807 0.05511491 0.14516060
-19.62078476 -0.08438944 1.03087270 -0.87960613 -0.02551106 0.45351982
-18.96025467 0.11931572 1.62439406 -0.84999436 0.03606933 0.71463227
-19.14740753 0.06662286 0.34059936 -0.85838449 0.02014020 0.14984252
-21.03872490 -0.19887730 -0.30536470 -0.94317287 -0.06012093 -0.13434146
-19.53811455 0.03149884 1.67808700 -0.87590003 0.00952215 0.73825383
-19.64135361 -0.02369189 0.35294035 -0.88052827 -0.00716210 0.15527178
-21.49714851 -0.32691070 1.14279854 -0.96372414 -0.09882563 0.50276023
-21.88694191 -0.34361565 -0.31213206 -0.98119873 -0.10387556 -0.13731867
-20.28270912 -0.09396618 1.74733257 -0.90928042 -0.02840613 0.76871753
-20.44102287 -0.22298279 1.76214445 -0.91637766 -0.06740806 0.77523386
-21.13091850 -0.28950137 0.39021316 -0.94730592 -0.08751673 0.17166950
