-15.63965893 7.92649126 0.18384808 -0.75435394 0.96599209 0.08355115
-15.62828255 7.79778528 0.18260059 -0.75380522 0.95030689 0.08298422
-15.57308865 7.69351053 1.38236904 -0.75114304 0.93759900 0.62822807
-15.61411190 7.66865635 0.18131641 -0.75312173 0.93457007 0.08240061
-15.64489841 7.87865400 0.79533261 -0.75460666 0.96016222 0.36144492
-15.63546276 7.60246372 1.38376451 -0.75415152 0.92650324 0.62886226
-15.63316441 7.55650949 0.18072936 -0.75404066 0.92090285 0.08213383
-15.56876564 7.71825075 0.78788334 -0.75093454 0.94061410 0.35805956
-15.63077259 7.47919607 1.37870598 -0.75392532 0.91148078 0.62656337
-15.63516426 7.43671513 0.17981209 -0.75413716 0.90630370 0.08171697
-15.61214161 7.64830494 0.78830904 -0.75302666 0.93208987 0.35825303
-15.62078762 7.38422108 1.37434506 -0.75344372 0.89990628 0.62458152
-15.60122395 7.33071947 0.17841783 -0.75250012 0.89338613 0.08108333
-15.74885082 8.10838413 0.08758755 -0.75962061 0.98815918 0.03980483
-15.61128902 7.52669954 0.78543574 -0.75298554 0.91726995 0.35694721
-15.60361004 7.25659657 1.36823988 -0.75261515 0.88435286 0.62180698
-15.60157299 7.21162844 0.17750055 -0.75251693 0.87887263 0.08066647
-15.66043568 7.93858242 0.08560227 -0.75535607 0.96746564 0.03890260
-15.61494255 7.40796900 0.78288168 -0.75316179 0.90280044 0.35578650
-15.60901546 7.14022732 1.36440229 -0.75287592 0.87017107 0.62006295
-15.67479515 7.88018608 1.30809700 -0.75604868 0.96034896 0.59447461
-15.61197090 7.09777546 0.17680342 -0.75301844 0.86499751 0.08034965
-15.69927597 7.83465862 0.08544955 -0.75722945 0.95480061 0.03883320
-15.60866737 7.28527784 0.77979553 -0.75285912 0.88784820 0.35438398
-15.66463375 8.03741074 0.70128489 -0.75555855 0.97950971 0.31870425
-15.60448551 7.02000093 1.35969257 -0.75265741 0.85551924 0.61792260
-15.62937069 7.73457718 1.29938745 -0.75385773 0.94260377 0.59051651
-15.56858730 6.96047211 0.17504226 -0.75092590 0.84826452 0.07954928
-15.66746521 7.69609165 0.08430420 -0.75569510 0.93791360 0.03831268
-15.75885201 7.94048643 1.91533637 -0.76010305 0.96769768 0.87043911
-15.60328579 7.16378975 0.77681583 -0.75259954 0.87304258 0.35302985
-15.60611820 7.88375473 0.69547582 -0.75273615 0.96078384 0.31606427
-15.58630180 6.89448786 1.35376179 -0.75178033 0.84022307 0.61522728
-15.65437698 7.62484932 1.29725122 -0.75506383 0.92923135 0.58954567
-15.57538223 6.84646511 0.17430843 -0.75125366 0.83437061 0.07921579
-15.65972805 7.57045078 0.08351518 -0.75532192 0.92260188 0.03795411
-15.38044548 6.98028469 1.92254865 -0.74185121 0.85067904 0.87371683
-15.90981579 7.89174843 1.92851746 -0.76738453 0.96175802 0.87642938
-15.59699631 7.04265833 0.77383608 -0.75229615 0.85828042 0.35167566
-15.66964722 7.79267693 0.69623762 -0.75580037 0.94968432 0.31641045
-15.60006428 6.78374338 1.35097086 -0.75244415 0.82672679 0.61395895
-15.64988041 7.50129414 1.29248559 -0.75484693 0.91417384 0.58737987
-15.56666851 6.72632027 0.17328109 -0.75083339 0.81972867 0.07874890
-15.64200878 7.44090605 0.08259889 -0.75446731 0.90681440 0.03753769
-15.38416576 6.89477253 1.91867185 -0.74203062 0.84025776 0.87195498
-15.74180508 7.71589994 1.90192401 -0.75928080 0.94032758 0.86434376
-15.58985996 6.95123625 0.77149493 -0.75195199 0.84713894 0.35061172
-15.64706230 7.68960333 0.69309503 -0.75471103 0.93712288 0.31498230
-15.56957817 6.68350840 1.34504008 -0.75097370 0.81451124 0.61126369
-15.64184380 7.40693855 1.28854167 -0.75445932 0.90267485 0.58558756
-15.56322670 6.63802624 0.17258397 -0.75066733 0.80896842 0.07843209
-15.62263107 7.34153175 0.08183533 -0.75353265 0.89470381 0.03719069
-15.58895683 6.86902809 1.94023633 -0.75190842 0.83712035 0.88175511
-15.57649517 6.82835627 0.76819593 -0.75130731 0.83216369 0.34911245
-15.63755131 7.56323719 0.69004762 -0.75425225 0.92172277 0.31359738
-15.58371449 6.57396746 1.34242356 -0.75165552 0.80116165 0.61007458
-15.63389969 7.28319740 1.28361177 -0.75407612 0.88759464 0.58334708
-15.58802032 6.53317261 0.17225374 -0.75186324 0.79619002 0.07828202
-15.61220837 7.21714735 0.08104631 -0.75302988 0.87954521 0.03683211
-15.66995144 7.95744562 0.01989049 -0.75581503 0.96976447 0.00903938
-15.58988667 6.75284576 1.93466353 -0.75195324 0.82296133 0.87922251
-15.58238983 6.71458912 0.76606756 -0.75159168 0.81829906 0.34814522
-15.63428402 7.44073772 0.68738109 -0.75409466 0.90679389 0.31238556
-15.57499313 6.45538616 1.33771384 -0.75123489 0.78671026 0.60793418
-15.64132023 7.16734123 1.28016078 -0.75443405 0.87347537 0.58177876
-15.45527935 7.02679443 0.07822111 -0.74546069 0.85634714 0.03554817
-15.70890045 7.85347843 0.01978279 -0.75769371 0.95709413 0.00899044
-15.59911156 6.64080143 1.93030214 -0.75239819 0.80930662 0.87724042
-15.57091141 6.59402895 0.76298141 -0.75103801 0.80360651 0.34674269
-15.62828827 7.31772947 0.68461943 -0.75380552 0.89180303 0.31113049
-18.35317802 7.46823835 1.59640002 -0.88523620 0.91014540 0.72549611
-15.62065983 7.03936434 1.27424490 -0.75343752 0.85787898 0.57909024
-15.58633423 7.71337843 1.19812202 -0.75178188 0.94002032 0.54449564
-15.70227623 7.72731209 0.01922633 -0.75737417 0.94171840 0.00873755
-15.58738995 6.52050447 1.92327559 -0.75183284 0.79464614 0.87404716
-15.85676003 7.28378534 1.89244282 -0.76482546 0.88766629 0.86003500
-15.57144833 6.47923422 0.76064020 -0.75106388 0.78961658 0.34567872
-15.61773872 7.19341516 0.68166721 -0.75329667 0.87665302 0.30978882
-16.00099754 6.39706039 1.37033308 -0.77178252 0.77960217 0.62275827
-15.61722469 6.92002726 1.26997232 -0.75327188 0.84333551 0.57714856
-15.65194225 7.90833378 0.61647254 -0.75494641 0.96377927 0.28016061
-15.64884186 7.62226391 1.19934797 -0.75479686 0.92891628 0.54505277
-15.60091209 6.85785055 0.07903557 -0.75248504 0.83575815 0.03591831
-16.05667686 7.77634382 0.02227788 -0.77446812 0.94769382 0.01012435
-15.76795197 7.15302944 1.87671793 -0.76054198 0.87173122 0.85288870
-15.61147976 7.10149336 0.67957217 -0.75299478 0.86545062 0.30883673
-16.24606705 6.40611649 1.39056742 -0.78360307 0.78070587 0.63195390
-15.59855556 6.82392645 1.26537108 -0.75237137 0.83162385 0.57505751
-15.63000870 7.80509806 0.61363572 -0.75388849 0.95119804 0.27887142
-15.63604450 7.52514458 1.19521058 -0.75417960 0.91708046 0.54317248
-15.51937294 6.73476124 0.07745753 -0.74855214 0.82075739 0.03520116
-15.65633106 7.49218845 0.01793390 -0.75515807 0.91306412 0.00815020
-15.65575218 8.20554447 -0.09728277 -0.75513017 1.00000000 -0.04421090
-16.63002586 6.74141836 2.05120826 -0.80212271 0.82156867 0.93218714
-15.73098564 7.01730061 1.86631179 -0.75875896 0.85519010 0.84815955
-15.67261600 7.75276756 1.82780886 -0.75594360 0.94482064 0.83066159
-15.99569798 6.44986486 0.78096616 -0.77152693 0.78603739 0.35491601
-15.59928989 6.97790909 0.67661995 -0.75240678 0.85038954 0.30749506
-16.46259117 6.37203217 1.40713871 -0.79404676 0.77655202 0.63948488
-15.59536934 6.70604420 1.26126277 -0.75221771 0.81725770 0.57319045
-15.62850094 7.68211603 0.61122876 -0.75381577 0.93621039 0.27777755
-15.64514923 7.40887403 1.19199252 -0.75461876 0.90291071 0.54171002
-16.68916321 6.41489840 0.19019562 -0.80497509 0.78177607 0.08643584
-15.57609081 6.64341211 0.07766115 -0.75128782 0.80962479 0.03529370
-15.22515488 7.16931868 0.01319502 -0.73436099 0.87371641 0.00599658
-15.65193844 8.07851505 -0.09742506 -0.75494623 0.98451906 -0.04427556
-16.70158005 6.64851093 2.05508518 -0.80557400 0.81024617 0.93394905
-15.83113480 6.94312334 1.87348044 -0.76358944 0.84615022 0.85141736
-15.66022778 7.62463140 1.82020891 -0.75534606 0.92920482 0.82720774
-16.25140953 6.43426609 0.79331070 -0.78386074 0.78413641 0.36052606
-15.60261536 6.86201715 0.67452484 -0.75256717 0.83626592 0.30654293
-18.50539970 7.02671528 1.59465563 -0.89257836 0.85633749 0.72470337
-15.59865952 6.59158468 1.25781178 -0.75237638 0.80330861 0.57162207
-15.64226532 7.56727505 0.60959542 -0.75447965 0.92221487 0.27703527
-15.61543083 7.27514696 1.18555653 -0.75318533 0.88661355 0.53878516
-16.95937157 6.39645147 0.19470862 -0.81800818 0.77952796 0.08848681
-15.57328129 6.52680874 0.07705030 -0.75115234 0.79541445 0.03501609
-15.69840240 7.27138329 0.01743129 -0.75718737 0.88615489 0.00792178
-16.71712685 6.53335333 2.05169296 -0.80632389 0.79621202 0.93240744
-15.83250999 6.82537889 1.86816180 -0.76365578 0.83180088 0.84900028
-16.50382423 6.41426229 0.80544239 -0.79603559 0.78169858 0.36603940
-15.60326862 6.74556446 0.67233455 -0.75259870 0.82207394 0.30554754
-18.55105209 6.91099834 1.59483004 -0.89478034 0.84223521 0.72478259
-15.59192848 6.47351646 1.25353920 -0.75205171 0.78891981 0.56968039
-15.63715363 7.44399786 0.60710245 -0.75423312 0.90719122 0.27590230
-15.64088154 7.16777420 1.18387091 -0.75441289 0.87352818 0.53801912
-15.59872818 7.86585951 1.09574044 -0.75237972 0.95860302 0.49796754
-17.17558670 6.35479641 0.19815756 -0.82843697 0.77445149 0.09005421
-15.54347897 7.08163452 0.01545676 -0.74971485 0.86303043 0.00702444
-16.13297272 8.07224560 -0.09644746 -0.77814811 0.98375505 -0.04383128
-16.72446823 6.41542816 2.04733157 -0.80667800 0.78184062 0.93042535
-15.75624466 6.67525291 1.85313070 -0.75997728 0.81350517 0.84216928
-16.76035309 6.39275694 0.81778693 -0.80840886 0.77907771 0.37164947
-15.59021282 6.62389135 0.66947758 -0.75196898 0.80724579 0.30424917
-17.23499107 6.29926205 1.46819079 -0.83130223 0.76768363 0.66723043
-15.72822094 6.41467953 1.26208436 -0.75862557 0.78174943 0.57356381
-15.62749100 7.31939363 0.60443759 -0.75376701 0.89200586 0.27469125
-15.58721161 8.01626301 0.50366700 -0.75182420 0.97693247 0.22889529
-15.62558270 7.04239082 1.17881405 -0.75367498 0.85824782 0.53572100
-15.66391563 7.77569723 1.09700871 -0.75552392 0.94761503 0.49854392
-17.45399857 6.33311415 0.20281732 -0.84186572 0.77180910 0.09217187
-16.34296799 8.04954720 -0.09603897 -0.78827691 0.98098880 -0.04364564
-17.01910210 6.40574265 2.08052635 -0.82088917 0.78066027 0.94551098
-15.70071983 6.53554440 1.84087455 -0.75729913 0.79647905 0.83659941
-15.64781952 7.25720978 1.80120933 -0.75474757 0.88442755 0.81857324
-16.94427681 6.34106016 0.82598114 -0.81728011 0.77277750 0.37537339
-15.60388470 6.51422739 0.66804916 -0.75262845 0.79388118 0.30360001
-17.55380058 6.29069233 1.49418151 -0.84667951 0.76663923 0.67904210
-16.03083611 6.42128420 1.28541934 -0.77322173 0.78255433 0.58416855
-15.62777615 7.20020962 0.60228848 -0.75378078 0.87748104 0.27371457
-15.64618206 7.92269230 0.50403285 -0.75466859 0.96552914 0.22906154
-15.61480045 6.91990137 1.17421687 -0.75315493 0.84332019 0.53363174
-15.66588402 7.65429974 1.09334493 -0.75561887 0.93282044 0.49687889
-17.74034691 6.31085348 0.20762382 -0.85567725 0.76909626 0.09435622
-16.18769836 6.42904568 0.08382061 -0.78078777 0.78350019 0.03809291
-16.50294304 8.00004292 -0.09575900 -0.79599309 0.97495580 -0.04351841
-17.26882172 6.40671253 2.10911727 -0.83293402 0.78077847 0.95850432
-15.88930035 6.52658415 1.86076188 -0.76639497 0.79538709 0.84563732
-15.62941551 7.15944958 1.79472709 -0.75385988 0.87251365 0.81562734
-15.58797932 7.85050774 1.70471895 -0.75186127 0.95673209 0.77472246
-17.82757759 6.29386520 1.51685798 -0.85988468 0.76702589 0.68934762
-16.24991608 6.42060041 1.30218112 -0.78378874 0.78247100 0.59178609
-15.62513924 7.10997725 0.60056925 -0.75365359 0.86648452 0.27293324
-15.62796783 7.82108068 0.50176483 -0.75379002 0.95314586 0.22803083
-15.59971237 6.82551527 1.17023265 -0.75242716 0.83181745 0.53182107
-15.63534260 7.54822159 1.08813107 -0.75414574 0.91989285 0.49450943
-18.07005692 6.33200979 0.21345769 -0.87158030 0.77167457 0.09700747
-16.42068863 6.43243313 0.08659491 -0.79202569 0.78391302 0.03935371
-15.42497253 6.70861530 0.01312322 -0.74399889 0.81757098 0.00596394
-16.42868423 7.86849833 -0.09604356 -0.79241133 0.95892459 -0.04364773
-15.98155403 6.44749260 1.86723685 -0.77084470 0.78574830 0.84857994
-15.62695217 7.03993750 1.78891540 -0.75374103 0.85794884 0.81298614
-15.64055920 7.75418234 1.70513904 -0.75439733 0.94499302 0.77491337
-17.55971146 6.35145426 0.85694891 -0.84696460 0.77404422 0.38944694
-15.98738289 6.46927357 0.68414325 -0.77112585 0.78840274 0.31091410
-18.11728477 6.26810122 1.54005766 -0.87385827 0.76388609 0.69989085
-16.50540733 6.40223646 1.32124352 -0.79611194 0.78023297 0.60044914
-15.60745907 6.98398685 0.59764642 -0.75280082 0.85113025 0.27160496
-15.62304306 7.69617414 0.49956998 -0.75355250 0.93792367 0.22703336
-15.60563374 6.71165228 1.16716790 -0.75271279 0.81794113 0.53042829
-15.62662792 7.42323065 1.08376276 -0.75372541 0.90466034 0.49252421
-18.37436104 6.30898523 0.21859443 -0.88625795 0.76886857 0.09934190
-16.67347908 6.41119671 0.08949647 -0.80421859 0.78132498 0.04067235
-16.62245560 7.83348608 -0.09567639 -0.80175757 0.95465767 -0.04348086
-16.21558762 6.42400408 1.89151788 -0.78213292 0.78288579 0.85961467
-15.60906029 6.91431761 1.78131557 -0.75287807 0.84263968 0.80953234
-15.64073658 7.63215113 1.69946742 -0.75440592 0.93012124 0.77233583
-17.82712173 6.32151794 0.86982554 -0.85986269 0.77039593 0.39529881
-16.23183823 6.45008278 0.69461870 -0.78291678 0.78606397 0.31567472
-19.49462509 6.60618782 1.66373169 -0.94029206 0.80508828 0.75609547
-16.75385284 6.37806654 1.33964860 -0.80809528 0.77728742 0.60881346
-15.59613419 6.86171055 0.59506750 -0.75225461 0.83622855 0.27043295
-15.61537170 7.57076502 0.49730200 -0.75318247 0.92264020 0.22600266
-15.59052563 6.58946943 1.16241753 -0.75198406 0.80305088 0.52826947
-15.62238216 7.30118895 1.07981718 -0.75352061 0.88978726 0.49073109
-18.75491714 6.30780315 0.22519881 -0.90461344 0.76872450 0.10234331
-16.93786621 6.39128304 0.09255075 -0.81697088 0.77889812 0.04206039
-15.65748310 6.57681036 0.01457719 -0.75521368 0.80150813 0.00662472
-16.42107773 7.61252737 -0.09630977 -0.79204440 0.92772973 -0.04376870
-16.54063034 6.43321466 1.92712998 -0.79781085 0.78400826 0.87579882
-15.62302589 6.80344534 1.77773917 -0.75355166 0.82912785 0.80790704
-15.64358425 7.51215029 1.69421577 -0.75454324 0.91549689 0.76994920
-18.11559677 6.29565907 0.88387281 -0.87377685 0.76724452 0.40168270
-16.47667503 6.42807245 0.70509416 -0.79472607 0.78338158 0.32043537
-19.20283127 6.37344551 1.63303125 -0.92621785 0.77672428 0.74214345
-16.96904182 6.33843279 1.35509562 -0.81847459 0.77245730 0.61583346
-15.58389187 6.73985291 0.59248859 -0.75166410 0.82137787 0.26926094
-15.61395359 7.44920826 0.49532664 -0.75311410 0.90782619 0.22510494
-15.58002949 6.47002983 1.15812683 -0.75147784 0.78849488 0.52631950
-15.61359787 7.17782354 1.07558978 -0.75309694 0.87475288 0.48880994
-19.56745720 6.44363642 0.24013202 -0.94380498 0.78527832 0.10912982
-17.20452499 6.36899328 0.09563047 -0.82983273 0.77618170 0.04345999
-16.41765594 7.48591089 -0.09643828 -0.79187936 0.91229910 -0.04382711
-16.73099327 6.38671780 1.94586110 -0.80699271 0.77834177 0.88431132
-15.61062241 6.68175316 1.77103341 -0.75295341 0.81429738 0.80485958
-15.64015102 7.38986063 1.68833399 -0.75437766 0.90059358 0.76727617
-18.43091965 6.27540493 0.89940989 -0.88898593 0.76477617 0.40874365
-16.72746277 6.40538692 0.71585536 -0.80682242 0.78061694 0.32532591
-19.51544380 6.34105444 1.65814972 -0.94129622 0.77277678 0.75355870
-17.25922012 6.32385635 1.37711596 -0.83247089 0.77068090 0.62584078
-15.60569286 6.63323021 0.59154302 -0.75271565 0.80838394 0.26883122
-15.60981846 7.32711792 0.49327812 -0.75291461 0.89294720 0.22417398
-15.74599075 6.42307663 1.16854703 -0.75948268 0.78277278 0.53105503
-15.62205124 7.06309795 1.07277143 -0.75350463 0.86077142 0.48752910
-15.74116993 7.82763767 1.00953722 -0.75925016 0.95394492 0.45879185
-19.65515327 6.33585453 0.24104929 -0.94803488 0.77214313 0.10954668
-17.45089531 6.33607101 0.09843023 -0.84171605 0.77216947 0.04473237
-15.52865219 6.96176720 -0.09879278 -0.74899971 0.84842235 -0.04489713
-17.30635071 6.48275518 2.01246047 -0.83474416 0.79004568 0.91457790
-15.61747074 6.56893873 1.76678646 -0.75328374 0.80054879 0.80292952
-15.63219452 7.26623058 1.68203211 -0.75399393 0.88552696 0.76441222
-18.64245224 6.21679258 0.90909398 -0.89918888 0.75763315 0.41314465
-16.87953377 6.34244633 0.72156924 -0.81415731 0.77294642 0.32792261
-17.53674889 6.30114794 1.39798594 -0.84585702 0.76791346 0.63532531
-15.58803177 6.51047516 0.58879215 -0.75186378 0.79342389 0.26758105
-15.59207344 7.19949389 0.49071747 -0.75205874 0.87739378 0.22301027
-16.01568413 6.41569567 1.18754864 -0.77249092 0.78187323 0.53969049
-15.60781670 6.93879938 1.06826222 -0.75281811 0.84562325 0.48547986
-15.58849907 7.91675711 0.41751578 -0.75188631 0.96480584 0.18974322
-15.64834976 7.65943003 0.99924439 -0.75477314 0.93344569 0.45411420
-17.74648857 6.31779337 0.10189174 -0.85597348 0.76994199 0.04630547
-15.82267761 6.97487688 -0.09816399 -0.76318157 0.85001999 -0.04461137
-17.40377045 6.42597437 2.02078533 -0.83944303 0.78312588 0.91836119
-15.59682941 6.47399807 1.76052773 -0.75228810 0.78897852 0.80008519
-15.62109852 7.17168570 1.67678058 -0.75345868 0.87400484 0.76202565
-20.15461922 6.30397081 1.71048009 -0.97212583 0.76825744 0.77734065
-17.83108139 6.31251431 1.42115664 -0.86005372 0.76929867 0.64585543
-15.58947659 7.10930967 0.48925427 -0.75193346 0.86640316 0.22234531
-16.25726128 6.42344284 1.20501781 -0.78414297 0.78281736 0.54762948
-15.60017300 6.84748363 1.06516218 -0.75244939 0.83449471 0.48407102
-15.65780926 7.85931444 0.41865888 -0.75522941 0.95780534 0.19026271
-15.64651871 7.56740046 0.99650836 -0.75468481 0.92223012 0.45287079
-18.04770851 6.32969141 0.10555687 -0.87050235 0.77139199 0.04797112
-15.47962189 6.73618650 -0.09910487 -0.74663478 0.82093108 -0.04503896
-16.35142708 7.89021540 -0.19821508 -0.78868496 0.96157122 -0.09008035
-15.81580257 6.44844580 1.78220963 -0.76284993 0.78586447 0.80993867
-15.60968590 7.04795551 1.67026865 -0.75290823 0.85892600 0.75906622
-15.74123859 7.81383705 1.63078403 -0.75925344 0.95226306 0.74112219
-19.54849052 6.27998924 0.95602453 -0.94289017 0.76533484 0.43447259
-17.50757217 6.36035490 0.74994820 -0.84444976 0.77512890 0.34081966
-20.38059807 6.23414707 1.72757459 -0.98302555 0.75974810 0.78510934
-18.12451553 6.28883266 1.44334126 -0.87420702 0.76641262 0.65593737
-15.96998787 6.46427011 0.60323411 -0.77028680 0.78779298 0.27414432
-15.58462429 6.98907804 0.48727891 -0.75169945 0.85175067 0.22144759
-16.48702049 6.39450216 1.22064805 -0.79522508 0.77929044 0.55473274
-15.57880878 6.72159147 1.06023014 -0.75141895 0.81915241 0.48182961
-15.63336086 7.72455883 0.41605517 -0.75405014 0.94138283 0.18907943
-15.63605881 7.44156504 0.99233907 -0.75418031 0.90689474 0.45097601
-20.63643837 6.25975037 0.25781706 -0.99536562 0.76286834 0.11716691
-18.31777191 6.29571390 0.10866205 -0.88352841 0.76725119 0.04938230
-15.65029526 6.69400311 -0.09878360 -0.75486696 0.81579024 -0.04489296
-16.50190544 7.83524704 -0.19858749 -0.79594302 0.95487231 -0.09024959
-16.08859444 6.44175529 1.81037390 -0.77600765 0.78504908 0.82273817
-15.61187363 6.93112612 1.66543722 -0.75301373 0.84468812 0.75687057
-15.64690685 7.64505911 1.61475646 -0.75470352 0.93169433 0.73383832
-19.96873283 6.27643919 0.97730821 -0.96315992 0.76490223 0.44414511
-17.80114937 6.34099817 0.76280445 -0.85860997 0.77276993 0.34666225
-16.22578239 6.44916153 0.61320591 -0.78262466 0.78595167 0.27867606
-15.58801842 6.87323141 0.48566934 -0.75186312 0.83763260 0.22071612
-16.76366425 6.38060570 1.24010932 -0.80856854 0.77759689 0.56357706
-15.59870434 6.61420298 1.05853915 -0.75237858 0.80606508 0.48106113
-15.63482094 7.60350370 0.41440403 -0.75412059 0.92663002 0.18832906
-15.62644577 7.31700468 0.98830014 -0.75371665 0.89171469 0.44914049
-18.64495087 6.27779245 0.11253080 -0.89930940 0.76506716 0.05114048
-15.82104301 6.64993858 -0.09846232 -0.76310271 0.81042016 -0.04474695
-16.51455116 7.71451950 -0.19845448 -0.79655296 0.94015938 -0.09018914
-16.32490730 6.41738844 1.83406758 -0.78740579 0.78207952 0.83350593
-15.60592270 6.81135750 1.65976548 -0.75272673 0.83009207 0.75429302
-15.65156746 7.52595043 1.60994816 -0.75492835 0.91717869 0.73165315
-20.32285309 6.24737597 0.99486727 -0.98024035 0.76136035 0.45212498
-18.10082054 6.32018185 0.77594638 -0.87306416 0.77023309 0.35263473
-18.70309258 6.22797966 1.48688889 -0.90211374 0.75899649 0.67572790
-16.45780182 6.42167616 0.62206024 -0.79381573 0.78260207 0.28270000
-15.57407761 6.75044537 0.48340136 -0.75119072 0.82266879 0.21968541
-16.92116356 6.31896877 1.24976337 -0.81616527 0.77008528 0.56796443
-15.58473492 6.49297905 1.05431175 -0.75170475 0.79129165 0.47913998
-15.62274933 7.47671080 0.41230837 -0.75353831 0.91117787 0.18737666
-15.62676907 7.19785690 0.98504293 -0.75373220 0.87719429 0.44766024
-15.72627258 7.95660877 0.91192907 -0.75853163 0.96966249 0.41443309
-19.74914932 6.51293421 0.12680954 -0.95256865 0.79372358 0.05762956
-16.07869148 6.63997173 -0.09792533 -0.77552998 0.80920547 -0.04450291
-16.59678650 6.40385675 1.86200821 -0.80051947 0.78043044 0.84620374
-15.48764420 6.64397192 1.64128006 -0.74702173 0.80969298 0.74589217
-15.63555336 7.39774799 1.60293603 -0.75415593 0.90155482 0.72846645
-20.72904015 6.22957802 1.01529956 -0.99983209 0.75919133 0.46141058
-18.37635803 6.28741312 0.78785032 -0.88635427 0.76623958 0.35804456
-19.34996414 6.30929708 1.53963912 -0.93331456 0.76890659 0.69970065
-16.71810913 6.40221405 0.63220394 -0.80637127 0.78023028 0.28730989
-15.57942772 6.63674784 0.48193812 -0.75144881 0.80881262 0.21902044
-17.28647423 6.33150005 1.27642679 -0.83378541 0.77161241 0.58008182
-15.69535160 6.42372990 1.05966651 -0.75704020 0.78285235 0.48157349
-15.62779903 7.35886526 0.41084772 -0.75378191 0.89681619 0.18671286
-15.64014626 8.06695080 0.30187765 -0.75437742 0.98310977 0.13719058
-15.62621307 7.07899475 0.98178571 -0.75370538 0.86270875 0.44617996
-15.62057018 7.78002405 0.90158099 -0.75343323 0.94814235 0.40973032
-19.97422600 6.44849491 0.12927841 -0.96342486 0.78587043 0.05875155
-16.32201004 6.62099457 -0.09742506 -0.78726608 0.80689275 -0.04427556
-15.69117260 7.09230566 -0.19510281 -0.75683862 0.86433089 -0.08866595
-16.87842941 6.39066648 1.89106643 -0.81410408 0.77882296 0.85940945
-15.63532829 6.59147024 1.65346360 -0.75414509 0.80329466 0.75142908
-15.62757397 7.27423286 1.59692562 -0.75377107 0.88650215 0.72573495
-18.64082909 6.24760771 0.79918289 -0.89911056 0.76138854 0.36319473
-19.88277817 6.34564304 1.58236516 -0.95901400 0.77333599 0.71911782
-16.90396309 6.35170174 0.63890916 -0.81533563 0.77407438 0.29035711
-15.58212280 6.52247620 0.48040172 -0.75157875 0.79488647 0.21832220
-17.54558182 6.30138302 1.29435575 -0.84628308 0.76794207 0.58822978
-15.96667671 6.41827154 1.07728076 -0.77012712 0.78218716 0.48957840
-15.62835693 7.23957634 0.40926009 -0.75380880 0.88227862 0.18599135
-15.59787941 7.92133808 0.29927954 -0.75233877 0.96536410 0.13600986
-15.62660694 6.96123457 0.97865874 -0.75372440 0.84835744 0.44475889
-15.62435436 7.65970135 0.89860737 -0.75361574 0.93347877 0.40837893
-20.33461571 6.42438602 0.13355440 -0.98080766 0.78293234 0.06069481
-16.54528999 6.59105396 -0.09697527 -0.79803562 0.80324394 -0.04407115
-15.81578541 7.05893373 -0.19543533 -0.76284909 0.86026388 -0.08881707
-17.30140305 6.45725822 1.93823028 -0.83450550 0.78693843 0.88084346
-15.56710243 6.47634315 1.64212024 -0.75085431 0.78926426 0.74627399
-15.62730885 7.18475628 1.59311914 -0.75375825 0.87559777 0.72400510
-20.45428085 6.42257214 1.62919939 -0.98657954 0.78271127 0.74040198
-17.83084679 6.30881643 1.31519616 -0.86004239 0.76884800 0.59770089
-16.20064926 6.42409039 1.09278119 -0.78141242 0.78289628 0.49662268
-15.60773659 7.14096355 0.40735495 -0.75281423 0.87026078 0.18512554
-15.61896133 7.83965588 0.29882985 -0.75335562 0.95540959 0.13580549
-15.60805893 6.86508131 0.97501069 -0.75282979 0.83663934 0.44310099
-15.61538315 7.56417656 0.89563382 -0.75318301 0.92183727 0.40702757
-20.50594521 6.37254190 0.13543788 -0.98907149 0.77661413 0.06155077
-16.75106430 6.58196402 -0.09654384 -0.80796081 0.80213618 -0.04387508
-16.91893196 7.42268419 -0.19927910 -0.81605762 0.90459377 -0.09056390
-17.42751884 6.37975740 1.94851243 -0.84058851 0.77749348 0.88551623
-15.72157955 6.42519283 1.65514410 -0.75830525 0.78303063 0.75219280
-15.60501862 7.05616999 1.58570635 -0.75268310 0.85992712 0.72063625
-15.58984947 7.75756168 1.48053372 -0.75195146 0.94540489 0.67283976
-19.72701454 6.37241554 0.85022694 -0.95150101 0.77659875 0.38639209
-20.35708237 6.25166607 1.61736763 -0.98189133 0.76188314 0.73502499
-17.51576614 6.36200380 0.66375273 -0.84484500 0.77532989 0.30164745
-15.94907761 6.47133398 0.49210754 -0.76927823 0.78865379 0.22364201
-18.12834740 6.28588486 1.33618975 -0.87439185 0.76605338 0.60724157
-16.46368790 6.40927935 1.10969090 -0.79409969 0.78109127 0.50430745
-15.60669804 7.02230501 0.40576729 -0.75276411 0.85580003 0.18440402
-15.61058331 7.71295691 0.29723102 -0.75295150 0.93996894 0.13507889
-15.59956646 6.74476242 0.97136259 -0.75242013 0.82197624 0.44144309
-15.61937332 7.44524574 0.89277917 -0.75337547 0.90734327 0.40573028
-17.01777840 6.56392431 -0.09598849 -0.82082534 0.79993767 -0.04362270
-15.47513294 6.67557335 -0.19388585 -0.74641830 0.81354421 -0.08811289
-18.17275429 6.52250719 2.03278136 -0.87653375 0.79489022 0.92381293
-16.04575729 6.44071722 1.68749380 -0.77394146 0.78492260 0.76689434
-15.59992599 6.93621159 1.58029699 -0.75243747 0.84530789 0.71817797
-15.62040997 7.65067482 1.47868228 -0.75342548 0.93237871 0.67199838
-19.88091660 6.28458166 0.85594082 -0.95892423 0.76589453 0.38898879
-17.80961037 6.34204292 0.67535788 -0.85901809 0.77289724 0.30692151
-16.18242836 6.44816351 0.49971631 -0.78053355 0.78583008 0.22709987
-18.43191910 6.26137924 1.35764313 -0.88903415 0.76306689 0.61699122
-16.71413040 6.38641405 1.12561417 -0.80617934 0.77830476 0.51154387
-15.60112762 6.90232897 0.40405267 -0.75249547 0.84117866 0.18362480
-15.62099934 7.59631538 0.29618180 -0.75345391 0.92575395 0.13460207
-15.60120678 6.62949181 0.96849620 -0.75249928 0.80792832 0.44014046
-15.60984135 7.32061529 0.88909191 -0.75291574 0.89215475 0.40405455
-17.24565315 6.52787781 -0.09552952 -0.83181649 0.79554474 -0.04341412
-15.73231983 6.66928196 -0.19466391 -0.75882328 0.81277752 -0.08846649
-18.17399216 6.39438534 2.02808738 -0.87659347 0.77927619 0.92167968
-16.28011131 6.41657543 1.70955038 -0.78524512 0.78198045 0.77691811
-15.63407803 6.83408403 1.57929528 -0.75408477 0.83286172 0.71772271
-15.60721397 7.52290773 1.47238719 -0.75278902 0.91680789 0.66913754
-20.25200272 6.26255417 0.87251109 -0.97682297 0.76321006 0.39651927
-18.09067345 6.31404209 0.68636125 -0.87257469 0.76948482 0.31192207
-16.42169189 6.42450380 0.50754458 -0.79207402 0.78294671 0.23065749
-18.71506691 6.22639990 1.37741089 -0.90269130 0.75880396 0.62597483
-16.97052956 6.36275864 1.14196014 -0.81854635 0.77542186 0.51897246
-15.59466839 6.78270102 0.40233803 -0.75218391 0.82659978 0.18284556
-15.60533237 7.46773577 0.29443309 -0.75269824 0.91008413 0.13380735
-15.60201645 6.51446772 0.96562988 -0.75253832 0.79391050 0.43883783
-15.59755039 7.19556141 0.88528574 -0.75232291 0.87691456 0.40232483
-17.51684570 6.50528526 -0.09496500 -0.84489703 0.79279143 -0.04315756
-16.34283447 6.80648041 -0.19671215 -0.78827047 0.82949769 -0.08939733
-16.53518295 6.39765835 1.73391759 -0.79754812 0.77967507 0.78799200
-15.80292702 6.78977156 1.59311914 -0.76222891 0.82746142 0.72400510
-15.60382080 7.40074301 1.46720302 -0.75262535 0.90191978 0.66678154
-20.36550713 6.15780497 0.87622511 -0.98229766 0.75044441 0.39820716
-18.38342857 6.28662395 0.69788045 -0.88669527 0.76614344 0.31715706
-16.69112968 6.40958738 0.51654339 -0.80506992 0.78112882 0.23474705
-15.58732414 6.66342735 0.40062338 -0.75182968 0.81206399 0.18206634
-15.59047699 7.34050751 0.29273432 -0.75198174 0.89457899 0.13303533
-15.58248901 7.07012463 0.88136059 -0.75159645 0.86162770 0.40054101
-17.77339745 6.47404718 -0.09443718 -0.85727143 0.78898448 -0.04291769
-15.52452469 7.03420734 -0.27355009 -0.74880064 0.85725051 -0.12431692
-16.89659119 6.41615057 1.77025843 -0.81498003 0.78192866 0.80450737
-15.63251591 6.60080767 1.56987906 -0.75400943 0.80443263 0.71344346
-15.61213684 7.28482771 1.46331489 -0.75302643 0.88779336 0.66501456
-18.64431953 6.24501753 0.70793819 -0.89927894 0.76107287 0.32172787
-16.87689209 6.35972500 0.52225000 -0.81402993 0.77505219 0.23734047
-19.79341316 6.30889559 1.45816743 -0.95470363 0.76885766 0.66267526
-17.49749374 6.31127596 1.17563856 -0.84396362 0.76914775 0.53427786
-15.58831692 6.54837513 0.39922625 -0.75187755 0.79804271 0.18143140
-15.59639931 7.22387171 0.29163513 -0.75226736 0.88036472 0.13253580
-15.97897720 6.43686390 0.98647612 -0.77072042 0.78445297 0.44831157
-15.59015846 6.95576525 0.87898171 -0.75196636 0.84769088 0.39945990
-18.04718399 6.44591141 -0.09386806 -0.87047708 0.78555560 -0.04265905
-17.09607315 6.40010118 1.78937411 -0.82460177 0.77997279 0.81319463
-15.60110283 7.19028473 1.45868623 -0.75249428 0.87627149 0.66291100
-20.37299538 6.38743734 1.50245333 -0.98265886 0.77842945 0.68280131
-17.77508545 6.31720638 1.19423914 -0.85735279 0.76987046 0.54273105
-15.57030106 7.12277699 0.28998631 -0.75100857 0.86804444 0.13178648
-16.19654465 6.43570852 0.99963528 -0.78121442 0.78431219 0.45429182
-15.57163429 6.85962486 0.87565130 -0.75107288 0.83597440 0.39794636
-18.31309891 6.44402409 -0.09329435 -0.88330305 0.78532559 -0.04239833
-16.63098717 6.59142923 -0.19733061 -0.80216908 0.80328971 -0.08967839
-19.72989464 6.42194986 2.19483709 -0.95163989 0.78263545 0.99746037
-17.35990143 6.37507963 1.81458163 -0.83732706 0.77692342 0.82465041
-15.70599174 6.42927551 1.57007933 -0.75755340 0.78352821 0.71353447
-15.60971642 7.07563257 1.45498323 -0.75290972 0.86229897 0.66122818
-19.53740692 6.30515909 0.74524659 -0.94235557 0.76840228 0.33868295
-17.47327614 6.36662006 0.54280829 -0.84279555 0.77589244 0.24668334
-20.32690811 6.23307943 1.49555767 -0.98043591 0.75961804 0.67966753
-18.07620430 6.29690123 1.21382618 -0.87187684 0.76739591 0.55163252
-15.90573120 6.47655153 0.40767246 -0.76718754 0.78928965 0.18526985
-15.56372070 7.00177670 0.28858733 -0.75069118 0.85329825 0.13115071
-16.45057678 6.41697598 1.01461852 -0.79346728 0.78202927 0.46110108
-15.57047939 6.74255753 0.87279665 -0.75101715 0.82170749 0.39664906
-18.55735207 6.39946222 -0.09279867 -0.89508420 0.77989489 -0.04217306
-15.43825626 6.67577457 -0.27176669 -0.74463958 0.81356877 -0.12350643
-19.81721306 6.31289196 2.20042539 -0.95585155 0.76934469 1.00000000
-17.59041023 6.33482504 1.83600807 -0.84844530 0.77201766 0.83438778
-15.99545002 6.43037510 1.59712601 -0.77151495 0.78366220 0.72582603
-15.59387398 6.95058918 1.44887328 -0.75214559 0.84706008 0.65845144
-17.74622917 6.34034300 0.55188030 -0.85596097 0.77269012 0.25080618
-20.73252106 6.21483183 1.52497935 -1.00000000 0.75739419 0.69303840
-18.36643410 6.26917934 1.23256767 -0.88587558 0.76401746 0.56014973
-16.16523361 6.46380711 0.41516611 -0.77970421 0.78773654 0.18867539
-15.55440903 6.88033056 0.28713840 -0.75024205 0.83849776 0.13049223
-16.70873451 6.39672470 1.02986228 -0.80591911 0.77956128 0.46802872
-15.56479931 6.62420845 0.86970413 -0.75074321 0.80728447 0.39524364
-18.88510132 6.38033390 -0.09210104 -0.91089267 0.77756375 -0.04185601
-15.69329834 6.66963863 -0.27361381 -0.75694114 0.81282097 -0.12434587
-18.40401077 7.26143122 1.85336792 -0.88768804 0.88494205 0.84227711
-15.57343197 6.82442236 1.44239318 -0.75115961 0.83168429 0.65550649
-18.04216003 6.31883526 0.56183022 -0.87023473 0.77006900 0.25532800
-18.68350029 6.24693966 1.25328195 -0.90116876 0.76130712 0.56956351
-16.41960907 6.44586897 0.42246920 -0.79197359 0.78555042 0.19199432
-15.55884838 6.76567507 0.28608915 -0.75045615 0.82452482 0.13001539
-16.98036194 6.37837744 1.04601812 -0.81902063 0.77732533 0.47537085
-15.57113457 6.51160479 0.86744416 -0.75104880 0.79356158 0.39421657
-19.16398048 6.34095144 -0.09152274 -0.92434394 0.77276427 -0.04159320
-18.48031044 6.39511251 1.92675519 -0.89136821 0.77936482 0.87562853
-18.45484161 7.14780331 1.85396898 -0.89013976 0.87109435 0.84255028
-15.56116295 6.70273781 1.43683875 -0.75056779 0.81685472 0.65298223
-20.34350967 6.14366627 0.77627957 -0.98123664 0.74872136 0.35278612
-18.33851051 6.29385567 0.57178015 -0.88452876 0.76702476 0.25984982
-18.97446632 6.21224213 1.27202356 -0.91520303 0.75707859 0.57808077
-16.66319275 6.42068624 0.42939129 -0.80372244 0.78248143 0.19514012
-15.55878735 6.64965963 0.28494000 -0.75045323 0.81038618 0.12949315
-19.49445534 6.31500578 -0.09082052 -0.94028389 0.76960230 -0.04127407
-19.53316307 6.62349510 2.03976893 -0.94215089 0.80719751 0.92698848
-15.56264496 6.58770561 1.43276548 -0.75063932 0.80283588 0.65113115
-16.67785454 6.77821016 2.16958880 -0.80442965 0.82605243 0.98598605
-18.61063194 6.25709248 0.58077902 -0.89765406 0.76254445 0.26393944
-19.57529831 6.27368498 1.31373394 -0.94418323 0.76456654 0.59703636
-17.00624275 6.43005276 0.43967918 -0.82026893 0.78362292 0.19981554
-15.57630825 6.54167700 0.28429049 -0.75129831 0.79722643 0.12919797
-17.49480247 6.32136536 1.07624519 -0.84383380 0.77037734 0.48910779
-15.92190647 6.42481709 0.88480991 -0.76796770 0.78298485 0.40210858
-19.80057335 6.27727222 -0.09017797 -0.95504898 0.76500374 -0.04098206
-19.50569344 6.51179218 2.03325701 -0.94082594 0.79358441 0.92402905
-17.07457161 6.39991283 1.69729877 -0.82356465 0.77994978 0.77135026
-15.55127430 6.49658918 1.42850697 -0.75009084 0.79173166 0.64919585
-16.70960999 6.69954252 2.16958880 -0.80596131 0.81646532 0.98598605
-19.87093925 6.26562166 1.33346188 -0.95844299 0.76358390 0.60600185
-15.61434650 6.47127390 0.28449035 -0.75313306 0.78864652 0.12928879
-17.78584099 6.33160782 1.09435534 -0.85787159 0.77162558 0.49733809
-16.13740921 6.42377043 0.89670432 -0.77836215 0.78285730 0.40751407
-19.50275421 6.37485075 2.02842546 -0.94068414 0.77689552 0.92183334
-17.49187660 6.43079758 1.73776853 -0.84369272 0.78371370 0.78974211
-15.65439415 6.42453146 1.43480206 -0.75506467 0.78295004 0.65205669
-16.71632004 6.58057547 2.16475534 -0.80628496 0.80196697 0.98378950
-19.66096878 6.37160873 0.61860341 -0.94831538 0.77650040 0.28112900
-20.22818947 6.23914957 1.35699451 -0.97567439 0.76035780 0.61669642
-17.43465614 6.37336969 0.45180869 -0.84093279 0.77671504 0.20532788
-15.88050747 6.46528292 0.29058588 -0.76597089 0.78791636 0.13205895
-18.06844330 6.30428696 1.11116254 -0.87150246 0.76829600 0.50497621
-16.39491463 6.40752935 0.91062069 -0.79078251 0.78087801 0.41383848
-19.77346230 6.32635403 2.05405307 -0.95374131 0.77098531 0.93347996
-17.79224586 6.41429472 1.76561654 -0.85818052 0.78170252 0.80239785
-15.91783142 6.41639757 1.45720506 -0.76777112 0.78195876 0.66223788
-16.71109581 6.45748615 2.15839577 -0.80603296 0.78696620 0.98089933
-20.60879517 6.21536589 1.38221800 -0.99403226 0.75745928 0.62815946
-17.75484848 6.36389494 0.46127099 -0.85637671 0.77556038 0.20962811
-16.13235664 6.45024395 0.29628173 -0.77811843 0.78608358 0.13464747
-18.36650658 6.27881050 1.12901211 -0.88587910 0.76519120 0.51308811
-16.63980103 6.38328218 0.92370450 -0.80259418 0.77792305 0.41978452
-20.02344704 6.26814842 2.07736993 -0.96579897 0.76389182 0.94407654
-18.40455437 7.28804731 1.70197117 -0.88771427 0.88818568 0.77347368
-18.02088547 6.33148670 0.46889162 -0.86920857 0.77161080 0.21309136
-16.37719345 6.42936039 0.30177772 -0.78992772 0.78353852 0.13714518
-18.63277054 6.23909426 1.14464676 -0.89872187 0.76035106 0.52019340
-16.89996529 6.36185122 0.93773985 -0.81514281 0.77531129 0.42616299
-18.46397018 6.39473295 1.82872546 -0.89058006 0.77931857 0.83107817
-16.36456299 6.35910940 1.49386442 -0.78931850 0.77497715 0.67889804
-20.29763985 6.15822983 0.63850325 -0.97902417 0.75049621 0.29017264
-18.32880211 6.31025553 0.47790939 -0.88406044 0.76902336 0.21718955
-16.62799072 6.40781498 0.30742359 -0.80202454 0.78091282 0.13971098
-18.98082542 6.22292948 1.16588390 -0.91550976 0.75838107 0.52984476
-19.25216103 6.53166103 1.90826261 -0.92859721 0.79600579 0.86722440
-16.63481903 6.34442329 1.51682281 -0.80235392 0.77318734 0.68933165
-18.64094543 6.28667545 0.48705417 -0.89911622 0.76614970 0.22134545
-16.97262192 6.41883612 0.31556764 -0.81864727 0.78225595 0.14341211
-19.59552956 6.28773785 1.20536137 -0.94515902 0.76627916 0.54778564
-17.45517349 6.32219696 0.96795154 -0.84192240 0.77047867 0.43989292
-19.25440598 6.43143702 1.90525746 -0.92870545 0.78379160 0.86585867
-16.87879944 6.34680891 1.53811491 -0.81412190 0.77347809 0.69900799
-18.92087364 6.28164768 0.49543688 -0.91261810 0.76553696 0.22515504
-19.91621780 6.28696156 1.22529566 -0.96062690 0.76618457 0.55684489
-17.71220207 6.32131624 0.98234367 -0.85431975 0.77037132 0.44643354
-19.29632759 6.31094837 1.90545774 -0.93072748 0.76910782 0.86594969
-17.42819214 6.42935181 1.58866036 -0.84062099 0.78353751 0.72197872
-19.66931152 6.39240122 0.51912439 -0.94871777 0.77903438 0.23592001
-17.39692688 6.36200190 0.32501075 -0.83911294 0.77532965 0.14770360
-20.25098610 6.25267839 1.24549043 -0.97677392 0.76200652 0.56602257
-17.99080658 6.29388428 0.99744952 -0.86775780 0.76702821 0.45329851
-19.72044945 6.31235266 1.94612789 -0.95118433 0.76927894 0.88443255
-17.59178925 6.36457062 1.60088015 -0.84851182 0.77564269 0.72753215
-17.68300629 6.34124851 0.33155596 -0.85291153 0.77280045 0.15067813
-20.61476707 6.22305727 1.26763952 -0.99432033 0.75839663 0.57608837
-18.29619026 6.27228975 1.01422060 -0.88248748 0.76439655 0.46092024
-17.96007347 6.31382227 0.33785138 -0.86627543 0.76945806 0.15353912
-18.60389137 6.24774027 1.03111053 -0.89732897 0.76140469 0.46859598
-18.43000984 6.40801620 1.67568016 -0.88894206 0.78093737 0.76152557
-20.33341980 6.18641758 0.53728688 -0.98074996 0.75393140 0.24417409
-18.26016045 6.29100037 0.34474635 -0.88074964 0.76667678 0.15667260
-18.90441322 6.21706533 1.04752481 -0.91182417 0.75766641 0.47605559
-18.94476700 6.45441294 1.72233748 -0.91377056 0.78659165 0.78272933
-18.58717155 6.27363205 0.35234079 -0.89652252 0.76456010 0.16012394
-19.41614914 6.25098085 1.07714176 -0.93650693 0.76179963 0.48951524
-19.21466827 6.44574261 1.74585140 -0.92678881 0.78553504 0.79341543
-19.76884270 6.26222515 1.09736216 -0.95351851 0.76316994 0.49870455
-19.20183182 6.30743265 1.74066722 -0.92616963 0.76867938 0.79105943
-19.64146805 6.39092112 0.37827188 -0.94737482 0.77885401 0.17190853
-20.12426567 6.23629522 1.11710680 -0.97066176 0.76000994 0.50767767
-19.56137466 6.28999996 1.77195728 -0.94351161 0.76655483 0.80527943
-20.52215195 6.21892023 1.13946819 -0.98985320 0.75789243 0.51783997
-19.94802856 6.27668810 1.80583942 -0.96216124 0.76493257 0.82067740
-20.40186882 6.27932787 1.84620178 -0.98405153 0.76525426 0.83902037
-20.59781075 6.27620029 0.40020585 -0.99350244 0.76487309 0.18187658
-20.38588905 6.07165432 0.39366063 -0.98328078 0.73994535 0.17890206
