18.97470665 7.20063639 2.33808804 0.97217822 0.77524072 0.81761843
17.66316795 7.14984417 1.52994049 0.90498090 0.76977229 0.53501302
17.35643578 7.15260363 1.50517082 0.88926530 0.77006942 0.52635121
17.75449944 7.12199020 2.19585967 0.90966028 0.76677346 0.76788181
16.97140884 7.11857033 1.47290051 0.86953825 0.76640528 0.51506639
17.39709854 7.10545588 2.15466905 0.89134866 0.76499331 0.75347769
16.61498260 7.09174967 1.44324660 0.85127658 0.76351768 0.50469655
18.87888718 7.24419355 1.52879333 0.96726882 0.77993023 0.53461188
17.02046204 7.07631111 2.11081338 0.87205154 0.76185554 0.73814154
16.28880119 7.07346725 1.41638374 0.83456457 0.76154935 0.49530277
18.56371307 7.25770569 1.50496531 0.95112073 0.78138500 0.52627933
16.66507912 7.02042913 2.06816912 0.85384333 0.75583911 0.72322905
15.95998955 7.01985264 1.38812542 0.81771773 0.75577706 0.48542094
18.16412544 7.20077562 1.47259212 0.93064767 0.77525574 0.51495856
16.35983658 7.01285028 2.03352070 0.83820409 0.75502318 0.71111268
15.71743393 7.03107834 1.36911201 0.80529028 0.75698566 0.47877204
17.71172714 7.15102291 1.43643939 0.90746886 0.76989919 0.50231612
16.00261116 6.97864199 1.99184561 0.81990147 0.75134021 0.69653910
18.11253929 7.16426134 2.12854695 0.92800462 0.77132452 0.74434292
16.07677460 7.04514456 0.79724818 0.82370126 0.75850004 0.27879396
18.37946320 7.24486208 0.80375397 0.94168061 0.78000218 0.28106901
15.77263832 7.17518711 1.37870598 0.80811870 0.77250081 0.48212701
17.41745758 7.16012526 1.41425478 0.89239180 0.77087921 0.49455827
15.66824055 6.94991207 1.95307803 0.80276984 0.74824703 0.68298227
17.67266464 7.11948586 2.07905984 0.90546745 0.76650387 0.72703749
15.86263180 7.07020473 0.78735125 0.81272954 0.76119810 0.27533305
15.81761169 7.31607246 1.38742769 0.81042290 0.78766888 0.48517695
17.00053215 7.11439705 1.38105989 0.87103039 0.76595598 0.48295018
15.36562157 6.93117571 1.91842961 0.78726500 0.74622983 0.67086583
17.33337784 7.11007643 2.04206014 0.88808393 0.76549077 0.71409887
15.79062462 7.15733290 0.78575498 0.80904025 0.77057856 0.27477482
14.93518639 7.02098417 1.30649018 0.76521146 0.75589889 0.45687351
16.67845345 7.10344648 1.35624599 0.85452855 0.76477700 0.47427288
18.99506378 7.29522514 1.42537451 0.97322118 0.78542441 0.49844679
15.45522881 7.08899212 1.93635952 0.79185605 0.76322079 0.67713583
16.98208046 7.09134531 2.00344181 0.87008506 0.76347417 0.70059419
15.82148170 7.29160452 0.79022455 0.81062120 0.78503460 0.27633783
16.32974815 7.07687712 1.32896709 0.83666247 0.76191646 0.46473357
18.58501816 7.27164745 1.39533973 0.95221233 0.78288597 0.48794377
15.10132599 7.01252031 1.89323068 0.77372366 0.75498766 0.66205388
16.64096642 7.04157877 1.96459210 0.85260791 0.75811613 0.68700868
15.80865192 7.37623882 0.79150158 0.80996388 0.79414660 0.27678439
16.87958336 7.11914730 0.73528254 0.86483353 0.76646739 0.25712487
14.23505878 6.88302374 1.24596143 0.72934008 0.74104565 0.43570688
15.98031425 7.01550388 1.30053782 0.81875908 0.75530887 0.45479199
18.19479942 7.21759939 1.36591804 0.93221927 0.77706701 0.47765514
14.79141426 6.98152113 1.85737073 0.75784522 0.75165015 0.64951384
16.31161499 7.02375793 1.92851746 0.83573341 0.75619751 0.67439353
18.74574852 7.20564556 2.11995625 0.96044743 0.77578002 0.74133879
18.00463867 7.22013140 2.69355321 0.92247629 0.77733964 0.94192296
15.82511616 7.50544882 0.79522622 0.81080741 0.80805773 0.27808687
14.96176434 7.35197639 1.32114255 0.76657319 0.79153442 0.46199736
15.93591881 7.11577225 1.30053782 0.81648445 0.76610404 0.45479199
19.01998901 7.36385822 0.73948699 0.97449827 0.79281366 0.25859514
17.76467133 7.17601633 1.33404446 0.91018146 0.77259004 0.46650910
14.53437614 6.97187519 1.82853746 0.74467576 0.75061166 0.63943100
15.93764019 6.98220491 1.88666165 0.81657267 0.75172377 0.65975672
18.31532669 7.17215109 2.07346296 0.93839455 0.77217394 0.72508031
17.70802116 7.23035908 2.65395927 0.90727895 0.77844077 0.92807710
15.79023266 7.61081696 0.79597116 0.80902016 0.81940192 0.27834737
16.19715309 7.07314205 0.70452279 0.82986891 0.76151437 0.24636832
13.91940880 6.94717407 1.22363377 0.71316761 0.74795228 0.42789900
15.78920746 7.16972780 1.29133534 0.80896759 0.77191305 0.45157391
18.94733238 7.47292852 0.73828351 0.97077566 0.80455649 0.25817430
17.41322327 7.16125870 1.30860686 0.89217484 0.77100122 0.45761368
14.97432613 7.06826973 2.76485157 0.76721680 0.76098979 0.96685565
14.28875351 6.96451139 1.80115783 0.73209113 0.74981886 0.62985647
15.64109707 6.97010660 1.85451818 0.80137908 0.75042123 0.64851630
17.94144249 7.15568447 2.03367543 0.91923839 0.77040106 0.71116680
17.10512161 7.10921144 2.56581235 0.87638909 0.76539767 0.89725256
15.78512287 7.73101139 0.79852521 0.80875832 0.83234239 0.27924052
15.83820629 7.03564596 0.68814296 0.81147808 0.75747740 0.24064037
15.86334991 7.32379580 1.30218112 0.81276631 0.78850043 0.45536664
18.16975975 7.29765511 0.70441371 0.93093634 0.78568602 0.24633017
17.05899620 7.14082861 1.28286290 0.87402582 0.76880169 0.44861114
14.68944645 7.04735994 2.71985292 0.75262082 0.75873858 0.95111984
13.97268677 6.91900826 1.76408648 0.71589732 0.74491984 0.61689276
15.39603710 6.97746229 1.82884967 0.78882337 0.75121319 0.63954014
17.55745506 7.13030910 1.99254692 0.89956462 0.76766908 0.69678432
17.08379936 7.22659397 2.56956959 0.87529665 0.77803540 0.89856642
15.75946808 7.84163189 0.79990864 0.80744392 0.84425211 0.27972430
15.83740520 7.15470886 0.69042856 0.81143707 0.77029604 0.24143963
14.94621468 7.69759750 1.33352745 0.76577646 0.82874495 0.46632829
15.10028458 7.08795834 1.23694181 0.77367032 0.76310951 0.43255275
18.08472633 7.39575052 0.70260847 0.92657965 0.79624724 0.24569888
16.70205879 7.11466789 1.25681233 0.85573798 0.76598513 0.43950137
14.42671490 7.03349733 2.67885399 0.73915964 0.75724608 0.93678266
13.77119827 6.92705822 1.74252200 0.70557398 0.74578655 0.60935175
15.48909187 7.13708019 1.84642446 0.79359102 0.76839811 0.64568597
17.19837570 7.11029434 1.95432413 0.88116705 0.76551425 0.68341798
17.03987312 7.33457565 2.56985855 0.87304610 0.78966099 0.89866751
15.72413731 7.94772005 0.80075997 0.80563372 0.85567385 0.28002200
15.81938362 7.26655245 0.69185698 0.81051373 0.78233743 0.24193914
18.07109070 7.52309084 0.70415580 0.92588097 0.80995709 0.24623999
16.38088226 7.09941483 1.23367333 0.83928233 0.76434296 0.43140978
18.67665100 7.27446985 1.27751911 0.95690715 0.78318983 0.44674245
14.41583347 7.14059162 2.68518710 0.73860216 0.76877612 0.93899733
13.78923702 7.04514265 1.75100243 0.70649815 0.75849986 0.61231732
15.06234264 7.05606461 1.79740000 0.77172637 0.75967574 0.62854236
16.83292961 7.08296204 1.91520715 0.86244321 0.76257157 0.66973895
18.27641678 7.19872904 2.62990189 0.93640095 0.77503538 0.91966438
15.72538471 8.07287025 0.80384612 0.80569762 0.86914790 0.28110123
15.79876900 7.37760878 0.69319022 0.80945748 0.79429406 0.24240537
15.21759796 8.08148003 1.37015867 0.77968091 0.87007481 0.47913808
14.24551582 6.90765095 1.16693687 0.72987586 0.74369711 0.40807235
17.14258003 7.26217699 0.66297907 0.87830830 0.78186637 0.23184067
16.00767899 7.05702257 1.20609045 0.82016110 0.75977886 0.42176417
18.28180695 7.25370979 1.25102735 0.93667716 0.78095478 0.43747839
14.69502163 7.39371443 2.74651885 0.75290650 0.79602808 0.96044475
13.73649788 7.09999180 1.74833715 0.70379603 0.76440507 0.61138529
14.75592899 6.99791527 1.76225030 0.75602710 0.75341523 0.61625069
16.50150108 7.03482389 1.87877262 0.84546232 0.75738889 0.65699798
18.87299156 7.22845078 1.99586570 0.96696675 0.77823532 0.69794488
16.10293198 7.14103174 2.43315840 0.82504141 0.76882350 0.85086411
17.94605827 7.16683435 2.58495355 0.91947490 0.77160150 0.90394616
15.71196651 8.15979958 0.80533600 0.80501014 0.87850696 0.28162223
15.81623363 7.47667503 0.69595194 0.81035233 0.80495983 0.24337113
15.18109989 8.15404606 1.37033308 0.77781093 0.87788749 0.47919905
15.00958538 7.36444187 1.24006414 0.76902330 0.79287648 0.43364462
17.13936806 7.35630989 0.66444045 0.87814373 0.79200101 0.23235172
19.51772499 7.52877569 0.62782168 1.00000000 0.81056911 0.21954630
15.71945858 7.01826143 1.18463707 0.80539399 0.75560576 0.41426203
17.88079071 7.19274759 1.22312641 0.91613090 0.77439141 0.42772159
14.69870472 7.48251486 2.75385189 0.75309521 0.80558854 0.96300912
13.71445274 7.19818401 1.75148702 0.70266658 0.77497673 0.61248678
14.49678993 6.98725700 1.73450053 0.74274999 0.75226772 0.60654670
16.16720772 7.01228666 1.84323204 0.82833463 0.75496250 0.64456964
18.44906998 7.19977045 1.95301294 0.94524693 0.77514750 0.68295950
15.92431736 7.18170643 2.41177201 0.81589001 0.77320266 0.84338540
17.67860031 7.18941498 2.55117249 0.90577155 0.77403259 0.89213306
15.70099449 8.27983284 0.80778360 0.80444801 0.89143008 0.28247815
15.83380604 7.60697174 0.69938028 0.81125265 0.81898797 0.24457000
15.12781906 8.24831486 1.37015867 0.77508104 0.88803673 0.47913808
14.07766914 7.01862860 1.15855598 0.72127610 0.75564528 0.40514159
17.08548737 7.46064758 0.66409659 0.87538314 0.80323428 0.23223147
19.10343933 7.50760794 0.61340892 0.97877389 0.80829018 0.21450622
15.81297302 7.17970753 1.19628322 0.81018525 0.77298748 0.41833463
17.51571655 7.17447519 1.19874835 0.89742613 0.77242416 0.41919670
14.64438915 7.57110739 2.75251865 0.75031233 0.81512666 0.96254289
13.69171524 7.29637909 1.75463688 0.70150161 0.78554869 0.61358827
14.23837662 6.97362232 1.70675075 0.72951007 0.75079978 0.59684277
15.82477379 6.98180962 1.80657399 0.81078988 0.75168121 0.63175046
18.03551292 7.16971874 1.91121054 0.92405814 0.77191204 0.66834140
15.64514923 7.17410755 2.37420106 0.80158675 0.77238458 0.83024698
15.68385315 8.39721489 0.80991197 0.80356973 0.90406775 0.28322241
15.91861916 7.77100754 0.70642740 0.81559807 0.83664852 0.24703436
15.07569504 8.34320259 1.37015867 0.77241045 0.89825261 0.47913808
16.19866562 7.19382668 0.62455314 0.82994640 0.77450758 0.21840331
15.91774082 7.34846878 1.20900202 0.81555307 0.79115677 0.42278233
17.13317108 7.14424610 1.17296112 0.87782621 0.76916957 0.41017902
13.68224335 7.40214777 1.75972509 0.70101631 0.79693604 0.61536759
14.01097012 6.97202635 1.68293226 0.71785879 0.75062793 0.58851355
15.45256329 6.93344259 1.76611590 0.79171950 0.74647391 0.61760247
17.60463333 7.12731552 1.86730742 0.90198183 0.76734680 0.65298867
15.13545799 7.05514860 2.29934835 0.77547246 0.75957710 0.80407137
17.12858200 7.21845531 2.48109746 0.87759113 0.77715915 0.86762816
15.67111683 8.51757431 0.81235957 0.80291718 0.91702598 0.28407833
15.98945713 7.93020773 0.71280789 0.81922752 0.85378844 0.24926558
14.98652077 8.41722775 1.36649549 0.76784158 0.90622240 0.47785708
14.99404240 7.71060896 1.25173151 0.76822698 0.83014584 0.43772465
15.90197277 7.18167543 0.61269015 0.81474519 0.77319932 0.21425487
18.30028534 7.45960522 0.58546132 0.93762392 0.80312204 0.20473307
15.07739353 7.07465553 1.14157712 0.77249748 0.76167727 0.39920416
16.77375793 7.11882734 1.14886487 0.85941154 0.76643294 0.40175265
13.66328716 7.50329542 1.76360190 0.70004505 0.80782586 0.61672330
13.81608772 6.98394203 1.66327620 0.70787388 0.75191081 0.58163989
15.48820972 7.06679201 1.77595103 0.79354584 0.76083070 0.62104177
17.26699829 7.11758661 1.83390749 0.88468295 0.76629937 0.64130884
15.17483807 7.19003630 2.31293178 0.77749008 0.77409953 0.80882138
17.04100800 7.30802727 2.47467637 0.87310421 0.78680271 0.86538273
18.78840065 7.25981140 2.58651161 0.96263272 0.78161168 0.90449101
15.66971779 8.64487171 0.81555212 0.80284548 0.93073118 0.28519475
15.95538044 8.03858662 0.71366501 0.81748158 0.86545682 0.24956530
14.95928574 8.52605343 1.36911201 0.76644617 0.91793883 0.47877204
15.53893280 7.13515377 0.59764642 0.79614466 0.76819068 0.20899415
17.91139412 7.43307447 0.57192647 0.91769886 0.80026567 0.20000000
16.44833565 7.10337877 1.12730515 0.84273839 0.76476973 0.39421332
18.77220917 7.30247450 1.17682815 0.96180314 0.78620493 0.41153130
15.17528152 7.12713480 2.67943501 0.77751285 0.76732737 0.93698585
13.65919399 7.61321545 1.76965928 0.69983536 0.81966013 0.61884153
13.79492378 7.08237791 1.66628242 0.70678955 0.76250869 0.58269113
15.18943024 7.04573822 1.74443388 0.77823776 0.75856394 0.61002034
16.91734695 7.09852791 1.79903710 0.86676836 0.76424748 0.62911487
14.48783684 6.97536850 2.20888925 0.74229127 0.75098777 0.77243823
18.35713196 7.22560644 2.53045917 0.94053644 0.77792907 0.88488972
15.65514565 8.76564312 0.81799978 0.80209887 0.94373375 0.28605068
15.74618721 8.05786419 0.70518941 0.80676347 0.86753231 0.24660143
14.95195580 8.64686203 1.37382174 0.76607060 0.93094546 0.48041901
15.24226189 7.11486435 0.58569747 0.78094459 0.76600629 0.20481566
17.50146675 7.39264870 0.55751371 0.89669603 0.79591334 0.19495994
14.28069687 6.92003918 1.08120120 0.73167837 0.74503088 0.37809098
16.12743759 7.08572817 1.10602713 0.82629699 0.76286942 0.38677251
18.34760857 7.26991320 1.15024924 0.94004852 0.78269929 0.40223676
14.72598362 7.02878857 2.60690188 0.75449282 0.75673914 0.91162139
17.52120018 7.21130800 2.85963225 0.89770710 0.77638966 1.00000000
13.64908981 7.69215250 1.77329373 0.69931763 0.82815874 0.62011254
13.75081062 7.14182568 1.66489494 0.70452940 0.76890904 0.58220595
14.93670845 7.01390648 1.71716380 0.76528943 0.75513685 0.60048413
16.56507111 7.04311752 1.76248610 0.84871936 0.75828183 0.61633313
14.37479782 7.00445175 2.19588399 0.73649967 0.75411892 0.76789033
16.24376678 7.17953777 2.36439896 0.83225715 0.77296919 0.82681924
18.90305710 7.23531151 1.89924705 0.96850717 0.77897394 0.66415781
18.03215599 7.19566679 2.48808479 0.92388618 0.77470571 0.87007159
15.68140316 8.87776852 0.82215011 0.80344421 0.95580548 0.28750205
15.49679852 8.02292538 0.69385684 0.79398590 0.86377066 0.24263848
14.96088886 8.74644470 1.37888038 0.76652831 0.94166678 0.48218802
14.93592358 7.05737543 0.57271689 0.76524919 0.75981688 0.20027642
17.11899757 7.32678747 0.54368627 0.87710005 0.78882253 0.19012454
15.07636833 7.39484739 1.15215063 0.77244496 0.79615003 0.40290168
15.72913837 6.99985027 1.07784438 0.80588996 0.75362355 0.37691712
17.95772362 7.21309662 1.12523377 0.92007256 0.77658224 0.39348897
14.53990555 7.02405500 2.57942247 0.74495906 0.75622946 0.90201193
17.22414780 7.18448067 2.81615400 0.88248748 0.77350134 0.98479587
13.65042973 7.80640554 1.78032029 0.69938630 0.84045953 0.62256968
13.73028374 7.24102497 1.66813242 0.70347768 0.77958906 0.58333808
14.73818016 7.03380680 1.69794071 0.75511771 0.75727940 0.59376192
16.23741150 7.02497292 1.72992647 0.83193159 0.75632828 0.60494721
14.03450680 6.94762325 2.14761996 0.71906471 0.74800062 0.75101262
16.13689041 7.25392151 2.35490680 0.82678133 0.78097755 0.82349986
18.48657990 7.20896626 1.85917795 0.94716877 0.77613753 0.65014583
17.64154243 7.16819334 2.43766451 0.90387291 0.77174783 0.85243988
15.67031002 9.00203800 0.82491696 0.80287588 0.96918470 0.28846958
15.48854733 8.14239597 0.69614244 0.79356313 0.87663323 0.24343775
15.00324821 8.89831924 1.38882315 0.76869863 0.95801806 0.48566493
14.88048553 7.14587784 0.57220113 0.76240879 0.76934528 0.20009606
16.74995613 7.29411888 0.53080988 0.85819203 0.78530532 0.18562172
14.04142666 6.99551105 1.06725657 0.71941924 0.75315636 0.37321463
15.81214333 7.15597057 1.08770835 0.81014276 0.77043188 0.38036650
17.56676483 7.18414545 1.10086977 0.90004164 0.77346528 0.38496900
14.35024643 7.04375315 2.55322099 0.73524177 0.75835025 0.89284945
17.27880669 7.33494234 2.83276033 0.88528794 0.78970051 0.99060303
13.62684917 7.90699768 1.78395474 0.69817817 0.85128957 0.62384063
13.70905209 7.34024715 1.67136991 0.70238984 0.79027164 0.58447021
14.40774727 6.98714876 1.66217661 0.73818785 0.75225604 0.58125538
15.88696575 6.99260521 1.69463587 0.81397629 0.75284350 0.59260625
13.85452652 6.96702766 2.12536645 0.70984334 0.75008976 0.74323070
16.07117081 7.34613514 2.35183573 0.82341415 0.79090554 0.82242596
18.07489014 7.17915201 1.81950951 0.92607564 0.77292764 0.63627392
17.34719086 7.17559719 2.40119028 0.88879162 0.77254492 0.83968496
15.49790859 9.03280735 0.81778693 0.79404277 0.97249740 0.28597626
16.07193947 8.57746029 0.73042578 0.82345355 0.92347348 0.25542647
14.88050747 8.95227718 1.38202024 0.76240993 0.96382731 0.48328599
16.31619644 7.22803974 0.51529968 0.83596814 0.77819103 0.18019788
15.86660290 7.30093050 1.09545863 0.81293303 0.78603870 0.38307676
17.21556664 7.16672087 1.07924175 0.88204783 0.77158928 0.37740579
14.48580742 7.22387552 2.58581305 0.74218726 0.77774274 0.90424669
17.14521790 7.40582657 2.81826758 0.87844348 0.79733211 0.98553497
13.61792850 8.01668549 1.78976989 0.69772112 0.86309886 0.62587416
13.69584846 7.44422054 1.67576361 0.70171338 0.80146569 0.58600670
14.19430256 6.99386787 1.64094174 0.72725189 0.75297946 0.57382965
15.56664085 6.96908522 1.66270638 0.79756433 0.75031132 0.58144063
15.85578632 7.36870813 2.32559276 0.81237882 0.79333580 0.81324887
17.64956856 7.13846922 1.77823830 0.90428412 0.76854765 0.62184161
17.15204811 7.22122526 2.37919855 0.87879342 0.77745742 0.83199459
15.22438335 9.00168037 0.80437821 0.78002858 0.96914619 0.28128728
16.09681892 8.72100925 0.73471117 0.82472825 0.93892837 0.25692505
15.04324627 8.43590736 1.28361177 0.77074796 0.90823346 0.44887301
14.89686203 7.38568735 0.57735896 0.76324785 0.79516387 0.20189972
16.10454750 7.25589275 0.50864202 0.82512420 0.78118980 0.17786974
15.24544907 7.13233566 1.05064797 0.78110790 0.76788729 0.36740667
16.81937408 7.12565756 1.05435658 0.86174870 0.76716828 0.36870354
14.60734272 7.39971495 2.61616826 0.74841422 0.79667407 0.91486180
16.91363525 7.43247986 2.78747034 0.86657822 0.80020165 0.97476530
13.60475922 8.12453175 1.79510045 0.69704634 0.87470990 0.62773824
13.68187714 7.54831648 1.68015730 0.70099753 0.81267297 0.58754313
13.98667717 7.00086021 1.62037742 0.71661413 0.75373226 0.56663841
15.56239128 7.08483744 1.66732776 0.79734659 0.76277351 0.58305669
13.85892868 7.18899202 2.14068389 0.71006888 0.77398705 0.74858713
15.12117958 7.14415932 2.21838641 0.77474087 0.76916027 0.77575934
17.30825233 7.12691689 1.74598277 0.88679659 0.76730388 0.61056197
17.07538033 7.31554890 2.37463927 0.87486529 0.78761256 0.83040023
19.12241173 7.36652613 2.48884392 0.97974592 0.79310089 0.87033707
14.99514580 8.53321171 1.28410470 0.76828349 0.91870952 0.44904539
14.88761616 7.49806118 0.57916421 0.76277417 0.80726230 0.20253101
16.20953560 7.42585611 0.51471436 0.83050334 0.79948854 0.17999320
15.00023079 7.13312817 1.03500664 0.76854402 0.76797259 0.36193699
18.33984375 7.59008884 0.49264264 0.93965071 0.81717026 0.17227483
16.49583244 7.11079597 1.03455269 0.84517187 0.76556826 0.36177823
18.85871696 7.31548500 1.06703150 0.96623540 0.78760564 0.37313592
13.46753502 6.92727327 2.41710162 0.69001561 0.74580967 0.84524912
16.10091019 7.19738483 2.65945101 0.82493788 0.77489066 0.92999756
13.60095119 8.23871326 1.80188477 0.69685125 0.88700300 0.63011068
13.66540337 7.65156221 1.68431973 0.70015347 0.82378870 0.58899873
13.86274242 7.04796553 1.61031878 0.71026427 0.75880378 0.56312096
15.43449497 7.14414644 1.65766490 0.79079378 0.76915884 0.57967764
13.73474598 7.23432302 2.12767863 0.70370632 0.77886754 0.74403924
14.50794506 6.96711683 2.12960625 0.74332154 0.75009936 0.74471331
16.95311356 7.10519218 1.71212435 0.86860090 0.76496494 0.59872186
17.04179192 7.42824936 2.37651658 0.87314439 0.79974622 0.83105671
18.46242905 7.24652576 2.40438747 0.94593143 0.78018129 0.84080303
14.96023464 8.63820076 1.28591239 0.76649481 0.93001294 0.44967753
16.24644852 8.31297588 0.64716166 0.83239460 0.89499831 0.22630940
16.24231911 7.56459379 0.51793349 0.83218300 0.81442541 0.18111892
16.15671158 7.08492231 1.01357615 0.82779688 0.76278263 0.35444283
18.38330078 7.26477766 1.03955555 0.94187725 0.78214639 0.36352772
13.56189346 7.08415270 2.44234443 0.69485009 0.76269978 0.85407639
15.96173000 7.25597048 2.64375043 0.81780690 0.78119814 0.92450714
13.59919739 8.32556629 1.80721533 0.69676143 0.89635384 0.63197476
13.66552544 7.73637962 1.68917596 0.70015973 0.83292037 0.59069693
13.82407761 7.11047935 1.60964823 0.70828325 0.76553416 0.56288642
14.84563828 6.95752525 1.59296560 0.76062340 0.74906671 0.55705261
13.74937344 7.32508373 2.13577080 0.70445573 0.78863907 0.74686903
14.18266106 6.89379740 2.08382034 0.72665542 0.74220556 0.72870219
16.62285995 7.05866814 1.67966831 0.85168022 0.75995606 0.58737212
18.96144295 7.22943878 1.74825823 0.97149861 0.77834171 0.61135769
15.82503414 6.98526430 2.20165491 0.81080323 0.75205320 0.76990843
18.05007172 7.18346977 2.35223842 0.92480409 0.77339256 0.82256675
15.38665104 8.68425274 0.70423710 0.78834242 0.93497103 0.24626842
13.94418049 8.84177303 1.30718791 0.71443677 0.95193011 0.45711750
14.97793102 8.74269772 1.29149961 0.76740146 0.94126338 0.45163137
16.32237053 8.44927788 0.65274936 0.83628446 0.90967298 0.22826339
17.38400078 8.19458961 0.56556147 0.89067763 0.88225251 0.19777420
15.72208309 6.98229742 0.98491263 0.80552846 0.75173372 0.34441933
18.00030708 7.21209621 1.01719415 0.92225438 0.77647454 0.35570803
13.55452538 7.16185236 2.44713736 0.69447261 0.77106512 0.85575247
15.34695435 7.06477165 2.54622626 0.78630859 0.76061314 0.89040339
13.60391712 8.44652557 1.81545341 0.69700325 0.90937668 0.63485557
13.65974426 7.84677219 1.69495714 0.69986355 0.84480554 0.59271854
13.79849339 7.20734501 1.61210704 0.70697242 0.77596301 0.56374627
14.72796631 7.01568794 1.58435309 0.75459445 0.75532866 0.55404085
13.65959072 7.38773489 2.12854552 0.69985569 0.79538429 0.74434239
14.08043098 6.95390940 2.07460737 0.72141761 0.74867743 0.72548050
16.28057098 7.03398514 1.64701200 0.83414286 0.75729859 0.57595235
18.57767487 7.21752691 1.71456122 0.95183611 0.77705920 0.59957403
15.79167557 7.08944035 2.20326424 0.80909407 0.76326907 0.77047116
17.92549133 7.26478243 2.34129977 0.91842115 0.78214687 0.81874156
15.24504757 8.73121548 0.69947553 0.78108734 0.94002718 0.24460332
13.78955173 8.86551857 1.29689622 0.70651430 0.95448661 0.45351854
16.56239319 8.70632172 0.66701937 0.84858215 0.93734705 0.23325355
17.03821754 8.16320705 0.55363619 0.87296122 0.87887383 0.19360398
14.27407742 7.09368086 0.98765957 0.73133922 0.76372558 0.34537992
19.01514435 7.44624615 0.37242615 0.97425002 0.80168378 0.13023569
17.49230385 7.13699722 0.98745823 0.89622658 0.76838917 0.34530953
13.51621342 7.25061846 2.44841552 0.69250965 0.78062195 0.85619944
15.21805191 7.12177467 2.53203535 0.77970421 0.76675028 0.88544089
13.58415127 8.55303288 1.82029939 0.69599050 0.92084354 0.63655019
13.64967728 7.95539999 1.70027590 0.69934773 0.85650069 0.59457850
13.77750015 7.30696964 1.61523640 0.70589685 0.78668886 0.56484061
13.66317463 7.50109959 2.13692665 0.70003933 0.80758947 0.74727327
13.91601467 6.98200703 2.05562282 0.71299368 0.75170249 0.71884167
15.92469311 6.99886274 1.61275291 0.81590927 0.75351721 0.56397212
18.16703224 7.19011974 1.67808700 0.93079662 0.77410847 0.58681917
15.78466129 7.20585060 2.20889616 0.80873471 0.77580214 0.77244061
14.91989422 8.96197605 1.29659390 0.76442796 0.96487153 0.45341280
16.29066467 8.69425678 0.65644580 0.83465999 0.93604809 0.22955602
16.78162575 8.17058277 0.54529577 0.85981464 0.87966788 0.19068737
14.01358986 7.07471466 0.97060901 0.71799302 0.76168364 0.33941743
15.95031738 7.32544231 1.00771320 0.81722218 0.78867769 0.35239258
14.89611053 7.08595324 2.48523593 0.76320934 0.76289362 0.86907536
13.59033394 8.67675018 1.82902205 0.69630730 0.93416327 0.63960046
13.63364983 8.06118393 1.70490086 0.69852656 0.86788970 0.59619582
13.77153778 7.41511488 1.62037742 0.70559132 0.79833210 0.56663841
13.78888416 7.02715111 2.04250121 0.70648009 0.75656283 0.71425313
15.61712170 6.98072100 1.58370280 0.80015069 0.75156403 0.55381346
17.75932884 7.15858507 1.64179790 0.90990776 0.77071339 0.57412905
15.77501011 7.32161522 2.21426010 0.80824023 0.78826565 0.77431637
16.77332878 7.04581785 2.19400978 0.85938954 0.75857252 0.76723492
13.81823158 9.13164139 1.31172311 0.70798373 0.98313814 0.45870343
14.79515362 9.01414013 1.29002070 0.75803679 0.97048765 0.45111421
15.99516964 8.66577148 0.64466876 0.81952018 0.93298131 0.22543764
16.60090256 8.21219730 0.54002815 0.85055518 0.88414824 0.18884532
15.21563625 8.53170586 1.20225954 0.77958041 0.91854739 0.42042452
18.18719864 8.17093086 0.49550036 0.93182987 0.87970537 0.17327416
15.94193077 7.44329023 1.01044929 0.81679249 0.80136555 0.35334939
16.86771774 7.13137722 0.95296460 0.86422563 0.76778412 0.33324724
14.57701111 7.04723120 2.43873811 0.74686015 0.75872469 0.85281527
13.60715199 8.80844879 1.83944082 0.69716895 0.94834232 0.64324385
13.63047028 8.17523670 1.71137571 0.69836366 0.88016891 0.59846008
13.75430202 7.51773977 1.62417734 0.70470828 0.80938095 0.56796718
14.01096058 7.00205040 1.51566255 0.71785825 0.75386041 0.53002012
13.58849335 7.68391562 2.14039493 0.69621295 0.82727194 0.74848610
13.57373810 7.02557516 2.01542044 0.69545698 0.75639313 0.70478308
15.60554314 7.09356880 1.58730912 0.79955751 0.76371354 0.55507457
17.38039970 7.13352871 1.60828614 0.89049309 0.76801574 0.56241012
16.42761040 7.02274656 2.15203619 0.84167647 0.75608861 0.75255698
15.67618752 8.62041378 0.63168818 0.80317700 0.92809796 0.22089839
16.59185982 8.33783340 0.54178405 0.85009187 0.89767456 0.18945934
14.93829727 8.49965954 1.18249178 0.76537085 0.91509724 0.41351184
17.99192619 8.21927452 0.49048343 0.92182499 0.88491017 0.17151976
15.09655190 7.16332579 0.95273125 0.77347910 0.77122378 0.33316565
16.52900505 7.11130762 0.93393362 0.84687150 0.76562333 0.32659221
14.08853626 6.92131519 2.36325502 0.72183293 0.74516821 0.82641923
13.61620235 8.28338432 1.71646321 0.69763267 0.89181244 0.60023916
13.73805618 7.62140703 1.62820077 0.70387590 0.82054210 0.56937420
13.81229210 7.01182032 1.49738705 0.70767939 0.75491226 0.52362925
13.70124626 7.20078659 2.04278040 0.70198995 0.77525693 0.71435076
15.49206066 7.15967607 1.57969594 0.79374313 0.77083081 0.55241227
17.01169205 7.10782719 1.57569993 0.87160218 0.76524866 0.55101490
14.60473442 7.00129223 2.05253983 0.74828058 0.75377876 0.71776354
16.12653542 7.01455355 2.11616755 0.82625079 0.75520653 0.74001390
16.54983139 8.44735718 0.54222304 0.84793854 0.90946621 0.18961285
14.98469353 8.65129757 1.19137955 0.76774794 0.93142301 0.41661984
17.68985558 8.21569920 0.48171970 0.90634823 0.88452524 0.16845512
16.20952225 7.09525299 0.91609210 0.83050263 0.76389486 0.32035312
14.00582790 6.99032545 2.35661244 0.71759534 0.75259805 0.82409632
13.62613201 8.37756824 1.72316945 0.69814140 0.90195251 0.60258430
13.74009514 7.70750189 1.63311839 0.70398039 0.82981128 0.57109386
13.61266041 7.89655590 2.15889120 0.69745117 0.85016537 0.75495416
13.71965885 7.29309082 2.05115604 0.70293331 0.78519464 0.71727967
14.98798370 7.01193476 1.52740574 0.76791656 0.75492460 0.53412664
16.66794586 7.05704689 1.54440987 0.85399020 0.75978148 0.54007292
14.38624668 6.97982740 2.02464771 0.73708624 0.75146782 0.70800984
15.79543018 6.95964289 2.07444811 0.80928642 0.74929470 0.72542477
13.93949795 8.82777882 1.22198772 0.71419686 0.95042348 0.42732337
15.66567039 8.84047413 0.63590044 0.80263811 0.95179027 0.22237140
16.82079506 8.68539047 0.55502623 0.86182147 0.93509352 0.19409007
15.00399685 8.75706673 1.19674289 0.76873696 0.94281042 0.41849539
17.43577576 8.19752979 0.47416258 0.89333034 0.88256907 0.16581243
15.79973793 7.00530338 0.89158970 0.80950713 0.75421065 0.31178474
13.60696793 8.48399639 1.72779429 0.69715953 0.91341090 0.60420156
13.72246361 7.81141853 1.63714182 0.70307702 0.84099925 0.57250082
13.62924290 8.02116299 2.17016244 0.69830078 0.86358094 0.75889564
16.36161613 7.04925489 1.51793373 0.83829522 0.75894260 0.53081429
14.14490986 6.97255802 1.99487841 0.72472125 0.75068516 0.69759965
15.44891167 6.92362738 2.03196573 0.79153240 0.74541718 0.71056890
13.81997204 8.87434101 1.21574318 0.70807290 0.95543647 0.42513970
15.65833473 8.96658611 0.63830739 0.80226231 0.96536785 0.22321311
15.07213688 8.92446232 1.20777607 0.77222818 0.96083266 0.42235363
17.15317535 8.19635582 0.46603388 0.87885118 0.88244271 0.16296986
14.16283703 7.02137470 0.89384073 0.72563976 0.75594091 0.31257191
15.79729271 7.12326336 0.89432544 0.80938184 0.76691055 0.31274143
13.60245609 6.97739935 2.30075502 0.69692838 0.75120640 0.80456322
13.61052799 8.60534668 1.73565674 0.69734192 0.92647576 0.60695106
13.71954536 7.92438364 1.64317703 0.70292747 0.85316139 0.57461131
13.84562302 7.33205891 1.51608264 0.70938712 0.78939003 0.53016698
13.58027363 8.10765553 2.17045140 0.69579184 0.87289298 0.75899667
13.67907333 7.49339247 2.05953145 0.70085388 0.80675966 0.72020853
14.23794365 6.87941647 1.45347822 0.72948790 0.74065727 0.50827450
15.97211266 7.00121832 1.48294067 0.81833887 0.75377083 0.51857740
13.94143009 6.98121929 1.97074103 0.71429586 0.75161767 0.68915892
15.47193146 7.05091667 2.04137802 0.79271185 0.75912148 0.71386033
15.64657784 9.09094238 0.64054245 0.80165994 0.97875637 0.22399469
16.33432961 8.69642448 0.53944290 0.83689719 0.93628150 0.18864065
14.93035221 8.96754837 1.20011413 0.76496375 0.96547145 0.41967428
16.85511208 8.18408298 0.45733365 0.86357975 0.88112134 0.15992744
14.12200356 7.11202288 0.89410126 0.72354764 0.76570034 0.31266302
15.88477612 7.28296566 0.90300828 0.81386411 0.78410453 0.31577778
13.58642292 7.07730436 2.30558586 0.69610691 0.76196247 0.80625260
13.60138321 8.71958542 1.74190044 0.69687337 0.93877506 0.60913444
13.70718098 8.03258419 1.64809453 0.70229399 0.86481059 0.57633096
13.83258915 7.43675947 1.52007389 0.70871931 0.80066240 0.53156275
13.59503174 8.23288727 2.18172264 0.69654799 0.88637578 0.76293820
13.49315166 7.50238419 2.03719687 0.69132811 0.80772775 0.71239823
15.76584816 7.02945185 1.46646249 0.80777079 0.75681055 0.51281506
13.84609509 7.04255295 1.96296346 0.70941132 0.75822103 0.68643910
15.41831875 7.14383078 2.04010606 0.78996497 0.76912487 0.71341550
13.90215969 9.17552662 1.23496985 0.71228379 0.98786294 0.43186316
15.62699413 9.21143818 0.64243364 0.80065656 0.99172932 0.22465603
16.14917755 8.72870255 0.53402895 0.82741088 0.93975663 0.18674742
14.81074715 9.02272129 1.19444430 0.75883573 0.97141153 0.41769159
16.98073959 8.37757492 0.46362069 0.87001634 0.90195322 0.16212599
15.93284988 7.42637825 0.90919340 0.81632721 0.79954475 0.31794068
13.58540916 7.18558168 2.31313419 0.69605494 0.77361989 0.80889219
13.81878471 7.54158545 1.52406502 0.70801204 0.81194824 0.53295839
13.38464546 8.22058105 2.15455604 0.68576872 0.88505083 0.75343817
14.10410309 7.03463554 1.44826925 0.72263050 0.75736862 0.50645298
15.77036572 7.15051794 1.47146142 0.80800223 0.76984483 0.51456314
13.79981232 7.12849903 1.96269524 0.70704001 0.76747423 0.68634534
14.91343689 7.02472734 1.97498310 0.76409709 0.75630188 0.69064236
13.83760262 9.25826931 1.23431253 0.70897621 0.99677128 0.43163332
15.81173038 8.67552853 0.52225000 0.81012160 0.93403178 0.18262838
13.97557354 7.93118715 0.99681896 0.71604520 0.85389388 0.34858292
16.95098686 8.49577045 0.46444625 0.86849195 0.91467851 0.16241467
14.05983639 7.30367565 0.89618593 0.72036248 0.78633422 0.31339201
15.17462540 7.19037485 0.86232960 0.77747923 0.77413595 0.30155262
13.53650665 7.26893282 2.31253028 0.69354939 0.78259373 0.80868101
13.60856152 8.20625210 1.64854157 0.69724119 0.88350815 0.57648724
13.80420780 7.64653063 1.52805626 0.70726520 0.82324696 0.53435409
13.39781094 7.67134714 2.03719687 0.68644327 0.82591879 0.71239823
13.88400269 7.03385353 1.42843509 0.71135354 0.75728440 0.49951705
15.81559944 7.29104471 1.48071885 0.81031984 0.78497434 0.51780045
13.66179276 7.16614819 1.94848108 0.69996852 0.77152765 0.68137473
14.63446999 7.00636768 1.94165850 0.74980408 0.75432521 0.67898887
15.73069954 8.76014805 0.52115256 0.80596995 0.94314212 0.18224461
14.03792381 8.08341026 1.00597835 0.71923977 0.87028265 0.35178593
14.82857990 7.14128447 0.84246600 0.75974941 0.76885074 0.29460642
13.53920841 7.38027239 2.32098436 0.69368786 0.79458088 0.81163734
13.78017712 7.71828413 1.52952671 0.70603400 0.83097214 0.53486830
13.47083759 8.47922802 2.18519092 0.69018483 0.91289753 0.76415104
13.51245689 7.82150745 2.06176496 0.69231719 0.84208548 0.72098953
13.89671421 7.12286139 1.43364406 0.71200484 0.76686728 0.50133860
15.06607914 7.03280354 1.40740013 0.77191776 0.75717139 0.49216124
13.73284531 7.28632069 1.96457267 0.70360893 0.78446573 0.68700188
14.37800503 6.96740198 1.90986013 0.73666400 0.75013006 0.66786915
15.77637672 8.88311291 0.52481061 0.80831021 0.95638090 0.18352382
14.94176292 8.69629574 1.08291733 0.76554841 0.93626761 0.37869111
14.11065197 7.52845335 0.90595758 0.72296602 0.81053442 0.31680912
14.53079224 7.08282518 0.82498133 0.74449211 0.76255685 0.28849211
13.58001041 8.39413071 1.65681207 0.69577837 0.90373570 0.57937944
13.75563526 7.81844282 1.53246760 0.70477659 0.84175551 0.53589672
13.62369442 8.00031471 2.08800817 0.69801652 0.86133635 0.73016667
13.96281433 7.26806402 1.44626582 0.71539152 0.78250021 0.50575238
13.71643543 7.38847923 1.96913195 0.70276815 0.79546440 0.68859619
14.16120243 6.97282362 1.88518465 0.72555602 0.75071377 0.65924025
15.79318428 9.02362537 0.52788341 0.80917138 0.97150886 0.18459836
13.86800289 8.90183258 1.12809217 0.71053380 0.95839632 0.39448854
15.06217670 8.89326382 1.09729052 0.77171785 0.95747375 0.38371736
14.09814453 7.63601875 0.90856338 0.72232521 0.82211524 0.31772035
14.33562660 7.09974813 0.81499004 0.73449272 0.76437885 0.28499821
13.67002487 8.56919765 1.67581165 0.70039028 0.92258388 0.58602351
13.80451965 7.96122932 1.54444110 0.70728117 0.85712832 0.54008383
13.48121262 8.03114223 2.07293224 0.69071639 0.86465532 0.72489470
15.03854942 7.95035982 1.57408631 0.77050728 0.85595804 0.55045062
14.21012592 6.85317659 1.32834172 0.72806263 0.73783225 0.46451488
13.69928265 7.49071884 1.97369111 0.70188934 0.80647182 0.69019055
13.93425465 6.97048855 1.85898280 0.71392822 0.75046235 0.65007758
15.76558971 9.13968563 0.52912712 0.80775756 0.98400420 0.18503328
14.97859859 8.97135639 1.09503591 0.76743567 0.96588141 0.38292894
16.40734100 8.71240234 0.45225322 0.84063798 0.93800169 0.15815084
14.06212139 7.73119450 0.90947539 0.72047955 0.83236212 0.31803927
14.15867424 7.12345076 0.80618823 0.72542644 0.76693070 0.28192025
13.67289543 8.69124031 1.68341160 0.70053738 0.93572336 0.58868116
13.77827644 8.06184006 1.54738200 0.70593661 0.86796033 0.54111224
13.41939449 8.80450344 2.20455432 0.68754911 0.94791758 0.77092230
13.60350990 8.21993637 2.10140896 0.69698232 0.88498145 0.73485285
13.86161995 7.43823147 1.44526410 0.71020675 0.80082089 0.50540209
14.91116238 7.30591202 1.40536344 0.76398057 0.78657502 0.49144900
13.68311787 7.59399748 1.97851861 0.70106113 0.81759107 0.69187868
13.91803360 9.18321991 1.14310956 0.71309716 0.98869127 0.39974007
14.83662128 9.01359940 1.08799016 0.76016140 0.97042942 0.38046506
16.20631599 8.73642826 0.44698226 0.83033836 0.94058841 0.15630761
15.14179516 8.45099163 0.99390256 0.77579713 0.90985751 0.34756306
14.07627869 7.19324112 0.80369037 0.72120488 0.77444452 0.28104675
13.65307045 8.79963303 1.68810558 0.69952160 0.94739318 0.59032261
13.74275589 8.15736866 1.54927254 0.70411670 0.87824523 0.54177332
13.59891033 8.33416176 2.10922599 0.69674671 0.89727926 0.73758644
14.67766094 7.30650759 1.38592291 0.75201702 0.78663915 0.48465076
13.62305355 7.67299652 1.97664130 0.69798368 0.82609636 0.69122219
13.66386604 7.05157137 1.83278096 0.70007473 0.75919199 0.64091492
13.88655758 9.28825855 1.14556134 0.71148443 1.00000000 0.40059742
16.16337204 8.84481335 0.44742683 0.82813811 0.95225745 0.15646307
15.15954876 8.58637238 0.99924439 0.77670676 0.92443293 0.34943107
14.06272316 7.29805470 0.80583137 0.72051036 0.78572905 0.28179544
13.76796532 8.28962517 1.55872536 0.70540833 0.89248431 0.54507893
13.57657719 8.43822002 2.11425138 0.69560242 0.90848249 0.73934382
13.92727852 7.04360199 1.31260407 0.71357077 0.75833398 0.45901150
13.64679050 7.79983997 1.98790538 0.69919986 0.83975267 0.69516122
16.10049248 8.94230556 0.44717279 0.82491648 0.96275371 0.15637423
15.11913395 8.68942451 1.00028670 0.77463609 0.93552786 0.34979558
14.04310226 7.40019608 0.80761552 0.71950507 0.79672587 0.28241935
13.72534847 8.35234928 1.55830526 0.70322484 0.89923739 0.54493207
13.60212040 8.54310131 2.12513947 0.69691116 0.91977429 0.74315131
14.00353336 7.82943010 1.47671831 0.71747774 0.84293842 0.51640147
14.89269352 7.61855221 1.41684270 0.76303428 0.82023472 0.49546325
13.63903522 7.88095665 1.99246466 0.69880253 0.84848595 0.69675553
13.67671204 7.24957609 1.84600914 0.70073289 0.78050971 0.64554077
13.88018417 8.76571560 1.02133799 0.71115792 0.94374156 0.35715711
14.06403828 8.16985321 0.92367685 0.72057772 0.87958932 0.32300547
14.00983620 7.46722698 0.80773449 0.71780068 0.80394262 0.28246096
13.69631195 8.45301723 1.56124616 0.70173711 0.91007555 0.54596049
13.99211311 7.93891430 1.48112595 0.71689260 0.85472584 0.51794279
14.97184658 7.77792120 1.43017340 0.76708972 0.83739287 0.50012493
13.63366890 7.99261522 1.99943769 0.69852757 0.86050743 0.69919401
13.68683052 7.36537457 1.85414946 0.70125133 0.79297692 0.64838737
14.04507256 8.27735233 0.92615235 0.71960604 0.89116299 0.32387114
14.01535511 7.58354092 0.81130278 0.71808344 0.81646532 0.28370878
13.72391987 8.58945370 1.57132912 0.70315164 0.92476469 0.54948646
13.63355827 8.80341721 2.14859080 0.69852191 0.94780064 0.75135213
15.10598087 7.96824741 1.44942880 0.77396220 0.85788387 0.50685847
13.63084126 8.10654736 2.00694704 0.69838268 0.87277365 0.70181996
13.66118908 7.46261024 1.85720217 0.69993758 0.80344558 0.64945489
13.93137741 9.04462051 1.03500664 0.71378082 0.97376925 0.36193699
14.02188587 8.38288116 0.92836726 0.71841806 0.90252453 0.32464567
14.02346611 7.70213556 0.81510901 0.71849900 0.82923353 0.28503981
13.71673775 8.70529556 1.57721090 0.70278364 0.93723655 0.55154324
13.42873001 8.79146671 2.12346435 0.68802744 0.94651401 0.74256551
14.91458607 8.71359921 1.60053182 0.76415598 0.93813056 0.55969846
14.96954155 8.01703739 1.44035649 0.76697165 0.86313677 0.50368589
13.61863995 8.21562862 2.01311541 0.69775754 0.88451767 0.70397705
13.66090775 7.57420921 1.86407053 0.69992316 0.81546062 0.65185672
14.00986385 8.49570465 0.93149418 0.71780211 0.91467142 0.32573915
14.01144218 7.81046200 0.81760681 0.71788293 0.84089625 0.28591326
13.66679192 8.79453087 1.57784104 0.70022464 0.94684386 0.55176359
14.86125374 8.80815411 1.60073221 0.76142347 0.94831061 0.55976856
14.96964455 8.13845921 1.44572580 0.76697689 0.87620938 0.50556356
13.59377956 8.31761932 2.01740646 0.69648379 0.89549828 0.70547760
13.47290897 7.58127832 1.84346521 0.69029093 0.81622171 0.64465117
13.96979713 8.59194374 0.93253648 0.71574926 0.92503279 0.32610363
13.99687004 7.91795969 0.81998569 0.71713632 0.85246980 0.28674516
14.96357632 8.25731659 1.45053971 0.76666600 0.88900590 0.50724691
13.47672844 7.69522285 1.85109687 0.69048667 0.82848930 0.64731991
13.90369225 8.67214012 0.93162447 0.71236235 0.93366694 0.32578471
13.97976589 8.02459049 0.82224560 0.71626002 0.86394995 0.28753543
13.91662407 9.17261028 1.62174416 0.71302491 0.98754901 0.56711632
13.90532112 8.44816685 1.49955773 0.71244580 0.90955335 0.52438831
14.96278191 8.34904099 1.45461297 0.76662529 0.89888120 0.50867134
13.53316021 7.81207895 1.86483371 0.69337797 0.84107035 0.65212363
13.98845291 8.11737537 0.82545710 0.71670508 0.87393945 0.28865847
13.89767265 8.56361198 1.50496709 0.71205389 0.92198253 0.52627993
14.94297504 8.46149349 1.45813072 0.76561052 0.91098815 0.50990146
13.44135475 8.54698753 2.01633382 0.68867427 0.92019266 0.70510250
13.56603718 7.94497013 1.87704432 0.69506240 0.85537779 0.65639359
13.96544743 8.92571545 0.94387162 0.71552640 0.96096760 0.33006749
13.95955658 8.21824551 0.82700336 0.71522456 0.88479936 0.28919920
14.95517349 8.59283829 1.46516645 0.76623547 0.92512912 0.51236182
13.47393417 8.68722820 2.03027987 0.69034350 0.93529141 0.70997936
13.58070755 8.06847000 1.88671100 0.69581407 0.86867416 0.65977401
13.96596622 8.34052467 0.83104742 0.71555299 0.89796430 0.29061338
14.93015575 8.70364952 1.46831393 0.76495367 0.93705934 0.51346248
13.57735443 8.18224907 1.89383376 0.69564229 0.88092393 0.66226476
13.94233704 8.44565868 0.83306944 0.71434230 0.90928334 0.29132047
13.73546600 8.82511806 1.50516737 0.70374316 0.95013702 0.52634996
14.90261936 8.81347370 1.47127628 0.76354283 0.94888335 0.51449841
13.41387653 8.19925690 1.87704432 0.68726641 0.88275504 0.65639359
13.96730518 8.58106995 0.83854085 0.71562159 0.92386210 0.29323381
14.88454437 8.92942905 1.47534955 0.76261675 0.96136743 0.51592284
13.64389324 8.45756340 1.91952682 0.69905144 0.91056502 0.67124951
14.02333927 8.73714638 0.84627223 0.71849251 0.94066572 0.29593742
13.89503479 9.14550209 1.53622091 0.71191877 0.98463047 0.53720927
13.58706188 8.51125526 1.91698301 0.69613963 0.91634566 0.67035997
13.82737446 9.22598648 1.53501892 0.70845217 0.99329561 0.53678894
13.59029484 8.63254833 1.92563212 0.69630527 0.92940438 0.67338455
13.78439140 8.84062862 1.38407135 0.70624989 0.95180690 0.48400328
13.88956928 9.12480640 1.40665948 0.71163875 0.98240227 0.49190223
13.83196259 9.21189690 1.40665948 0.70868725 0.99177867 0.49190223
