6.16830873 14.42259502 1.23497200 0.98472166 0.76553363 0.57703173
6.22993994 14.82494259 1.26951003 0.99456060 0.78688973 0.59316933
6.26401234 15.17334366 1.29881501 1.00000000 0.80538243 0.60686189
6.09411907 14.31067944 1.75948274 0.97287786 0.75959325 0.82210553
5.94217348 14.58609295 1.24055398 0.94862098 0.77421188 0.57963985
5.99491549 14.32669830 1.75657523 0.95704085 0.76044351 0.82074702
5.86516380 14.66015625 1.24404263 0.93632698 0.77814305 0.58126992
5.88296032 14.31080437 1.74954867 0.93916804 0.75959992 0.81746393
5.79036093 14.74124718 1.24822903 0.92438531 0.78244728 0.58322597
5.77959204 14.31433201 1.74518728 0.92266613 0.75978714 0.81542611
5.51403189 14.29934311 1.20339942 0.88027155 0.75899154 0.56227964
5.67495346 14.31343365 1.74034131 0.90596139 0.75973946 0.81316185
5.36926937 14.18828583 1.18979359 0.85716134 0.75309676 0.55592239
5.56983757 14.30993652 1.73525310 0.88918048 0.75955385 0.81078440
6.15319586 14.33968544 1.67761362 0.98230904 0.76113290 0.78385282
5.31732750 14.32265377 1.19921303 0.84886926 0.76022887 0.56032360
5.48745489 14.29708290 1.73016489 0.87602878 0.75887161 0.80840701
6.06767893 14.32647228 1.67229486 0.96865690 0.76043153 0.78136766
5.25182104 14.35316753 1.19973636 0.83841169 0.76184851 0.56056809
5.99859524 14.70535755 1.17104518 0.95762825 0.78054231 0.54716235
5.38008451 14.28480911 1.72410738 0.85888791 0.75822014 0.80557668
5.95993423 14.32215214 1.66697621 0.95145631 0.76020223 0.77888256
5.14946795 14.35210991 1.19659650 0.82207179 0.76179236 0.55910105
5.88377285 14.68727684 1.16611528 0.93929780 0.77958262 0.54485893
5.42806196 15.23793316 0.15893492 0.86654717 0.80881077 0.07426119
5.28199816 14.29597378 1.72119987 0.84322923 0.75881273 0.80421817
5.85927105 14.33358574 1.66373873 0.93538624 0.76080912 0.77736986
5.82431316 14.80738449 1.17351007 0.92980552 0.78595775 0.54831409
5.17387676 14.27845860 1.71465790 0.82596850 0.75788301 0.80116147
5.75053167 14.32405281 1.65795755 0.91802686 0.76030314 0.77466863
5.18258286 14.38265324 0.67656964 0.82735837 0.76341355 0.31612226
4.96289206 14.39872551 1.19502664 0.79228646 0.76426667 0.55836755
5.07148123 14.27512455 1.71005416 0.80962187 0.75770605 0.79901040
5.64506769 14.32110977 1.65310133 0.90119040 0.76014692 0.77239960
5.08482218 14.39420795 0.67539901 0.81175160 0.76402688 0.31557527
5.02278948 14.87720299 1.23636746 0.80184859 0.78966367 0.57768375
5.66896248 14.96137714 1.18074071 0.90500498 0.79413152 0.55169255
4.96998262 14.27294445 1.70569289 0.79341841 0.75759035 0.79697263
5.53914928 14.31555653 1.64801383 0.88428134 0.75985217 0.77002251
4.83140469 14.61135006 1.20898128 0.77129555 0.77555251 0.56488770
5.65359592 15.20772076 1.19931006 0.90255183 0.80720711 0.56036890
4.89304590 14.26802444 1.70205843 0.78113604 0.75732923 0.79527444
5.45528412 14.29883194 1.64269519 0.87089294 0.75896442 0.76753742
6.12704372 14.30879784 1.61188352 0.97813404 0.75949341 0.75314087
4.98402166 14.61945343 0.68497670 0.79565960 0.77598262 0.32005039
4.96022701 15.24426937 1.26514924 0.79186100 0.80914706 0.59113181
5.26878643 14.38302517 1.12453949 0.84112006 0.76343328 0.52543294
4.79133749 14.26271343 1.69745481 0.76489913 0.75704730 0.79312342
5.35345268 14.30121326 1.63876390 0.85463637 0.75909084 0.76570052
6.01703930 14.29935646 1.60607183 0.96057272 0.75899225 0.75042540
5.91276789 17.72066689 0.85737461 0.94392663 0.94059122 0.40060207
4.89686298 15.37769222 1.27456868 0.78174543 0.81622899 0.59553295
5.63009739 15.66833782 1.23431253 0.89880049 0.83165610 0.57672358
4.69359684 14.26801014 1.69430494 0.74929559 0.75732845 0.79165167
5.24974585 14.29728889 1.63413894 0.83808041 0.75888252 0.76353955
5.91269398 14.30196381 1.60182488 0.94391483 0.75913066 0.74844104
5.76174879 17.63592529 0.85056382 0.91981763 0.93609321 0.39741978
5.39863348 15.32756329 1.20144629 0.86184913 0.81356823 0.56136703
5.94574070 15.10591030 1.10924387 0.94919044 0.80180317 0.51828617
4.59294939 14.26318932 1.68994355 0.73322803 0.75707257 0.78961384
5.14765120 14.29636383 1.62997651 0.82178175 0.75883341 0.76159471
5.80855465 14.30382633 1.59757793 0.92728978 0.75922954 0.74645668
5.64476395 17.65275002 0.84949964 0.90114188 0.93698627 0.39692253
5.19632101 14.37876225 0.59081638 0.82955152 0.76320702 0.27605465
4.81483889 15.80599022 1.30823445 0.76865095 0.83896255 0.61126304
4.95824289 14.36866093 1.11484396 0.79154426 0.76267087 0.52090275
5.88079739 15.22113228 1.11567986 0.93882275 0.80791897 0.52129334
4.49373579 14.26145744 1.68606687 0.71738935 0.75698066 0.78780252
5.05042219 14.30782890 1.62743282 0.80625993 0.75944197 0.76040620
5.70242405 14.29940510 1.59266031 0.91034687 0.75899482 0.74415898
5.51175117 17.61732101 0.84556216 0.87990743 0.93510574 0.39508277
5.09850788 14.39042377 0.58976883 0.81393641 0.76382601 0.27556521
4.77658701 16.04223442 1.32707334 0.76254433 0.85150206 0.62006539
5.16266251 15.26773643 1.19043624 0.82417822 0.81039268 0.55622268
4.39472628 14.25904274 1.68219006 0.70158327 0.75685245 0.78599107
4.94542885 14.29611778 1.62211406 0.78949857 0.75882035 0.75792104
5.59657955 14.29421520 1.58774281 0.89344966 0.75871938 0.74186128
5.40153265 17.65351486 0.84566855 0.86231196 0.93702686 0.39513248
4.75273514 16.33794022 1.35131979 0.75873655 0.86719781 0.63139439
5.66134739 15.21903419 1.10955036 0.90378928 0.80780762 0.51842934
4.89898443 16.98313904 0.18645315 0.78208411 0.90144414 0.08711888
4.31258059 14.23017502 1.67589033 0.68846935 0.75532019 0.78304762
4.86642885 14.28543091 1.61795163 0.77688688 0.75825310 0.75597614
5.51774311 14.29074955 1.58416641 0.88086402 0.75853544 0.74019027
6.14850092 14.33456898 1.50873053 0.98155951 0.76086128 0.70494342
5.08153915 16.88864708 0.80171776 0.81122750 0.89642864 0.37459680
4.74820423 16.61502647 1.37451947 0.75801325 0.88190520 0.64223427
5.25436306 14.32772064 1.03446352 0.83881748 0.76049781 0.48334557
4.27303553 14.42647171 1.69745481 0.68215632 0.76573938 0.79312342
4.76394939 14.27805328 1.61332667 0.76052684 0.75786150 0.75381517
5.41380882 14.28794670 1.57969582 0.86427176 0.75838667 0.73810142
6.03661585 14.32162857 1.50284874 0.96369797 0.76017445 0.70219517
4.97420311 16.91640854 0.80150491 0.79409218 0.89790219 0.37449735
5.10775137 15.24510288 0.62843281 0.81541210 0.80919135 0.29363066
4.70822763 16.87681961 1.39562607 0.75163126 0.89580083 0.65209615
4.85856676 15.23127460 1.17975473 0.77563173 0.80845731 0.55123186
5.64022923 15.68962955 1.14295626 0.90041798 0.83278626 0.53403801
4.34983253 15.03490639 1.77135539 0.69441634 0.79803437 0.82765293
4.66733027 14.28694153 1.61078298 0.74510235 0.75833327 0.75262666
5.30598736 14.27322102 1.57388425 0.84705889 0.75760502 0.73538601
5.93200731 14.32437992 1.49885750 0.94699800 0.76032048 0.70033032
4.86342335 16.93196678 0.80065358 0.77640706 0.89872801 0.37409958
5.78890848 17.63536453 0.74680555 0.92415345 0.93606347 0.34893948
4.60574245 16.91952896 1.39684713 0.73527032 0.89806777 0.65266669
4.98993063 15.98615456 1.24236476 0.79660296 0.84852540 0.58048594
5.63004446 15.97688770 1.16349018 0.89879203 0.84803355 0.54363233
4.27408457 15.12883186 1.77983570 0.68232375 0.80301982 0.83161533
4.56592703 14.28004837 1.60638928 0.72891414 0.75796741 0.75057375
5.20874071 14.28572845 1.57142544 0.83153421 0.75826889 0.73423713
5.82835484 14.32822418 1.49507642 0.93045074 0.76052451 0.69856364
4.92450619 17.56235313 0.83385611 0.78615844 0.93218809 0.38961321
5.66388512 17.62766075 0.74461526 0.90419441 0.93565458 0.34791607
4.48305607 16.88649368 1.39126515 0.71568441 0.89631432 0.65005857
4.82336760 15.80184841 1.22379529 0.77001244 0.83874267 0.57180947
5.20385075 14.37983131 0.51993501 0.83075356 0.76326376 0.24293587
5.62230730 16.28159714 1.18540335 0.89755684 0.86420715 0.55387110
5.87942362 15.16918850 1.01091039 0.93860346 0.80516189 0.47234055
5.13529682 16.99051285 0.08804569 0.81980950 0.90183556 0.04113871
4.46419954 14.27055168 1.60176432 0.71267414 0.75746334 0.74841273
5.10088158 14.26762009 1.56539023 0.81431538 0.75730771 0.73141724
5.71896696 14.31656456 1.48961484 0.91298783 0.75990564 0.69601172
4.81878710 17.61029053 0.83481389 0.76928121 0.93473256 0.39006072
4.37537670 16.90853882 1.39074194 0.69849426 0.89748448 0.64981407
5.10341311 14.38398361 0.51864558 0.81471950 0.76348418 0.24233338
5.18939638 15.33584309 1.10587263 0.82844609 0.81400770 0.51671094
4.46269369 17.40658951 0.19184671 0.71243376 0.92392039 0.08963899
4.36898088 16.24763489 1.91455281 0.69747323 0.86240447 0.89456093
4.36393976 14.26413918 1.59760177 0.69666845 0.75712299 0.74646783
5.00393248 14.27874565 1.56293142 0.79883820 0.75789827 0.73026836
5.60922766 14.30224705 1.48394310 0.89546883 0.75914568 0.69336164
4.69573545 17.59389496 0.83225983 0.74963701 0.93386233 0.38886738
5.35471725 17.41493225 0.73052096 0.85483825 0.92436320 0.34133062
4.20506573 16.68060493 1.36771655 0.67130548 0.88538599 0.63905561
4.73815393 16.24952507 1.25715446 0.75640875 0.86250484 0.58739632
5.30853271 16.02146339 1.15873981 0.84746522 0.85039955 0.54141277
5.81572390 15.58189011 1.03655660 0.92843431 0.82706755 0.48432356
4.30497169 16.31604767 1.92061031 0.68725467 0.86603576 0.89739120
4.29724789 14.28644657 1.59783304 0.68602163 0.75830704 0.74657589
4.91850424 14.24953938 1.55667281 0.78520030 0.75634801 0.72734410
5.53168869 14.30256367 1.48100221 0.88309032 0.75916249 0.69198751
6.18377352 14.38477135 1.43785131 0.98719049 0.76352596 0.67182559
4.60269928 17.57717514 0.83013147 0.73478454 0.93297487 0.38787290
5.01495600 16.59121895 0.68823820 0.80059803 0.88064152 0.32157430
4.15732956 16.82599640 1.37905478 0.66368479 0.89310318 0.64435333
4.84178495 16.89804077 1.31089067 0.77295268 0.89692724 0.61250412
5.01201391 14.63591576 0.52758580 0.80012834 0.77685642 0.24651064
5.22127104 16.01026535 1.15582836 0.83353460 0.84980518 0.54005241
5.81963301 15.81873226 1.05233896 0.92905837 0.83963889 0.49169773
4.82316780 14.26321030 1.55466104 0.76998055 0.75707364 0.72640407
5.42754984 14.29986668 1.47680092 0.86646539 0.75901937 0.69002450
6.17819214 14.62508965 1.45988929 0.98629946 0.77628177 0.68212265
4.46463919 17.49734879 0.82417202 0.71274430 0.92873776 0.38508838
4.94129705 16.72582245 0.69338071 0.78883898 0.88778609 0.32397711
4.12799931 17.17150879 1.40783644 0.65900242 0.91144258 0.65780133
4.81046486 17.19485855 1.33373260 0.76795262 0.91268194 0.62317687
5.10794830 15.23000622 0.55311710 0.81544352 0.80839002 0.25843996
4.85780811 15.21606827 1.08916962 0.77551061 0.80765021 0.50890660
4.25069666 14.80121899 1.65379500 0.67859006 0.78563052 0.77272373
4.71976519 14.25170708 1.54974353 0.75347316 0.75646311 0.72410643
5.32435989 14.29829025 1.47280979 0.84999192 0.75893569 0.68815970
6.17363358 14.87509251 1.48292911 0.98557174 0.78955162 0.69288784
6.08351040 15.26655769 2.08472300 0.97118431 0.81033009 0.97407168
4.36563921 17.56964684 0.82661968 0.69693977 0.93257529 0.38623205
5.07082272 17.56624985 0.73356837 0.80951673 0.93239492 0.34275448
4.29711342 18.38863373 1.51493919 0.68600017 0.97604609 0.70784432
4.71445656 17.26895523 1.33751225 0.75262570 0.91661489 0.62494290
4.96638346 15.90323544 1.14203680 0.79284382 0.84412420 0.53360838
5.08505011 14.38281631 0.93932617 0.81178802 0.76342219 0.43889335
4.33448553 17.78727913 2.09554863 0.69196630 0.94412690 0.97912991
4.23413420 15.09915352 1.68663228 0.67594600 0.80144453 0.78806669
4.61975002 14.24892616 1.54594350 0.73750651 0.75631547 0.72233087
5.21866512 14.28851318 1.46797836 0.83311862 0.75841671 0.68590224
5.95219803 15.21399593 2.07158160 0.95022130 0.80754018 0.96793145
4.27758789 17.68993378 0.83172774 0.68288308 0.93895996 0.38861874
4.96579266 17.61698532 0.73452067 0.79274952 0.93508792 0.34319946
4.63676262 17.41376877 1.34737206 0.74022245 0.92430145 0.62954980
5.63369179 17.53478241 0.65438265 0.89937431 0.93072468 0.30575556
5.21951580 14.39835739 0.42267749 0.83325440 0.76424712 0.19749299
5.62928438 16.23838997 1.07573068 0.89867073 0.86191380 0.50262737
5.14547920 16.98014832 0.02139832 0.82143503 0.90128541 0.00999821
4.22993183 17.84507942 2.09942532 0.67527515 0.94719487 0.98094124
4.19608021 15.33232784 1.71160698 0.66987097 0.81382114 0.79973596
4.51816082 14.23976707 1.54147303 0.72128862 0.75582933 0.72024208
5.11465025 14.28171730 1.46356702 0.81651342 0.75805598 0.68384105
5.86235666 14.64098072 1.44927096 0.93587887 0.77712524 0.67716134
5.84232521 15.21407223 2.06621766 0.93268096 0.80754423 0.96542519
4.83904314 17.59007072 0.73166376 0.77251494 0.93365932 0.34186459
4.51921082 17.41169930 1.34474277 0.72145623 0.92419159 0.62832129
5.10720205 16.24076653 0.59446579 0.81532437 0.86203992 0.27775982
5.10879087 14.37439728 0.42048267 0.81557804 0.76297534 0.19646747
4.85875559 16.27595901 1.16701472 0.77566189 0.86390787 0.54527915
5.19621420 15.30286121 1.00330102 0.82953447 0.81225705 0.46878514
4.47668552 17.45052528 0.09143084 0.71466744 0.92625242 0.04272040
4.29580164 16.08942413 1.79971242 0.68579072 0.85400683 0.84090257
4.42449474 14.25458241 1.53990841 0.70633554 0.75661570 0.71951103
5.01423407 14.28355885 1.46020603 0.80048281 0.75815374 0.68227065
5.75863886 14.64787960 1.44606543 0.91932112 0.77749145 0.67566359
5.73407984 15.21708107 2.06139016 0.91540045 0.80770397 0.96316957
4.72842693 17.62012863 0.73166376 0.75485593 0.93525475 0.34186459
4.35671425 17.23110962 1.32699513 0.69551498 0.91460609 0.62002885
5.10804367 16.60879326 0.60959542 0.81545877 0.88157433 0.28482902
4.75027847 16.28510094 1.16532910 0.75834435 0.86439312 0.54449159
4.31906223 16.48603058 1.84503698 0.68950409 0.87505823 0.86208016
4.34283209 14.22773170 1.53432024 0.69329876 0.75519049 0.71689999
4.93251467 14.26569462 1.45558465 0.78743696 0.75720555 0.68011135
5.54902792 14.31101894 1.40679777 0.88585842 0.75961131 0.65731603
6.18576574 14.36144257 1.31538141 0.98750854 0.76228774 0.61460239
5.38719225 14.50042534 1.95411313 0.86002260 0.76966476 0.91304517
4.11613226 18.41234207 0.86727154 0.65710795 0.97730446 0.40522632
4.58506346 17.41431999 0.72042644 0.73196912 0.92433071 0.33661401
4.29714298 17.33848572 1.33438993 0.68600488 0.92030549 0.62348402
4.96461678 16.41647720 0.59988153 0.79256177 0.87136644 0.28029031
4.83870173 16.88642311 1.21160710 0.77246046 0.89631057 0.56611460
5.59771538 17.09322357 1.13223708 0.89363098 0.90728730 0.52902955
4.32449484 16.93810463 1.89614272 0.69037139 0.89905375 0.88595891
4.26183653 14.28331661 1.53767312 0.68036848 0.75814086 0.71846658
4.82612658 14.24744797 1.45012307 0.77045292 0.75623703 0.67755949
5.54292679 14.56703281 1.43063891 0.88488442 0.77320021 0.66845566
6.20597696 14.66029263 1.34167242 0.99073511 0.77815032 0.62688673
5.27028608 14.46319199 1.94392180 0.84135950 0.76768845 0.90828335
4.46757698 17.41183281 0.71890277 0.71321332 0.92419869 0.33590209
4.19375229 17.38838768 1.33636189 0.66949934 0.92295426 0.62440538
4.94598722 16.73487854 0.61277610 0.78958774 0.88826680 0.28631517
5.12110662 15.23503876 0.45040563 0.81754416 0.80865711 0.21044876
4.77905321 17.08361816 1.22493875 0.76293802 0.90677744 0.57234377
4.29070234 17.25597000 1.93106115 0.68497670 0.91592568 0.90227431
4.73525524 14.27371693 1.44970286 0.75594604 0.75763136 0.67736316
5.48111343 14.68177414 1.43925369 0.87501639 0.77929050 0.67248082
6.18968678 14.88093185 1.36000216 0.98813450 0.78986156 0.63545114
5.16402674 14.45307350 1.93775332 0.82439601 0.76715136 0.90540117
6.06285524 15.19093513 1.95844793 0.96788687 0.80631614 0.91507059
4.39700985 17.59456635 0.72652125 0.70194781 0.93389797 0.33946177
4.77463865 17.49240303 1.25512671 0.76223326 0.92847526 0.58644885
5.22669554 16.66745377 1.09559953 0.83440059 0.88468796 0.51191092
5.10296535 14.38460445 0.85827184 0.81464803 0.76351714 0.40102130
4.13806725 17.10113716 1.90932393 0.66060966 0.90770733 0.89211774
4.24126816 14.89793873 1.60338950 0.67708492 0.79076427 0.74917209
4.63252211 14.26347923 1.44529152 0.73954552 0.75708795 0.67530197
5.36830282 14.65983868 1.43324339 0.85700709 0.77812624 0.66967255
5.97442055 14.62288380 1.33019316 0.95376897 0.77616471 0.62152308
5.06985092 14.47587776 1.93641233 0.80936158 0.76836181 0.90477461
5.95058966 15.18626785 1.95259702 0.94996452 0.80606842 0.91233677
5.66831255 17.58197594 0.53827232 0.90490127 0.93322968 0.25150383
4.63909531 17.42567825 1.24746478 0.74059486 0.92493355 0.58286887
4.24410343 18.02961922 2.01731658 0.67753750 0.95699000 0.94257653
4.21855164 15.18098354 1.63334191 0.67345840 0.80578792 0.76316714
4.53252506 14.26009560 1.44172049 0.72358173 0.75690836 0.67363346
4.61617088 15.26280594 2.10866761 0.73693514 0.81013095 0.98525965
5.25866508 14.64456177 1.42803442 0.83950424 0.77731532 0.66723871
5.87126541 14.63242531 1.32741594 0.93730104 0.77667117 0.62022549
4.99610043 14.55808353 1.94365358 0.79758787 0.77272516 0.90815800
5.84433842 15.19559669 1.94878125 0.93300235 0.80656362 0.91055387
4.83555222 17.57672310 0.64630204 0.77195764 0.93295085 0.30197993
4.51754618 17.40814400 1.24378705 0.72119051 0.92400289 0.58115047
4.89949656 16.34211349 1.06685317 0.78216583 0.86741930 0.49847940
5.13036442 14.36402130 0.34664384 0.81902206 0.76242459 0.16196682
5.59362316 16.42830849 0.99481457 0.89297765 0.87199444 0.46481988
4.48689556 17.44071579 0.02378571 0.71629739 0.92573178 0.01111370
4.20227766 15.50077915 1.66754127 0.67086035 0.82276231 0.77914655
4.43038177 14.24842548 1.43730915 0.70727539 0.75628889 0.67157227
4.52751112 15.31618881 2.11229706 0.72278130 0.81296450 0.98695546
5.13100052 14.57590771 1.41721570 0.81912363 0.77367127 0.66218376
5.78873253 14.69310093 1.32982290 0.92412531 0.77989173 0.62135011
5.72766304 15.17636490 1.94114971 0.91437608 0.80554277 0.90698814
4.73894501 17.65888023 0.64862305 0.75653505 0.93731165 0.30306441
5.18611240 16.80987930 0.50600821 0.82792181 0.89224774 0.23642866
4.39932108 17.40137482 1.24102879 0.70231682 0.92364359 0.57986170
4.75448036 16.22903442 1.05628455 0.75901514 0.86141717 0.49354130
5.51105356 16.52563095 0.99911410 0.87979609 0.87716019 0.46682882
4.20597744 15.81052589 1.70129359 0.67145103 0.83920330 0.79491711
4.35793066 14.25203419 1.43541861 0.69570917 0.75648046 0.67068893
4.43420029 15.26511288 2.10168815 0.70788497 0.81025344 0.98199856
4.96484232 14.31777668 1.38716388 0.79259777 0.75997001 0.64814228
5.12722111 15.49686527 2.06970406 0.81852025 0.82255459 0.96705419
5.37777519 14.45797443 1.83914065 0.85851926 0.76741153 0.85932511
4.17166567 18.53503036 0.76766127 0.66597342 0.98381662 0.35868415
4.60906553 17.50319481 0.64071441 0.73580086 0.92904806 0.29936916
5.04335642 16.62573051 0.49803361 0.80513197 0.88247335 0.23270260
4.31536055 17.41416931 1.24041581 0.68891317 0.92432272 0.57957530
4.91291809 17.06386185 1.11603200 0.78430849 0.90572882 0.52145785
5.74013042 17.49039841 1.06360710 0.91636640 0.92836887 0.49696270
4.29576397 14.37056637 1.44550169 0.68578470 0.76277202 0.67540020
4.33548498 15.28314877 2.10029221 0.69212586 0.81121075 0.98134631
4.95958376 14.59939766 1.41380990 0.79175830 0.77491808 0.66059244
5.53000307 14.50292873 1.30464280 0.88282120 0.76979762 0.60958487
5.26294518 14.42628288 1.83023715 0.84018755 0.76572937 0.85516500
4.03627157 18.47502136 0.76347107 0.64435881 0.98063141 0.35672632
4.46735191 17.40790367 0.63521272 0.71317738 0.92399013 0.29679853
4.95305490 16.70498085 0.49986264 0.79071599 0.88667983 0.23355719
4.19236660 17.38470650 1.23597193 0.66927814 0.92275888 0.57749891
4.81048536 17.11167336 1.11730027 0.76795590 0.90826660 0.52205044
4.88495874 15.19765186 0.90400326 0.77984500 0.80667269 0.42238897
5.20499229 14.37111092 0.77252716 0.83093584 0.76280093 0.36095771
4.28354645 16.96275711 1.82892644 0.68383431 0.90036231 0.85455263
4.43396759 15.17590141 1.53120720 0.70784783 0.80551821 0.71544546
4.31529713 15.58292103 2.14021516 0.68890303 0.82712227 1.00000000
4.84460354 14.56037807 1.40639710 0.77340263 0.77284700 0.65712881
5.39395475 14.41807652 1.29279327 0.86110216 0.76529378 0.60404825
4.89987135 15.45800781 2.05522180 0.78222567 0.82049203 0.96028745
5.15811586 14.41985989 1.82489502 0.82345235 0.76538843 0.85266894
4.39454365 17.58299828 0.64174598 0.70155412 0.93328393 0.29985115
5.03783560 17.38825989 0.52473748 0.80425060 0.92294747 0.24517977
4.22305727 18.01077080 1.28332257 0.67417765 0.95598960 0.59962314
4.76966047 17.38389969 1.13505530 0.76143855 0.92271602 0.53034633
5.05190516 15.27455044 0.37318906 0.80649668 0.81075436 0.17436989
5.24140024 16.67171097 1.00276220 0.83674806 0.88491392 0.46853337
5.10051203 14.36404133 0.77002937 0.81425637 0.76242566 0.35979062
4.17310429 16.97389221 1.82713830 0.66620308 0.90095335 0.85371709
4.20530415 14.73887348 1.48016202 0.67134351 0.78232127 0.69159496
4.63884544 14.23845196 1.36913276 0.74055499 0.75575954 0.63971734
5.28260183 14.39562511 1.28723884 0.84332556 0.76410210 0.60145301
4.72840405 15.24798298 2.02116132 0.75485229 0.80934417 0.94437295
5.06741190 14.45198441 1.82489502 0.80897218 0.76709354 0.85266894
4.94814920 17.48878288 0.52737129 0.78993285 0.92828310 0.24641040
4.18696356 18.37728500 1.31013930 0.66841561 0.97544372 0.61215305
4.66707420 17.43857193 1.13688719 0.74506146 0.92561793 0.53120232
5.68389559 17.56433487 0.44856992 0.90738893 0.93229330 0.20959105
4.12802792 17.25886345 1.85709059 0.65900701 0.91607928 0.86771208
4.21717787 15.13848686 1.52112424 0.67323905 0.80353230 0.71073425
4.56012678 14.30145836 1.37273908 0.72798818 0.75910383 0.64140236
5.17783594 14.38920116 1.28335071 0.82660055 0.76376110 0.59963632
4.59470749 15.15216351 2.00346065 0.73350871 0.80425823 0.93610245
4.98686171 14.51354218 1.82896519 0.79611301 0.77036101 0.85457069
4.82641506 17.47715569 0.52576172 0.77049899 0.92766595 0.24565835
4.54223824 17.40965652 1.13265979 0.72513241 0.92408317 0.52922708
5.58906031 17.64926720 0.45022106 0.89224923 0.93680143 0.21036252
4.95937157 16.49535751 0.98634583 0.79172444 0.87555331 0.46086293
5.96690989 17.48489571 0.96259904 0.95256996 0.92807674 0.44976741
4.48915339 17.42274284 -0.09655761 0.71665782 0.92477775 -0.04511584
4.18301010 17.99122047 1.93867731 0.66778445 0.95495188 0.90583289
4.19745874 15.44096661 1.55137324 0.67009109 0.81958753 0.72486788
4.45837831 14.29181957 1.36873209 0.71174484 0.75859219 0.63953012
5.03745079 14.28066826 1.26946449 0.80418915 0.75800031 0.59314805
4.49492741 15.16552544 2.00131512 0.71757960 0.80496746 0.93509996
4.90573788 14.57465744 1.83303535 0.78316224 0.77360493 0.85647249
4.71755219 17.51099586 0.52590805 0.75311989 0.92946213 0.24572672
4.42387438 17.40305901 1.13012338 0.70623654 0.92373300 0.52804196
5.46744776 17.64965248 0.44907796 0.87283474 0.93682188 0.20982842
4.77886486 16.26377106 0.96849620 0.76290798 0.86326098 0.45252281
4.19985723 15.74105167 1.58204234 0.67047399 0.83551568 0.73919779
4.39621019 14.32979870 1.37053525 0.70182019 0.76060808 0.64037263
4.98518991 14.34749222 1.27372301 0.79584610 0.76154727 0.59513783
4.40961695 15.13894939 1.99461019 0.70396048 0.80355680 0.93196714
5.05751467 15.26016331 1.92257941 0.80739218 0.80999070 0.89831126
4.64318943 17.56393814 0.52707863 0.74124843 0.93227226 0.24627367
4.33793926 17.40822983 1.12899601 0.69251770 0.92400742 0.52751517
4.88024235 16.90565491 1.01057959 0.77909207 0.89733136 0.47218597
5.02488613 15.28022957 0.82022357 0.80218333 0.81105578 0.38324350
4.18085575 16.07308769 1.61544228 0.66744053 0.85313976 0.75480366
4.30210352 14.34379005 1.36913276 0.68679678 0.76135075 0.63971734
4.93811226 14.50478077 1.28612792 0.78833055 0.76989591 0.60093391
4.30901146 15.14728737 1.99192822 0.68789959 0.80399942 0.93071401
4.79005480 14.76540470 1.85160565 0.76469433 0.78372955 0.86514932
4.48916864 17.42443085 0.52071363 0.71666026 0.92486739 0.24329966
4.21855450 17.39443779 1.12603688 0.67345881 0.92327535 0.52613258
5.89816999 17.46677589 0.32281235 0.94159615 0.92711502 0.15083173
4.80304432 17.03974724 1.01761508 0.76676804 0.90444887 0.47547325
5.62092638 17.45240593 0.95427299 0.89733642 0.92635226 0.44587713
4.15833569 16.40742302 1.64905238 0.66384536 0.87088585 0.77050775
4.29044533 14.63990021 1.39738154 0.68493563 0.77706790 0.65291637
4.90822649 14.71868706 1.30408728 0.78355950 0.78124982 0.60932529
4.34096289 15.63445759 2.05656266 0.69300038 0.82985777 0.96091396
4.76469564 15.00688648 1.88009691 0.76064593 0.79654711 0.87846166
4.41722679 17.60151863 0.52634704 0.70517528 0.93426698 0.24593183
4.22561646 17.91172981 1.16168809 0.67458624 0.95073259 0.54279035
5.06544018 17.40932083 0.43809152 0.80865747 0.92406535 0.20469508
5.77697039 17.46933556 0.32191300 0.92224759 0.92725086 0.15041152
4.80131817 17.45456314 1.04367292 0.76649243 0.92646676 0.48764861
5.25221252 16.66888618 0.90312725 0.83847415 0.88476402 0.42197967
4.13895845 16.77105331 1.68581331 0.66075194 0.89018691 0.78768402
4.26487589 14.90005589 1.42182362 0.68085366 0.79087663 0.66433674
5.00430298 15.32448006 1.36037242 0.79889739 0.81340456 0.63562417
4.67976522 15.06682682 1.88416708 0.74708748 0.79972863 0.88036340
4.19273853 18.28397179 1.18677068 0.66933751 0.97049075 0.55451000
4.97500324 17.50812531 0.44031420 0.79421991 0.92930979 0.20573361
5.63125515 17.39500046 0.31901512 0.89898533 0.92330521 0.14905749
4.67816257 17.43425369 1.04028535 0.74683166 0.92538875 0.48606578
5.05766058 16.41165924 0.88504779 0.80741549 0.87111068 0.41353217
4.12077284 17.15827560 1.72509503 0.65784878 0.91074020 0.80603814
4.24953079 15.20838928 1.45127451 0.67840397 0.80724263 0.67809749
4.81357479 15.06172276 1.33167446 0.76844913 0.79945773 0.62221521
4.59484768 15.12818909 1.88849163 0.73353106 0.80298567 0.88238400
4.13487720 17.40097427 0.51676291 0.66010040 0.92362231 0.24145372
4.17103481 18.72657967 1.21692622 0.66587269 0.99398381 0.56859994
4.85425615 17.50050163 0.43904412 0.77494359 0.92890513 0.20514017
4.56400156 17.44592094 1.03911281 0.72860676 0.92600805 0.48551792
4.96543074 16.47942162 0.88730776 0.79269171 0.87470746 0.41458812
4.21378708 18.03967476 1.81794274 0.67269778 0.95752376 0.84942055
4.29768419 15.76485538 1.50656986 0.68609124 0.83677912 0.70393384
4.49460125 15.13965130 1.88620222 0.71752751 0.80359405 0.88131428
4.28855562 18.55968666 0.55934274 0.68463397 0.98512536 0.26134884
4.77956390 17.66190720 0.44336247 0.76301956 0.93747234 0.20715789
5.40687895 17.44720840 0.31856546 0.86316544 0.92607635 0.14884740
4.43760967 17.40848160 1.03468299 0.70842928 0.92402083 0.48344812
4.18136787 15.62724972 1.49014151 0.66752231 0.82947522 0.69625783
4.79520798 15.59131527 1.37814665 0.76551700 0.82756788 0.64392900
4.40981436 15.11497593 1.88009691 0.70399195 0.80228436 0.87846166
4.67073488 17.58760452 0.44018722 0.74564588 0.93352842 0.20567428
4.35745192 17.43694687 1.03520417 0.69563270 0.92553169 0.48369163
4.86974049 16.82825851 0.90562505 0.77741551 0.89322329 0.42314672
4.18156576 16.03266335 1.52960956 0.66755390 0.85099405 0.71469897
4.74379206 15.77554989 1.39314365 0.75730884 0.83734679 0.65093625
4.30984306 15.12522125 1.87780738 0.68803233 0.80282813 0.87739187
4.50776625 17.41334915 0.43351915 0.71962923 0.92427915 0.20255868
5.20210934 17.46346092 0.31746626 0.83047557 0.92693901 0.14833380
4.23653936 17.41742706 1.03207719 0.67632997 0.92449564 0.48223057
4.81842327 17.05058479 0.91751945 0.76922315 0.90502411 0.42870429
4.15634632 16.35765266 1.56066310 0.66352779 0.86824411 0.72920853
4.62146139 15.72673798 1.38555264 0.73777974 0.83475590 0.64738941
4.35999775 15.67165947 1.94700062 0.69603914 0.83183241 0.90972191
4.43622160 17.59255981 0.43847257 0.70820767 0.93379146 0.20487313
4.98739481 17.13693237 0.30812308 0.79619813 0.90960729 0.14396827
4.24088430 17.92742348 1.06451917 0.67702359 0.95156562 0.49738887
4.78369236 17.34218407 0.93369573 0.76367861 0.92050183 0.43626255
4.13909435 16.73125267 1.59672534 0.66077363 0.88807434 0.74605834
4.51648712 15.73441696 1.38351595 0.72102141 0.83516353 0.64643776
5.02780390 17.68702698 0.32161322 0.80264908 0.93880564 0.15027145
4.21539402 18.33503342 1.09005570 0.67295432 0.97320104 0.50932062
4.68870068 17.42393494 0.93690723 0.74851394 0.92484105 0.43776309
4.11174774 17.08204651 1.63038337 0.65640801 0.90669405 0.76178479
4.40674067 15.72414684 1.37981296 0.70350128 0.83461839 0.64470756
4.16257381 17.42715073 0.43129647 0.66452199 0.92501175 0.20152014
4.88759136 17.61426544 0.31891519 0.78026527 0.93494356 0.14901081
4.18018484 18.72158241 1.11415923 0.66733342 0.99371856 0.52058280
4.56946278 17.41637039 0.93464732 0.72947860 0.92443955 0.43670717
4.17492151 17.84014320 1.70611393 0.66649318 0.94693285 0.79716933
4.32210493 15.80337048 1.38481200 0.68998986 0.83882350 0.64704335
4.77629709 17.64269638 0.31886524 0.76249802 0.93645263 0.14898747
4.45000935 17.40606308 0.93226844 0.71040881 0.92389244 0.43559566
4.22389078 18.44361877 1.76641798 0.67431074 0.97896463 0.82534599
4.23824978 15.78895378 1.38147938 0.67660302 0.83805823 0.64548624
4.68485689 17.63409996 0.31806582 0.74790031 0.93599635 0.14861394
4.36549807 17.41716003 0.93167371 0.69691724 0.92448145 0.43531778
4.17929411 18.79232216 1.79967535 0.66719121 0.99747336 0.84088522
4.20785666 16.07719421 1.40665948 0.67175102 0.85335773 0.65725142
4.51356220 17.43099213 0.31207019 0.72055447 0.92521566 0.14581253
4.24551868 17.40158653 0.92905694 0.67776346 0.92365479 0.43409511
4.18043470 16.39074326 1.43424666 0.66737330 0.87000048 0.67014134
4.44914246 17.63731194 0.31666684 0.71027040 0.93616682 0.14796029
4.19585228 17.67843437 0.94440067 0.66983461 0.93834955 0.44126436
4.16081190 16.75094223 1.46627724 0.66424072 0.88911945 0.68510741
4.39332390 17.88814926 0.32241264 0.70135939 0.94948095 0.15064497
4.11519527 17.02251244 1.48979115 0.65695834 0.90353405 0.69609410
4.22347355 18.83992386 1.01219857 0.67424411 1.00000000 0.47294244
4.05029774 17.22633171 1.50682473 0.64659798 0.91435254 0.70405293
