-16.26906013 3.45890260 0.01143588 -0.86284429 0.47284305 0.00555566
-16.21722031 4.06856871 -0.09947664 -0.86009490 0.55618638 -0.04832666
-16.19409370 4.74013567 -0.19395234 -0.85886836 0.64799172 -0.09422380
-16.09499550 5.36557150 -0.27292910 -0.85361260 0.73349077 -0.13259143
-16.50658417 3.73041320 1.76455116 -0.87544155 0.50995940 0.85723495
-17.38122559 4.61042070 1.76059556 -0.92182899 0.63025928 0.85531330
-16.45407486 5.01650858 1.59331942 -0.87265670 0.68577278 0.77404904
-16.88746262 5.84181452 1.52293265 -0.89564180 0.79859471 0.73985451
-16.39711761 2.41546297 0.74510312 -0.86963594 0.33020151 0.36197785
-16.34028435 3.03302979 0.65424055 -0.86662173 0.41462487 0.31783599
-17.03243828 2.26630068 1.36597228 -0.90333074 0.30981055 0.66360170
-16.37063026 2.79378057 1.23086154 -0.86823112 0.38191873 0.59796369
-16.28151703 3.63878250 0.57976592 -0.86350495 0.49743322 0.28165555
-16.23970985 4.26424265 0.47667050 -0.86128765 0.58293563 0.23157085
-16.31664276 3.39770341 1.14249659 -0.86536789 0.46447691 0.55503517
-16.25920486 4.02310848 1.04487062 -0.86232162 0.54997182 0.50760764
-16.18324852 4.90376759 0.39928976 -0.85829318 0.67036068 0.19397858
-16.10406876 5.52104282 0.28753811 -0.85409379 0.75474423 0.13968863
-16.22631454 4.65739250 0.96393615 -0.86057723 0.63668042 0.46828893
-16.37860870 2.35487533 -0.38341832 -0.86865431 0.32191899 -0.18626809
-16.31617928 2.97422242 -0.48215261 -0.86534327 0.40658572 -0.23423411
-16.40195847 2.14635420 0.16564937 -0.86989266 0.29341349 0.08047397
-16.35124969 2.74287534 0.07315610 -0.86720330 0.37495983 0.03553990
-16.23836136 3.58523297 -0.54953659 -0.86121613 0.49011281 -0.26696986
-16.19840622 4.20032024 -0.66032678 -0.85909706 0.57419723 -0.32079273
-16.27871513 3.35420632 0.01132818 -0.86335635 0.45853072 0.00550333
-16.24829102 3.96802402 -0.09946287 -0.86174279 0.54244155 -0.04831997
-16.19662666 4.63062811 -0.19385923 -0.85900271 0.63302165 -0.09417857
-16.10368538 5.25624132 -0.27272210 -0.85407346 0.71854502 -0.13249087
-17.38867569 4.49562073 1.75828493 -0.92222410 0.61456573 0.85419077
-16.33837509 4.86943674 1.57789278 -0.86652046 0.66566759 0.76655459
-16.84088135 5.70737410 1.51478612 -0.89317131 0.78021628 0.73589683
-16.30712700 5.26413012 2.05842185 -0.86486322 0.71962345 1.00000000
-16.40801430 2.31183743 0.74489027 -0.87021387 0.31603557 0.36187446
-16.35508728 2.92959237 0.65405011 -0.86740679 0.40048465 0.31774348
-16.98703575 2.15179777 1.36073923 -0.90092278 0.29415762 0.66105944
-16.38982773 2.69119167 1.23102593 -0.86924928 0.36789450 0.59804356
-16.29233932 3.53388453 0.57925016 -0.86407894 0.48309332 0.28140497
-16.24489021 4.15664625 0.47586575 -0.86156243 0.56822681 0.23117989
-16.32202721 3.29198146 1.14127064 -0.86565346 0.45002440 0.55443960
-16.27640533 3.91899276 1.04430687 -0.86323386 0.53573883 0.50733376
-16.19456673 4.79633570 0.39865470 -0.85889345 0.65567440 0.19367006
-16.11949348 5.41336203 0.28703848 -0.85491186 0.74002391 0.13944590
-16.23795509 4.55052233 0.96276355 -0.86119461 0.62207097 0.46771926
-16.11748123 5.16141129 0.87017989 -0.85480517 0.70558143 0.42274129
-16.38911819 2.25138021 -0.38335899 -0.86921167 0.30777088 -0.18623927
-16.32863808 2.87060094 -0.48202807 -0.86600405 0.39242032 -0.23417361
-16.41313553 2.04301143 0.16561268 -0.87048542 0.27928621 0.08045615
-16.36223984 2.63912129 0.07307974 -0.86778617 0.36077634 0.03550280
-16.24492264 3.47980309 -0.54914063 -0.86156410 0.47570020 -0.26677749
-16.21479034 4.09600067 -0.66001475 -0.85996604 0.55993640 -0.32064116
-16.30143166 3.25224757 0.01134613 -0.86456114 0.44459265 0.00551205
-16.26706505 3.86446142 -0.09947664 -0.86273849 0.52828425 -0.04832666
-16.21249008 4.55263710 -0.19383930 -0.85984403 0.62236005 -0.09416889
-16.11685562 5.17661333 -0.27262655 -0.85477197 0.70765960 -0.13244446
-16.87963486 4.27861786 1.70051765 -0.89522666 0.58490074 0.82612687
-16.34967804 4.78904772 1.57669079 -0.86711991 0.65467817 0.76597071
-16.53335762 5.51600695 1.48201489 -0.87686151 0.75405580 0.71997625
-16.30340385 5.17818499 2.05460596 -0.86466575 0.70787442 0.99814624
-16.41476822 2.23395729 0.74467742 -0.87057203 0.30538911 0.36177105
-16.36083984 2.85110712 0.65366918 -0.86771190 0.38975546 0.31755841
-16.46489716 2.00751066 1.31381631 -0.87323070 0.27443314 0.63826388
-16.38855171 2.61171412 1.22987556 -0.86918163 0.35702968 0.59748471
-16.29512405 3.45418596 0.57864839 -0.86422658 0.47219828 0.28111264
-16.22747421 4.07076359 0.47447568 -0.86063874 0.55648643 0.23050459
-16.33148766 3.21388173 1.14081097 -0.86615521 0.43934792 0.55421633
-16.26945686 3.83626580 1.04247499 -0.86286533 0.52442980 0.50644380
-16.20162773 4.71551704 0.39814666 -0.85926795 0.64462626 0.19342326
-16.12584877 5.33104229 0.28653884 -0.85524893 0.72877055 0.13920316
-16.24189568 4.46920824 0.96159095 -0.86140358 0.61095506 0.46714962
-16.15875435 5.09082222 0.87125039 -0.85699409 0.69593167 0.42326134
-16.39558029 2.17360306 -0.38329962 -0.86955440 0.29713848 -0.18621042
-16.33016205 2.79158640 -0.48177904 -0.86608487 0.38161880 -0.23405263
-16.41860962 1.96517360 0.16553929 -0.87077576 0.26864552 0.08042049
-16.37449455 2.56198716 0.07307974 -0.86843610 0.35023183 0.03550280
-16.24547958 3.39995480 -0.54874468 -0.86159366 0.46478468 -0.26658514
-16.21063423 4.01375151 -0.65926588 -0.85974562 0.54869264 -0.32027733
-16.27926826 3.16817975 0.01100508 -0.86338568 0.43310031 0.00534637
-16.24809456 3.77910829 -0.09956384 -0.86173236 0.51661617 -0.04836902
-16.21183205 4.44278765 -0.19373953 -0.85980916 0.60734326 -0.09412042
-16.11664009 5.06501436 -0.27235585 -0.85476053 0.69240367 -0.13231294
-16.87143707 4.16385746 1.69673657 -0.89479190 0.56921262 0.82429004
-16.41006660 4.69494724 1.57989633 -0.87032270 0.64181429 0.76752794
-16.91586304 5.52620173 1.51608217 -0.89714807 0.75544947 0.73652649
-16.29963684 5.06441975 2.04977274 -0.86446595 0.69232237 0.99579817
-16.42253685 2.13001347 0.74435818 -0.87098408 0.29117966 0.36161596
-16.36661148 2.74625516 0.65309781 -0.86801803 0.37542185 0.31728083
-16.94038582 1.95696938 1.35463405 -0.89844865 0.26752397 0.65809351
-16.39281845 2.50686860 1.22888958 -0.86940789 0.34269696 0.59700572
-16.30084419 3.34853578 0.57796067 -0.86452997 0.45775554 0.28077853
-16.27602386 3.97444129 0.47535360 -0.86321360 0.54331881 0.23093109
-16.33568382 3.10824227 1.13958502 -0.86637771 0.42490667 0.55362076
-16.27768707 3.73038268 1.04134774 -0.86330181 0.50995523 0.50589615
-16.20977783 4.60764027 0.39744809 -0.85970020 0.62987918 0.19308388
-16.14001083 5.22343683 0.28603920 -0.85600001 0.71406054 0.13896044
-16.25615692 4.36346436 0.96067888 -0.86215997 0.59649950 0.46670651
-16.15609360 4.97856998 0.86910939 -0.85685301 0.68058646 0.42222121
-16.40494537 2.07004833 -0.38324028 -0.87005109 0.28298223 -0.18618160
-16.34540558 2.68859959 -0.48173752 -0.86689335 0.36754015 -0.23403245
-16.42268372 1.86108339 0.16539253 -0.87099183 0.25441605 0.08034919
-16.38038254 2.45755744 0.07295248 -0.86874837 0.33595595 0.03544098
-16.25672150 3.29584074 -0.54849720 -0.86218989 0.45055196 -0.26646492
-16.22581863 3.90946531 -0.65895385 -0.86055094 0.53443640 -0.32012576
-16.30671692 3.06730151 0.01107688 -0.86484146 0.41930991 0.00538125
-16.26761818 3.67605829 -0.09957302 -0.86276782 0.50252891 -0.04837348
-16.22976303 4.33826780 -0.19370629 -0.86076009 0.59305507 -0.09410428
-16.13859177 4.96070147 -0.27227625 -0.85592479 0.67814374 -0.13227427
-16.84119606 4.04423571 1.69064474 -0.89318800 0.55285996 0.82133055
-16.35871887 4.56935978 1.57148182 -0.86759943 0.62464607 0.76344013
-16.35580063 4.96943331 2.05307984 -0.86744463 0.67933744 0.99740481
-16.44154358 2.02751231 0.74467742 -0.87199211 0.27716741 0.36177105
-16.38354492 2.64336729 0.65309781 -0.86891609 0.36135677 0.31728083
-16.70473862 1.82376206 1.33282971 -0.88595086 0.24931410 0.64750075
-16.40627289 2.40352941 1.22872531 -0.87012148 0.32857016 0.59692591
-16.30391884 3.24256277 0.57718700 -0.86469305 0.44326869 0.28040269
-16.27929115 3.86699128 0.47454885 -0.86338687 0.52863008 0.23054013
-16.34704399 3.00410938 1.13897204 -0.86698020 0.41067135 0.55332297
-16.28912354 3.62541914 1.04050219 -0.86390835 0.49560639 0.50548542
-16.21528625 4.49931479 0.39668605 -0.85999233 0.61507070 0.19271368
-16.15345955 5.11586428 0.28553957 -0.85671329 0.69935501 0.13871771
-16.25814629 4.25470018 0.95898515 -0.86226547 0.58163112 0.46588367
-16.06475830 4.83995342 0.86149698 -0.85200894 0.66163713 0.41852304
-16.40372658 1.96528482 -0.38303253 -0.86998641 0.26866072 -0.18608068
-16.35012817 2.58395839 -0.48148847 -0.86714381 0.35323536 -0.23391147
-16.43803024 1.75828111 0.16546592 -0.87180579 0.24036264 0.08038484
-16.39352036 2.35430193 0.07292703 -0.86944515 0.32184061 0.03542861
-16.27907181 3.19401503 -0.54854673 -0.86337525 0.43663207 -0.26648897
-16.23060417 3.80285501 -0.65832978 -0.86080474 0.51986241 -0.31982258
-16.31188965 2.96229887 0.01095123 -0.86511576 0.40495571 0.00532021
-16.28453445 3.57248116 -0.09958679 -0.86366498 0.48836958 -0.04838017
-16.24508476 4.23319674 -0.19366638 -0.86157274 0.57869154 -0.09408489
-16.14263725 4.85111189 -0.27205333 -0.85613930 0.66316253 -0.13216597
-17.23494911 3.35705495 1.83607924 -0.91407108 0.45892015 0.89198393
-16.78495026 3.91924977 1.68182206 -0.89020497 0.53577399 0.81704444
-16.71743774 4.55609560 1.60594118 -0.88662440 0.62283283 0.78018081
-16.31710625 5.10374308 1.45109510 -0.86539245 0.69769800 0.70495516
-16.34868240 4.85522890 2.04799199 -0.86706710 0.66372532 0.99493307
-16.44205475 1.92279041 0.74403894 -0.87201923 0.26285160 0.36146086
-16.38601303 2.53821731 0.65243119 -0.86904699 0.34698242 0.31695700
-16.48593712 1.69540679 1.31259537 -0.87434655 0.23176754 0.63767076
-16.41315651 2.29928303 1.22806799 -0.87048656 0.31431934 0.59660655
-16.31612015 3.13855863 0.57684314 -0.86534017 0.42905101 0.28023562
-16.29937363 3.76372576 0.47440252 -0.86445200 0.51451337 0.23046905
-16.36166763 2.90064788 1.13866556 -0.86775583 0.39652783 0.55317408
-16.30573273 3.52172995 1.04007947 -0.86478925 0.48143175 0.50528002
-16.24323654 4.39734316 0.39668605 -0.86147469 0.60113084 0.19271368
-16.16810226 5.00892305 0.28508991 -0.85748988 0.68473577 0.13849926
-16.27101707 4.14902878 0.95807314 -0.86294806 0.56718552 0.46544063
-16.18866158 4.76666546 0.86732525 -0.85858029 0.65161842 0.42135447
-16.42171288 1.86284792 -0.38312155 -0.87094033 0.25465727 -0.18612392
-16.36011124 2.48027086 -0.48136395 -0.86767328 0.33906096 -0.23385097
-16.43283463 1.65338194 0.16517238 -0.87153023 0.22602260 0.08024224
-16.40204620 2.25042987 0.07285067 -0.86989731 0.30764097 0.03539151
-16.27327728 3.08685541 -0.54790330 -0.86306792 0.42198300 -0.26617640
-16.23859024 3.69723153 -0.65783048 -0.86122829 0.50542337 -0.31958002
-16.32624054 2.85906553 0.01091533 -0.86587691 0.39084339 0.00530276
-16.29688072 3.46799922 -0.09960974 -0.86431974 0.47408658 -0.04839132
-16.24809265 4.12516499 -0.19358659 -0.86173224 0.56392324 -0.09404612
-16.13635254 4.73883867 -0.27175078 -0.85580599 0.64781439 -0.13201900
-17.24788857 3.24723721 1.83518517 -0.91475731 0.44390771 0.89154959
-16.73943520 3.79778528 1.67425990 -0.88779104 0.51916939 0.81337065
-18.01349449 4.78634214 1.73796892 -0.95536190 0.65430826 0.84432107
-16.30506706 4.98766947 1.44683671 -0.86475396 0.68183035 0.70288640
-16.39029312 4.75574207 2.04951835 -0.86927396 0.65012515 0.99567461
-16.44586945 1.81857646 0.74361324 -0.87222153 0.24860522 0.36125407
-16.38978195 2.43343663 0.65185976 -0.86924684 0.33265856 0.31667939
-16.41937828 2.19504523 1.22741067 -0.87081653 0.30006969 0.59628725
-16.33944893 3.03670573 0.57701510 -0.86657739 0.41512740 0.28031915
-16.30905151 3.65816140 0.47389039 -0.86496526 0.50008237 0.23022024
-16.37563896 2.79712129 1.13835919 -0.86849678 0.38237542 0.55302525
-16.31777763 3.41715288 1.03937495 -0.86542803 0.46713573 0.50493777
-16.24541092 4.28859520 0.39586046 -0.86159003 0.58626467 0.19231260
-16.17438889 4.89967251 0.28444037 -0.85782331 0.66980088 0.13818371
-16.28901482 4.04479885 0.95755196 -0.86390257 0.55293691 0.46518743
-16.20678329 4.66153049 0.86661154 -0.85954136 0.63724613 0.42100775
-16.42911530 1.75921023 -0.38306221 -0.87133294 0.24048966 -0.18609510
-16.37734985 2.37771869 -0.48140547 -0.86858749 0.32504174 -0.23387115
-16.40396690 2.14575815 0.07269795 -0.86999917 0.29333201 0.03531732
-16.28644943 2.98347354 -0.54775482 -0.86376655 0.40785038 -0.26610425
-16.24198532 3.59079003 -0.65720642 -0.86140835 0.49087247 -0.31927684
-16.32021141 2.75246692 0.01069992 -0.86555713 0.37627104 0.00519812
-16.29289246 3.36025214 -0.09966940 -0.86410826 0.45935720 -0.04842030
-16.25815392 4.01917362 -0.19353339 -0.86226588 0.54943389 -0.09402028
-16.16004372 4.63569641 -0.27170300 -0.85706252 0.63371450 -0.13199578
-17.16624641 3.12043715 1.82356179 -0.91042739 0.42657372 0.88590288
-16.92608261 3.72866797 1.69190514 -0.89769006 0.50972086 0.82194287
-16.31701279 4.87939596 1.44498527 -0.86538750 0.66702902 0.70198697
-16.45895958 1.71541333 0.74371970 -0.87291574 0.23450249 0.36130577
-16.41068077 2.33125949 0.65214545 -0.87035525 0.31869063 0.31681818
-17.25609779 1.55481339 1.37853146 -0.91519272 0.21254796 0.66970307
-16.44470787 2.09336138 1.22839665 -0.87215990 0.28616920 0.59676623
-16.35230446 2.93293166 0.57675719 -0.86725920 0.40094113 0.28019387
-16.31609535 3.55219674 0.47330511 -0.86533886 0.48559666 0.22993591
-16.38108063 2.69224954 1.13743973 -0.86878538 0.36803913 0.55257851
-16.32719612 3.31216431 1.03852940 -0.86592758 0.45278347 0.50452697
-16.24879646 4.18048954 0.39509842 -0.86176956 0.57148629 0.19194239
-16.18568993 4.79225063 0.28394073 -0.85842264 0.65511596 0.13794099
-16.29858208 3.93864155 0.95650965 -0.86440998 0.53842491 0.46468106
-16.20693016 4.55147743 0.86482739 -0.85954916 0.62220150 0.42014098
-16.42591476 1.65456319 -0.38285446 -0.87116319 0.22618409 -0.18599416
-16.38404655 2.27366138 -0.48123944 -0.86894268 0.31081679 -0.23379049
-16.41514015 2.04239798 0.07267250 -0.87059176 0.27920234 0.03530496
-16.28124046 2.87693882 -0.54716092 -0.86349028 0.39328673 -0.26581573
-16.26422691 3.48866844 -0.65720642 -0.86258793 0.47691214 -0.31927684
-16.33718300 2.64987016 0.01069992 -0.86645722 0.36224574 0.00519812
-16.31172180 3.25742126 -0.09967399 -0.86510688 0.44529989 -0.04842253
-16.25941467 3.93829870 -0.19347353 -0.86233270 0.53837800 -0.09399120
-16.16631508 4.55513525 -0.27157563 -0.85739511 0.62270153 -0.13193390
-17.25514412 3.05257893 1.83205581 -0.91514212 0.41729730 0.89002931
-17.23893356 3.71285796 1.72383463 -0.91428238 0.50755954 0.83745450
-17.62516594 4.47678518 1.69229007 -0.93476659 0.61199087 0.82212985
-16.37611198 4.81316233 1.44850302 -0.86852187 0.65797466 0.70369589
-16.41752815 2.25335217 0.65195501 -0.87071842 0.30804044 0.31672564
-16.65968513 1.42267752 1.32550347 -0.88356143 0.19448456 0.64394158
-16.61462021 2.03567410 1.24170744 -0.88117135 0.27828315 0.60323274
-16.36003685 2.85481763 0.57649928 -0.86766928 0.39026269 0.28006858
-16.32678986 3.47401476 0.47308561 -0.86590600 0.47490892 0.22982928
-16.38767815 2.61409092 1.13697994 -0.86913532 0.35735458 0.55235517
-16.33871078 3.23440814 1.03824759 -0.86653829 0.44215393 0.50439012
-16.19082069 4.71087646 0.28349108 -0.85869479 0.64399189 0.13772254
-16.30530548 3.85904908 0.95572793 -0.86476660 0.52754438 0.46430129
-16.21665382 4.47185516 0.86411375 -0.86006486 0.61131692 0.41979429
-16.37674522 2.19401670 -0.48086587 -0.86855543 0.29992911 -0.23360899
-16.74992371 1.39305556 0.17052926 -0.88834733 0.19043516 0.08284466
-16.41267014 1.96358097 0.07251979 -0.87046075 0.26842779 0.03523077
-16.28870583 2.79917502 -0.54701245 -0.86388618 0.38265619 -0.26574361
-16.26483727 3.40868711 -0.65670717 -0.86262029 0.46597841 -0.31903431
-16.33565712 2.57069468 0.01057427 -0.86637628 0.35142219 0.00513708
-16.30530167 3.17628527 -0.09972448 -0.86476636 0.43420836 -0.04844706
-16.27215385 3.83332324 -0.19343363 -0.86300838 0.52402753 -0.09397181
-16.17919350 4.44920921 -0.27144825 -0.85807812 0.60822111 -0.13187203
-17.22688675 3.59711170 1.72005355 -0.91364348 0.49173668 0.83561760
-16.97085381 4.19806910 1.62156820 -0.90006453 0.57388949 0.78777254
-16.69304657 4.79294634 1.47627532 -0.88533080 0.65521109 0.71718794
-16.42938042 2.14989233 0.65185976 -0.87134701 0.29389715 0.31667939
-16.91063118 1.33683944 1.34678447 -0.89687055 0.18275023 0.65428013
-16.45287323 1.91079295 1.22724628 -0.87259299 0.26121151 0.59620738
-16.35597229 2.74835324 0.57555372 -0.86745375 0.37570867 0.27960920
-16.33068275 3.36770797 0.47242716 -0.86611247 0.46037644 0.22950940
-16.40180779 2.51077390 1.13682675 -0.86988467 0.34323081 0.55228072
-16.33716202 3.12753320 1.03669763 -0.86645615 0.42754379 0.50363714
-16.16173363 3.96931577 0.39078003 -0.85715210 0.54261816 0.18984449
-16.20664215 4.60521221 0.28314131 -0.85953391 0.62954724 0.13755262
-16.31172180 3.75251865 0.95455533 -0.86510688 0.51298130 0.46373165
-16.22515869 4.36466599 0.86292434 -0.86051595 0.59666377 0.41921645
-16.38624001 2.09056497 -0.48078284 -0.86905903 0.28578693 -0.23356867
-16.64070320 1.27888882 0.16836450 -0.88255471 0.17482819 0.08179300
-16.43461800 1.86155665 0.07264705 -0.87162477 0.25448075 0.03529260
-16.29807854 2.69548035 -0.54681444 -0.86438328 0.36848077 -0.26564741
-16.27418137 3.30402470 -0.65633273 -0.86311591 0.45167074 -0.31885239
-16.34159851 2.46652436 0.01048452 -0.86669141 0.33718178 0.00509347
-16.31314850 3.07153916 -0.09975202 -0.86518252 0.41988921 -0.04846044
-16.27836800 3.72701144 -0.19337378 -0.86333793 0.50949436 -0.09394274
-16.17979622 4.34017801 -0.27122530 -0.85811007 0.59331620 -0.13176371
-17.24914742 3.48880172 1.72005355 -0.91482407 0.47693035 0.83561760
-17.06850052 4.10850334 1.62898099 -0.90524334 0.56164557 0.79137373
-16.39313126 4.59512424 1.44442976 -0.86942452 0.62816817 0.70171708
-16.72293854 1.45103884 0.75638348 -0.88691610 0.19836165 0.36745796
-16.44652939 2.04712009 0.65205026 -0.87225652 0.27984786 0.31677192
-17.30026054 1.25785363 1.38027585 -0.91753495 0.17195262 0.67055053
-16.46653557 1.80759943 1.22741067 -0.87331754 0.24710461 0.59628725
-16.36897087 2.64489937 0.57538176 -0.86814314 0.36156622 0.27952567
-16.33584404 3.26188350 0.47184187 -0.86638623 0.44590992 0.22922505
-16.40147209 2.40537381 1.13560081 -0.86986685 0.32882228 0.55168515
-16.35648918 3.02482271 1.03669763 -0.86748117 0.41350293 0.50363714
-16.26414680 3.88617873 0.39332026 -0.86258370 0.53125304 0.19107854
-16.20829391 4.49577856 0.28244182 -0.85962147 0.61458731 0.13721280
-16.31159782 3.64476156 0.95299184 -0.86510032 0.49825057 0.46297207
-16.22330475 4.25500202 0.86114013 -0.86041760 0.58167237 0.41834968
-16.38714409 1.98610854 -0.48053381 -0.86910695 0.27150738 -0.23344769
-16.67633820 1.17624331 0.16887817 -0.88444465 0.16079623 0.08204255
-16.42411995 1.75589335 0.07236707 -0.87106800 0.24003623 0.03515658
-16.32061768 2.59395814 -0.54696292 -0.86557865 0.35460237 -0.26571953
-16.27304840 3.19744039 -0.65564626 -0.86305583 0.43710032 -0.31851891
-16.36469078 2.36493349 0.01055632 -0.86791611 0.32329398 0.00512836
-16.32228851 2.96718001 -0.09977497 -0.86566728 0.40562299 -0.04847158
-16.29169846 3.62249994 -0.19334053 -0.86404490 0.49520734 -0.09392658
-16.19514084 4.23538208 -0.27112979 -0.85892391 0.57899028 -0.13171731
-17.18486214 3.36344504 1.71081078 -0.91141468 0.45979369 0.83112741
-17.14436722 4.01291180 1.63418996 -0.90926701 0.54857785 0.79390430
-16.91133499 4.62660360 1.49164259 -0.89690793 0.63247150 0.72465348
-16.52665901 1.32969165 0.74542236 -0.87650627 0.18177310 0.36213294
-16.44518089 1.94208670 0.65138364 -0.87218499 0.26548946 0.31644809
-17.28793907 1.14783216 1.37853146 -0.91688144 0.15691233 0.66970307
-16.46765518 1.70306468 1.22658896 -0.87337697 0.23281439 0.59588802
-16.36749268 2.53926349 0.57460809 -0.86806476 0.34712544 0.27914983
-16.35013008 3.15803432 0.47162238 -0.86714387 0.43171340 0.22911842
-16.41626167 2.30227351 1.13560081 -0.87065125 0.31472814 0.55168515
-16.36142731 2.91952276 1.03571117 -0.86774307 0.39910811 0.50315785
-16.27460861 3.78076243 0.39287573 -0.86313856 0.51684231 0.19086260
-16.21692848 4.38860464 0.28194219 -0.86007941 0.59993631 0.13697007
-16.31271744 3.53757501 0.95155865 -0.86515969 0.48359782 0.46227583
-16.23424911 4.14901114 0.86018860 -0.86099803 0.56718308 0.41788742
-16.39731216 1.88287592 -0.48049229 -0.86964625 0.25739515 -0.23342751
-18.23406410 1.16913283 0.19738705 -0.96706003 0.15982419 0.09589242
-16.42687035 1.65185344 0.07226527 -0.87121391 0.22581364 0.03510712
-16.31484795 2.48807311 -0.54641849 -0.86527270 0.34012756 -0.26545507
-16.29478073 3.09550691 -0.65570867 -0.86420840 0.42316568 -0.31854922
-16.36733818 2.26043820 0.01044862 -0.86805654 0.30900913 0.00507603
-16.34257889 2.86491394 -0.09977038 -0.86674339 0.39164290 -0.04846936
-16.67754364 1.26605141 1.90243804 -0.88450855 0.17307328 0.92422163
-16.31609344 3.52048492 -0.19334719 -0.86533874 0.48126155 -0.09392982
-16.21562004 4.13205338 -0.27108201 -0.86001003 0.56486493 -0.13169409
-17.17048836 3.24870729 1.70702958 -0.91065234 0.44410866 0.82929045
-17.14401054 3.89940381 1.63158548 -0.90924805 0.53306097 0.79263902
-16.94006920 4.52025604 1.49164259 -0.89843184 0.61793345 0.72465348
-16.67411995 1.23599100 0.75287169 -0.88432699 0.16896392 0.36575189
-16.43720818 1.83647835 0.65043128 -0.87176216 0.25105247 0.31598541
-16.77768898 1.00872397 1.33317852 -0.88981986 0.13789579 0.64767021
-16.38707733 2.43695688 0.57478005 -0.86910343 0.33313981 0.27923337
-16.34804344 3.05118179 0.47081760 -0.86703324 0.41710630 0.22872746
-16.40668106 2.19593692 1.13376200 -0.87014312 0.30019161 0.55079186
-16.35782433 2.81291842 1.03416109 -0.86755198 0.38453496 0.50240481
-16.28243828 3.67493010 0.39236766 -0.86355382 0.50237471 0.19061577
-16.23065567 4.28303719 0.28159246 -0.86080748 0.58550489 0.13680017
-16.32876205 3.43378496 0.95116782 -0.86601061 0.46940938 0.46208596
-16.25612450 4.04595804 0.85995072 -0.86215824 0.55309540 0.41777185
-16.40881920 1.77981210 -0.48049229 -0.87025654 0.24330601 -0.23342751
-17.08709717 0.98911947 0.17617968 -0.90622962 0.13521579 0.08558968
-16.34005356 2.38694835 -0.54666597 -0.86660945 0.32630348 -0.26557529
-16.29031944 2.98870564 -0.65495980 -0.86397177 0.40856561 -0.31818542
-16.36931992 2.15600300 0.01034092 -0.86816162 0.29473251 0.00502371
-16.34053993 2.75882077 -0.09981628 -0.86663526 0.37713963 -0.04849165
-16.70101357 1.16232240 1.90437639 -0.88575333 0.15889318 0.92516333
-16.31635284 3.41342044 -0.19327404 -0.86535251 0.46662548 -0.09389428
-16.19857216 4.01943874 -0.27073169 -0.85910589 0.54947013 -0.13152391
-17.21794701 3.14579487 1.70997047 -0.91316932 0.43004021 0.83071917
-17.15456772 3.78862023 1.63018298 -0.90980798 0.51791650 0.79195768
-16.92767715 4.40315533 1.48775446 -0.89777464 0.60192543 0.72276461
-16.45438194 1.73380005 0.65071702 -0.87267298 0.23701601 0.31612423
-16.80956078 0.90464813 1.33544624 -0.89151019 0.12366829 0.64877188
-17.00778961 1.54382575 1.26964366 -0.90202343 0.21104592 0.61680442
-16.39217186 2.33255124 0.57435024 -0.86937362 0.31886721 0.27902454
-16.36885834 2.94876122 0.47089076 -0.86813718 0.40310508 0.22876300
-16.42609024 2.09355712 1.13422167 -0.87117249 0.28619596 0.55101520
-16.37714386 2.71041250 1.03430200 -0.86857659 0.37052205 0.50247329
-16.29544258 3.57042551 0.39205015 -0.86424351 0.48808858 0.19046152
-16.24176025 4.17697048 0.28119275 -0.86139643 0.57100523 0.13660599
-16.33827782 3.32874513 0.95038611 -0.86651528 0.45505011 0.46170619
-16.26182747 3.93901515 0.85876131 -0.86246067 0.53847599 0.41719404
-16.41967773 1.67667794 -0.48049229 -0.87083244 0.22920723 -0.23342751
-17.07500076 0.88083351 0.17584945 -0.90558809 0.12041276 0.08542926
-16.33492279 2.28149295 -0.54617107 -0.86633736 0.31188738 -0.26533484
-16.31271362 2.88699365 -0.65508461 -0.86515945 0.39466128 -0.31824604
-16.38651276 2.05360198 0.01037682 -0.86907351 0.28073394 0.00504115
-16.35557747 2.65577340 -0.09982087 -0.86743283 0.36305273 -0.04849388
-16.71224976 1.08398640 1.90510321 -0.88634926 0.14818440 0.92551643
-16.33225632 3.33649373 -0.19327404 -0.86619592 0.45610937 -0.09389428
-16.23093224 3.94638419 -0.27084315 -0.86082214 0.53948331 -0.13157806
-16.79308701 2.34951186 1.76835108 -0.89063650 0.32118580 0.85908097
-17.20125389 3.05901408 1.70660949 -0.91228402 0.41817701 0.82908636
-17.46212578 3.76998091 1.66003454 -0.92611957 0.51536846 0.80645984
-17.02925682 4.34410477 1.49553072 -0.90316200 0.59385300 0.72654241
-16.65680122 1.05072892 0.75127536 -0.88340849 0.14363800 0.36497638
-16.44845772 1.65482473 0.65005040 -0.87235880 0.22621983 0.31580037
-17.17384529 0.84267247 1.36701882 -0.91083038 0.11519602 0.66411012
-16.85006332 1.44928622 1.25600421 -0.89365828 0.19812205 0.61017823
-16.39308357 2.25393057 0.57392037 -0.86942196 0.30811951 0.27881572
-16.36289024 2.86811757 0.47015917 -0.86782062 0.39208084 0.22840759
-16.41795731 2.01396489 1.13284254 -0.87074119 0.27531543 0.55034518
-16.37594795 2.63097501 1.03331566 -0.86851317 0.35966271 0.50199413
-16.30231094 3.49151444 0.39173263 -0.86460775 0.47730118 0.19030726
-16.24382019 4.09596586 0.28074306 -0.86150563 0.55993164 0.13638753
-16.34595108 3.25016880 0.94986492 -0.86692226 0.44430846 0.46145299
-16.26661491 3.85909724 0.85792869 -0.86271459 0.52755094 0.41678953
-17.15087509 0.80364424 0.17717034 -0.90961212 0.10986074 0.08607095
-16.82958984 1.39956284 0.07707575 -0.89257246 0.19132471 0.03744410
-16.34945679 2.20502114 -0.54627001 -0.86710817 0.30143344 -0.26538292
-16.31825829 2.80872416 -0.65483499 -0.86545354 0.38396159 -0.31812477
-16.39402199 1.97612309 0.01035887 -0.86947173 0.27014235 0.00503243
-16.37186241 2.57929778 -0.09981169 -0.86829650 0.35259825 -0.04848942
-16.80792046 0.98407340 1.91600668 -0.89142323 0.13452598 0.93081343
-16.88195038 1.57210767 1.83486211 -0.89534944 0.21491215 0.89139265
-16.33719826 3.23072529 -0.19322082 -0.86645806 0.44165048 -0.09386843
-16.23789597 3.84016132 -0.27069986 -0.86119145 0.52496231 -0.13150844
-17.26325417 2.95831656 1.71123087 -0.91557223 0.40441135 0.83133149
-17.30233955 3.62207294 1.64120197 -0.91764516 0.49514896 0.79731083
-17.05428505 4.23653936 1.49534559 -0.90448940 0.57914847 0.72645247
-16.58131790 0.94150919 0.74691224 -0.87940514 0.12870732 0.36285675
-18.82108498 1.77708018 0.76318538 -0.99819320 0.24293254 0.37076238
-17.21662331 0.73632300 1.37033308 -0.91309917 0.10065771 0.66572022
-16.75949860 1.33535039 1.24778759 -0.88885510 0.18254668 0.60618651
-16.39899445 2.14985681 0.57357651 -0.86973548 0.29389229 0.27864867
-16.37467575 2.76424503 0.46993968 -0.86844569 0.37788114 0.22830096
-16.42830658 1.91054082 1.13268936 -0.87129003 0.26117703 0.55027074
-16.38032722 2.52619147 1.03247011 -0.86874545 0.34533846 0.50158334
-16.31609535 3.38739991 0.39147860 -0.86533886 0.46306840 0.19018385
-16.27117538 3.99430203 0.28079304 -0.86295646 0.54603386 0.13641180
-16.35820770 3.14590263 0.94934374 -0.86757231 0.43005496 0.46119979
-16.28081703 3.75456047 0.85733396 -0.86346781 0.51326042 0.41650060
-16.65861130 1.27978730 0.07478504 -0.88350445 0.17495102 0.03633125
-16.35902214 2.10174680 -0.54617107 -0.86761552 0.28731552 -0.26533484
-16.32769585 2.70482230 -0.65458536 -0.86595410 0.36975786 -0.31800351
-16.39419174 1.87173164 0.01025116 -0.86948073 0.25587171 0.00498011
-16.37588120 2.47457242 -0.09983923 -0.86850965 0.33828196 -0.04850280
-16.77213669 0.87632251 1.91091835 -0.88952541 0.11979609 0.92834145
-16.34145546 3.12502646 -0.19316763 -0.86668384 0.42720112 -0.09384259
-16.25196075 3.73580837 -0.27062023 -0.86193740 0.51069695 -0.13146976
-17.41088295 2.21253443 1.83518517 -0.92340189 0.30246052 0.89154959
-17.27169228 2.84816122 1.71018052 -0.91601980 0.38935274 0.83082122
-17.24672699 3.49755859 1.63318825 -0.91469574 0.47812745 0.79341763
-17.03799438 4.11895704 1.49127233 -0.90362543 0.56307459 0.72447360
-16.71057892 0.84339911 0.75351018 -0.88626063 0.11529536 0.36606207
-16.66096687 1.46521282 0.65928781 -0.88362938 0.20029928 0.32028800
-16.58971786 0.60585713 1.31503737 -0.87985063 0.08282261 0.63885707
-16.94844055 1.24351072 1.26274168 -0.89887583 0.16999190 0.61345136
-16.41812897 2.04751158 0.57383442 -0.87075031 0.27990139 0.27877396
-16.38185883 2.65969253 0.46957386 -0.86882669 0.36358848 0.22812323
-16.43403816 1.80663526 1.13222957 -0.87159401 0.24697281 0.55004740
-16.38995743 2.42233944 1.03204739 -0.86925620 0.33114156 0.50137800
-16.31745338 3.28090000 0.39084354 -0.86541086 0.44850951 0.18987533
-16.26095772 3.88358641 0.27989370 -0.86241454 0.53089869 0.13597490
-16.36194992 3.04016209 0.94830143 -0.86777079 0.41559988 0.46069345
-16.28460884 3.64780402 0.85614455 -0.86366892 0.49866647 0.41592279
-16.69025993 1.17681062 0.07509047 -0.88518298 0.16087377 0.03647963
-16.38182831 2.00011873 -0.54641849 -0.86882502 0.27342263 -0.26545507
-16.34042168 2.60154605 -0.65446055 -0.86662900 0.35563967 -0.31794286
-16.41954803 1.77017105 0.01037682 -0.87082553 0.24198805 0.00504115
-16.38121033 2.37018752 -0.09986217 -0.86879224 0.32401222 -0.04851395
-16.75549507 0.76994747 1.90825307 -0.88864279 0.10525428 0.92704666
-16.71623230 1.34480560 1.81335604 -0.88656044 0.18383923 0.88094479
-16.35289955 3.02084541 -0.19314103 -0.86729079 0.41295922 -0.09382966
-16.25755119 3.62967777 -0.27047694 -0.86223388 0.49618855 -0.13140015
-17.36129189 2.09554791 1.82803237 -0.92077178 0.28646809 0.88807470
-17.31085014 2.74303365 1.71249127 -0.91809654 0.37498146 0.83194381
-16.81328392 3.30035710 1.58650768 -0.89170766 0.45116937 0.77073979
-17.04028130 4.00632715 1.48905051 -0.90374666 0.54767776 0.72339422
-16.71355438 0.73830175 0.75340378 -0.88641840 0.10092821 0.36601040
-16.47871780 1.34466791 0.65014559 -0.87396365 0.18382040 0.31584662
-16.75451279 0.50628829 1.32916653 -0.88859069 0.06921123 0.64572114
-17.21642685 1.15477860 1.28426909 -0.91308874 0.15786193 0.62390959
-16.42074585 1.94315183 0.57340461 -0.87088907 0.26563507 0.27856517
-16.39429855 2.55608988 0.46942756 -0.86948639 0.34942567 0.22805217
-16.46093559 1.70496619 1.13345551 -0.87302059 0.23307434 0.55064297
-16.40682793 2.31959295 1.03218830 -0.87015092 0.31709579 0.50144643
-16.33185768 3.17717242 0.39065304 -0.86617482 0.43432963 0.18978280
-16.28309059 3.78088522 0.27984372 -0.86358839 0.51685911 0.13595061
-16.38465881 2.93799734 0.94856203 -0.86897516 0.40163362 0.46082002
-16.30330658 3.54456043 0.85590667 -0.86466056 0.48455274 0.41580722
-16.42736244 0.46052325 0.16366805 -0.87123996 0.06295500 0.07951143
-16.37420845 1.89487588 -0.54592359 -0.86842090 0.25903559 -0.26521462
-16.34261513 2.49669528 -0.65402371 -0.86674535 0.34130624 -0.31773064
-16.43034744 1.66696966 0.01037682 -0.87139827 0.22788008 0.00504115
-16.38587570 2.26583314 -0.09988512 -0.86903971 0.30974662 -0.04852510
-16.74214745 0.66396868 1.90607250 -0.88793486 0.09076664 0.92598730
-16.70058060 1.23795736 1.81058109 -0.88573033 0.16923273 0.87959671
-16.34989357 2.91420436 -0.19306788 -0.86713135 0.39838105 -0.09379412
-16.25267982 3.52149510 -0.27025399 -0.86197555 0.48139966 -0.13129184
-16.91989708 1.93502617 1.77662158 -0.89736199 0.26452425 0.86309886
-17.31398201 2.63210440 1.71102083 -0.91826266 0.35981709 0.83122945
-16.82586670 3.19317675 1.58570635 -0.89237499 0.43651748 0.77035052
-17.03988647 3.89338565 1.48664355 -0.90372574 0.53223825 0.72222489
-16.71985817 0.63334668 0.75351018 -0.88675278 0.08658051 0.36606207
-16.64818573 1.25344861 0.65785939 -0.88295156 0.17135043 0.31959406
-16.81114388 0.40222895 1.33387637 -0.89159417 0.05498599 0.64800924
-17.20344925 1.04535007 1.28262579 -0.91240042 0.14290270 0.62311125
-16.43461800 1.84015954 0.57349056 -0.87162477 0.25155568 0.27860692
-16.39224815 2.45035052 0.46876910 -0.86937767 0.33497074 0.22773229
-16.41119576 2.21511412 1.03148377 -0.87038255 0.30281317 0.50110418
-16.34560394 3.07339334 0.39046252 -0.86690384 0.42014271 0.18969023
-16.28897667 3.67452049 0.27939406 -0.86390054 0.50231868 0.13573217
-16.38312531 2.83161712 0.94725913 -0.86889380 0.38709110 0.46018708
-16.30963135 3.43874025 0.85495508 -0.86499602 0.47008678 0.41534492
-17.26670265 1.00026453 0.08226801 -0.91575515 0.13673936 0.03996655
-16.38579178 1.79195690 -0.54592359 -0.86903524 0.24496624 -0.26521462
-16.34809113 2.39250350 -0.65371168 -0.86703575 0.32706288 -0.31757906
-16.39582443 2.16230583 -0.09989430 -0.86956733 0.29559413 -0.04852956
-16.80117798 1.13943100 1.82144976 -0.89106566 0.15576386 0.88487679
-16.36393929 2.81074572 -0.19305457 -0.86787629 0.38423792 -0.09378766
-16.27644157 3.41972113 -0.27026993 -0.86323577 0.46748680 -0.13129959
-17.09993935 2.48947048 1.68644345 -0.90691072 0.34031859 0.81928951
-16.81818771 3.08240461 1.58290148 -0.89196777 0.42137456 0.76898789
-16.71610260 3.70862412 1.45350206 -0.88655359 0.50698078 0.70612448
-16.74546623 0.52894783 0.75468075 -0.88811088 0.07230886 0.36663076
-16.68562508 1.15091932 0.65928781 -0.88493717 0.15733436 0.32028800
-16.83724403 0.29698697 1.33596957 -0.89297843 0.04059907 0.64902616
-17.20967674 0.93723768 1.28262579 -0.91273075 0.12812339 0.62311125
-16.44386673 1.73665476 0.57340461 -0.87211531 0.23740625 0.27856517
-16.41918945 2.34902024 0.46920806 -0.87080652 0.32111859 0.22794554
-17.44633102 1.58452153 1.20792937 -0.92528188 0.21660917 0.58682305
-16.42874718 2.11247015 1.03176558 -0.87131345 0.28878143 0.50124109
-16.35672188 2.96921229 0.39020848 -0.86749351 0.40590081 0.18956682
-16.29612160 3.56866121 0.27899435 -0.86427951 0.48784739 0.13553798
-16.39665604 2.72797346 0.94699860 -0.86961144 0.37292269 0.46006051
-16.31918335 3.33378458 0.85424143 -0.86550260 0.45573902 0.41499823
-18.77322197 0.28736261 0.20663318 -0.99565476 0.03928339 0.10038427
-17.12686157 0.88405716 0.08041000 -0.90833855 0.12085344 0.03906391
-16.39075851 1.68836010 -0.54577512 -0.86929864 0.23080422 -0.26514250
-16.35290337 2.28834152 -0.65339965 -0.86729097 0.31282359 -0.31742749
-16.39321327 2.05723405 -0.09993102 -0.86942887 0.28123048 -0.04854739
-16.68344688 1.05234170 1.80711234 -0.88482165 0.14385848 0.87791157
-16.36318970 2.73131347 -0.19300802 -0.86783653 0.37337929 -0.09376505
-16.26299667 3.33691692 -0.27003106 -0.86252272 0.45616722 -0.13118353
-16.77474976 2.36105394 1.65052271 -0.88966399 0.32276362 0.80183887
-16.86191940 3.00832462 1.58590662 -0.89428711 0.41124758 0.77044779
-16.86569786 3.65867448 1.46609211 -0.89448750 0.50015253 0.71224082
-16.75576019 0.45023599 0.75510645 -0.88865685 0.06154870 0.36683756
-16.67292213 1.07110322 0.65843076 -0.88426346 0.14642324 0.31987163
-16.84244156 0.21768701 1.33631837 -0.89325410 0.02975851 0.64919561
-16.68637848 0.82926852 1.23907804 -0.88497716 0.11336366 0.60195535
-16.43993950 1.65795755 0.57288885 -0.87190700 0.22664809 0.27831459
-16.41423988 2.26941156 0.46862277 -0.87054402 0.31023583 0.22766119
-16.70054245 1.43835247 1.14985204 -0.88572836 0.19662738 0.55860853
-16.43455887 2.03453326 1.03148377 -0.87162167 0.27812719 0.50110418
-16.36462593 2.89106441 0.39001799 -0.86791271 0.39521775 0.18947427
-16.29907608 3.48888206 0.27864459 -0.86443621 0.47694135 0.13536806
-16.39947510 2.64909673 0.94634712 -0.86976093 0.36214000 0.45974401
-16.32100868 3.25409627 0.85340881 -0.86559939 0.44484538 0.41459373
-16.72880363 0.17943868 0.16909832 -0.88722718 0.02452984 0.08214950
-17.11685371 0.80266684 0.08023183 -0.90780777 0.10972712 0.03897735
-16.39256287 1.61052287 -0.54562664 -0.86939436 0.22016363 -0.26507038
-16.37340927 2.21260571 -0.65371168 -0.86837852 0.30247027 -0.31757906
-16.80748177 1.41188014 0.01353607 -0.89139998 0.19300853 0.00657595
-16.41463852 1.98141301 -0.09990348 -0.87056518 0.27086550 -0.04853402
-16.71154404 0.94876158 1.80965602 -0.88631183 0.12969874 0.87914729
-16.37015343 2.62687492 -0.19297478 -0.86820585 0.35910219 -0.09374890
-16.27187538 3.23231578 -0.26993555 -0.86299360 0.44186792 -0.13113713
-16.88947296 1.63652849 1.76969230 -0.89574844 0.22371867 0.85973257
-16.81093216 2.25854850 1.65283346 -0.89158297 0.30875081 0.80296147
-17.25122261 2.96560812 1.62377191 -0.91493416 0.40540811 0.78884310
-16.77822495 0.34533504 0.75617063 -0.88984829 0.04720840 0.36735454
-16.71322441 0.96832919 0.66004968 -0.88640094 0.13237369 0.32065812
-16.85941505 0.11194583 1.33771384 -0.89415431 0.01530335 0.64987350
-16.68926811 0.72432035 1.23891377 -0.88513041 0.09901690 0.60187554
-16.42817497 2.16623354 0.46862277 -0.87128305 0.29613104 0.22766119
-16.62177849 1.32651865 1.14310956 -0.88155103 0.18133934 0.55533302
-16.44503784 1.93099737 1.03134286 -0.87217742 0.26397350 0.50103569
-16.36472893 2.78518915 0.38944644 -0.86791813 0.38074425 0.18919662
-16.31871796 3.38599515 0.27859464 -0.86547792 0.46287635 0.13534380
-16.40987968 2.54509377 0.94595623 -0.87031275 0.34792244 0.45955411
-16.33721352 3.15072393 0.85317093 -0.86645883 0.43071404 0.41447818
-16.68057060 0.28568536 -0.38543636 -0.88466913 0.03905410 -0.18724848
-16.37311172 2.10788178 -0.65327483 -0.86836272 0.28815418 -0.31736684
-16.64054108 1.29283011 0.01195644 -0.88254613 0.17673402 0.00580855
-16.40689468 1.87594199 -0.09994937 -0.87015444 0.25644726 -0.04855631
-16.73899841 0.84486985 1.81219983 -0.88776785 0.11549641 0.88038313
-16.38435745 2.52366519 -0.19296812 -0.86895919 0.34499311 -0.09374566
-16.28400803 3.12849450 -0.26987183 -0.86363703 0.42767519 -0.13110618
-16.96484184 2.17096972 1.66774786 -0.89974570 0.29677850 0.81020701
-17.15614510 3.49684906 1.48942089 -0.90989161 0.47803044 0.72357416
-16.70900345 0.86277127 0.65957355 -0.88617706 0.11794359 0.32042682
-16.89963341 0.00597963 1.34120262 -0.89628732 0.00081743 0.65156841
-16.73531723 0.62104809 1.24236476 -0.88757265 0.08489926 0.60355204
-16.43749619 2.06246781 0.46847644 -0.87177742 0.28194594 0.22759010
-16.64967537 1.22349274 1.14464188 -0.88303053 0.16725537 0.55607742
-16.45288086 1.82718742 1.03106105 -0.87259340 0.24978237 0.50089884
-16.37203979 2.68070936 0.38912889 -0.86830592 0.36646155 0.18904234
-16.32595253 3.28062153 0.27824488 -0.86586159 0.44847146 0.13517389
-16.42357254 2.44164705 0.94582599 -0.87103897 0.33378097 0.45949084
-16.34491348 3.04580379 0.85245728 -0.86686724 0.41637111 0.41413149
-16.37412834 2.00349426 -0.65290040 -0.86841667 0.27388406 -0.31718493
-16.66828537 1.18964922 0.01213595 -0.88401753 0.16262886 0.00589575
-16.42233467 1.77325237 -0.09994020 -0.87097335 0.24240927 -0.04855185
-16.77771378 0.74121106 1.81613100 -0.88982117 0.10132592 0.88229293
-16.40187073 2.42095971 -0.19297478 -0.86988801 0.33095294 -0.09374890
-16.29744530 3.02501583 -0.26982406 -0.86434972 0.41352934 -0.13108297
-16.93274307 2.05875897 1.66291642 -0.89804327 0.28143895 0.80785990
-17.80408478 2.83017302 1.67646277 -0.94425571 0.38689369 0.81444079
-16.82813644 3.31958318 1.45627928 -0.89249539 0.45379764 0.70747370
-16.75527763 0.13429534 0.75478721 -0.88863128 0.01835860 0.36668247
-16.72008133 0.75804788 0.65985924 -0.88676459 0.10362757 0.32056561
-17.65443039 -0.10558935 1.40731323 -0.93631864 -0.01443440 0.68368554
-16.75283432 0.51633215 1.24351501 -0.88850170 0.07058425 0.60411090
-16.71922112 1.36802340 0.58372027 -0.88671899 0.18701318 0.28357661
-16.44814682 1.95890915 0.46840328 -0.87234229 0.26778916 0.22755456
-16.65703392 1.11885619 1.14464188 -0.88342083 0.15295123 0.55607742
-16.45610046 1.72293484 1.03049731 -0.87276411 0.23553070 0.50062495
-16.37868500 2.57624769 0.38881138 -0.86865830 0.35218129 0.18888809
-16.31877327 3.17260289 0.27754539 -0.86548084 0.43370497 0.13483407
-16.42475510 2.33645654 0.94491392 -0.87110168 0.31940109 0.45904776
-16.34015465 2.93877673 0.85102993 -0.86661482 0.40174016 0.41343805
-16.38838005 1.90080631 -0.65296280 -0.86917251 0.25984630 -0.31721526
-16.42320442 1.66901016 -0.09996314 -0.87101948 0.22815903 -0.04856300
-16.76218987 0.63500351 1.81381857 -0.88899785 0.08680701 0.88116950
-16.40883446 2.31674790 -0.19294818 -0.87025732 0.31670684 -0.09373597
-16.30628967 2.92078185 -0.26974446 -0.86481875 0.39928022 -0.13104430
-16.69537354 1.30087519 1.74465740 -0.88545418 0.17783380 0.84757036
-16.82483292 1.93829739 1.65010262 -0.89232022 0.26497146 0.80163479
-18.05761719 2.75399089 1.70050430 -0.95770204 0.37647936 0.82612044
-16.81932640 3.20815253 1.45350206 -0.89202815 0.43856472 0.70612448
-16.85165405 0.02906653 0.75989527 -0.89374268 0.00397349 0.36916402
-16.73649216 0.65346044 0.66043061 -0.88763493 0.08933013 0.32084319
-16.79559898 0.41208753 1.24680161 -0.89076972 0.05633368 0.60570753
-16.62984657 1.25569415 0.57950807 -0.88197893 0.17165741 0.28153026
-16.45814323 1.85529804 0.46833012 -0.87287247 0.25362518 0.22751902
-16.64980125 1.01334465 1.14356923 -0.88303721 0.13852745 0.55555630
-16.46461487 1.61930716 1.03035641 -0.87321568 0.22136447 0.50055647
-16.39652443 2.47358298 0.38887489 -0.86960447 0.33814672 0.18891895
-16.34231377 3.07075024 0.27764532 -0.86672938 0.41978139 0.13488261
-16.44108963 2.23347759 0.94504422 -0.87196803 0.30532354 0.45911106
-16.35829735 2.83605099 0.85102993 -0.86757708 0.38769725 0.41343805
-18.70507812 0.40832448 0.10026279 -0.99204069 0.05581926 0.04870857
-16.39205170 1.79691720 -0.65271318 -0.86936724 0.24564433 -0.31709397
-18.27122688 1.07153559 0.02642440 -0.96903098 0.14648235 0.01283722
-16.47318268 1.56963098 -0.09987135 -0.87367010 0.21457358 -0.04851841
-16.41910362 2.21307349 -0.19293487 -0.87080199 0.30253422 -0.09372951
-16.32431984 2.81826949 -0.26974446 -0.86577505 0.38526645 -0.13104430
-16.73295593 1.19804299 1.74801028 -0.88744742 0.16377631 0.84919924
-16.87819672 1.83711553 1.65451396 -0.89515036 0.25113958 0.80377787
-16.88113403 2.46748877 1.57909489 -0.89530617 0.33731359 0.76713860
-16.81957245 3.09877944 1.45165062 -0.89204121 0.42361307 0.70522505
-16.94736671 -0.07736810 0.76500338 -0.89881885 -0.01057647 0.37164557
-16.72629166 0.54781502 0.65976399 -0.88709396 0.07488807 0.32051933
-16.79785728 0.30655023 1.24680161 -0.89088953 0.04190640 0.60570753
-16.67528534 1.15375602 0.58114135 -0.88438880 0.15772213 0.28232375
-16.45159149 1.74992788 0.46767166 -0.87252498 0.23922074 0.22719914
-16.65384674 0.90860528 1.14341605 -0.88325179 0.12420925 0.55548191
-16.39393425 2.36796236 0.38830334 -0.86946708 0.32370803 0.18864128
-16.34161568 2.96441579 0.27714568 -0.86669230 0.40524513 0.13463989
-16.43896103 2.12810135 0.94400191 -0.87185514 0.29091826 0.45860469
-16.36791801 2.73188925 0.85055417 -0.86808729 0.37345800 0.41320693
-16.81968880 0.25939626 0.07623582 -0.89204735 0.03546030 0.03703605
-16.40898323 1.69451141 -0.65290040 -0.87026525 0.23164512 -0.31718493
-17.08720779 0.89573073 0.01572601 -0.90623546 0.12244926 0.00763984
-16.42141533 2.13465452 -0.19290827 -0.87092459 0.29181409 -0.09371658
-16.31375504 2.73731136 -0.26955336 -0.86521471 0.37419921 -0.13095146
-16.69081879 1.11605334 1.74264574 -0.88521260 0.15256806 0.84659308
-16.92424965 1.76151586 1.65850520 -0.89759284 0.24080485 0.80571687
-16.90636826 2.38984466 1.58049726 -0.89664447 0.32669941 0.76781988
-16.83398819 3.01948500 1.45165062 -0.89280576 0.41277325 0.70522505
-16.75664330 0.46980616 0.66109723 -0.88870370 0.06422400 0.32116702
-16.82901001 0.22782995 1.24926662 -0.89254171 0.03114508 0.60690504
-16.67255974 1.07465875 0.58079749 -0.88424426 0.14690928 0.28215668
-16.46959686 1.67340493 0.46803749 -0.87347990 0.22875981 0.22737685
-16.68782043 0.83156842 1.14571452 -0.88505363 0.11367806 0.55659848
-16.69604874 1.45716906 1.04557514 -0.88549000 0.19919968 0.50794989
-16.40689087 2.29095578 0.38836685 -0.87015426 0.31318098 0.18867214
-16.34556198 2.88562512 0.27689588 -0.86690164 0.39447418 0.13451853
-16.44880676 2.05061126 0.94400191 -0.87237728 0.28032511 0.45860469
-16.36287689 2.65183091 0.84948367 -0.86781991 0.36251375 0.41268685
-16.80072784 0.17989442 0.07598130 -0.89104176 0.02459214 0.03691240
-16.41877556 1.61736584 -0.65296280 -0.87078458 0.22109908 -0.31721526
-16.85810089 1.41990471 -0.09902226 -0.89408457 0.19410552 -0.04810591
-16.42656136 2.03046274 -0.19288167 -0.87119752 0.27757075 -0.09370366
-16.33852959 2.63603950 -0.26961708 -0.86652863 0.36035502 -0.13098243
-16.67964554 1.01010096 1.74063396 -0.88462007 0.13808402 0.84561574
-17.38823700 1.69998932 1.70660949 -0.92220086 0.23239398 0.82908636
-16.76523399 2.26273274 1.56467009 -0.88915932 0.30932280 0.76013094
-17.14298820 2.96421123 1.47905254 -0.90919381 0.40521714 0.71853715
-16.76924896 0.36474183 0.66157341 -0.88937223 0.04986138 0.32139835
-16.84007454 0.12217069 1.25008821 -0.89312851 0.01670112 0.60730422
-16.66701508 0.96920002 0.58028173 -0.88395017 0.13249274 0.28190613
-18.85515213 1.79911745 0.55539203 -1.00000000 0.24594511 0.26981449
-16.69470787 0.72678435 1.14586782 -0.88541889 0.09935375 0.55667299
-16.47025299 1.33295763 1.02894735 -0.87351471 0.18221956 0.49987197
-16.41105270 2.18651581 0.38804930 -0.87037498 0.29890370 0.18851787
-16.35942841 2.78219128 0.27679595 -0.86763704 0.38033444 0.13446999
-16.45145607 1.94606054 0.94335049 -0.87251782 0.26603270 0.45828822
-16.36146545 2.54618359 0.84841317 -0.86774510 0.34807143 0.41216680
-16.70015526 0.30938262 -0.48460156 -0.88570780 0.04229359 -0.23542383
-16.65335655 1.29707766 -0.09951336 -0.88322580 0.17731467 -0.04834449
-16.43700981 1.92698169 -0.19287503 -0.87175167 0.26342455 -0.09370044
-16.34686470 2.53209591 -0.26955336 -0.86697072 0.34614560 -0.13095146
-16.74321938 0.90833282 1.74711621 -0.88799173 0.12417200 0.84876490
-16.77472878 1.53293407 1.64043975 -0.88966286 0.20955698 0.79694051
-16.82846832 2.16363454 1.56967866 -0.89251298 0.29577577 0.76256412
-17.17305756 2.85841632 1.48016346 -0.91078860 0.39075464 0.71907681
-16.86841583 0.01642047 1.25238895 -0.89463162 0.00224473 0.60842192
-16.68075752 0.86486375 0.58062559 -0.88467902 0.11822964 0.28207317
-16.70691681 0.62216187 1.14648080 -0.88606638 0.08505151 0.55697078
-16.63147926 1.24106443 1.03979766 -0.88206547 0.16965747 0.50514311
-16.41851616 2.08261228 0.38785881 -0.87077081 0.28469977 0.18842533
-16.36080551 2.67674589 0.27639624 -0.86771005 0.36591971 0.13427581
-16.46335793 1.84265518 0.94335049 -0.87314904 0.25189686 0.45828822
-16.37714005 2.44333172 0.84841317 -0.86857641 0.33401126 0.41216680
-16.71304131 1.19619179 -0.09939402 -0.88639122 0.16352324 -0.04828652
-16.46270943 1.82519317 -0.19292158 -0.87311465 0.24950974 -0.09372305
-16.36047363 2.42904019 -0.26953745 -0.86769247 0.33205757 -0.13094373
-16.76050758 0.80367154 1.74845743 -0.88890862 0.10986447 0.84941649
-17.52513885 1.49143970 1.71900320 -0.92946154 0.20388457 0.83510733
-16.99779892 2.07673597 1.58550596 -0.90149361 0.28389645 0.77025318
-17.18674660 2.74982524 1.47979307 -0.91151458 0.37590989 0.71889687
-16.71457863 0.15338784 0.65881169 -0.88647276 0.02096861 0.32005671
-16.69983482 0.76065850 0.58122730 -0.88569081 0.10398445 0.28236550
-16.73920441 1.38288450 0.47689000 -0.88777882 0.18904473 0.23167749
-16.76630592 0.51883698 1.15077138 -0.88921618 0.07092667 0.55905515
-16.65487099 1.13764906 1.04092503 -0.88330609 0.15552026 0.50569081
-16.43524742 1.97988451 0.38798580 -0.87165815 0.27065656 0.18848702
-16.37335014 2.57327008 0.27629632 -0.86837542 0.35177425 0.13422726
-16.46667099 1.73834884 0.94282931 -0.87332475 0.23763785 0.45803502
-16.38821602 2.33981442 0.84817529 -0.86916381 0.31986010 0.41205123
-16.69827461 1.08969843 -0.09944451 -0.88560808 0.14896525 -0.04831104
-16.45992661 1.72028148 -0.19287503 -0.87296706 0.23516798 -0.09370044
-16.36353493 2.32449484 -0.26944190 -0.86785483 0.31776589 -0.13089731
-16.76125526 0.69818634 1.74801028 -0.88894826 0.09544431 0.84919924
-16.72129250 1.31631541 1.63287747 -0.88682884 0.17994453 0.79326665
-16.96701813 1.96491086 1.58109832 -0.89986110 0.26860961 0.76811188
-17.17810249 2.63782501 1.47738624 -0.91105616 0.36059910 0.71772760
-16.82508659 0.04881632 0.66404939 -0.89233363 0.00667335 0.32260120
-16.71227264 0.65601981 0.58157116 -0.88635045 0.08968001 0.28253254
