-22.53126335 -15.63505650 1.32327461 -0.99008238 -0.85539109 0.55721509
-21.99102020 -15.71824551 2.22820115 -0.96634269 -0.85994232 0.93826878
-22.20889282 -15.61875153 1.30869532 -0.97591656 -0.85449904 0.55107594
-21.59670067 -15.64201164 2.19627976 -0.94901526 -0.85577160 0.92482710
-21.28769493 -15.62281227 2.17342877 -0.93543673 -0.85472119 0.91520482
-21.18112373 -15.75030708 2.17255664 -0.93075377 -0.86169642 0.91483754
-21.11144447 -15.85353851 2.17307997 -0.92769188 -0.86734420 0.91505790
-22.53234863 -15.62987041 2.12252045 -0.99013007 -0.85510737 0.89376789
-21.12203407 -15.61007023 1.26144552 -0.92815721 -0.85402405 0.53117961
-21.19682693 -16.12716103 2.19348884 -0.93144375 -0.88231403 0.92365187
-22.19550514 -15.60394764 2.09852815 -0.97532833 -0.85368913 0.88366503
-21.21047020 -15.88267708 1.27389646 -0.93204331 -0.86893833 0.53642255
-22.75695801 -15.72045898 1.18048978 -1.00000000 -0.86006343 0.49709010
-21.89724541 -15.60098743 2.07831550 -0.96222198 -0.85352713 0.87515372
-21.19771767 -16.08209038 1.27974951 -0.93148291 -0.87984818 0.53888720
-21.19652176 -16.55181122 2.21616530 -0.93143034 -0.90554655 0.93320066
-21.61445808 -15.60539150 2.05958176 -0.94979560 -0.85376811 0.86726516
-21.19437218 -16.29049492 1.28634751 -0.93133593 -0.89125001 0.54166549
-21.16862679 -16.74529076 2.22471237 -0.93020457 -0.91613179 0.93679971
-21.32443810 -15.60098457 2.04002643 -0.93705136 -0.85352701 0.85903066
-21.17821503 -16.49089241 1.29220045 -0.93062592 -0.90221369 0.54413015
-21.29452133 -17.06377602 2.25070310 -0.93573672 -0.93355608 0.94774407
-21.19074631 -15.70857430 2.03641105 -0.93117660 -0.85941321 0.85750830
-21.19284248 -16.66341019 1.29847920 -0.93126869 -0.91165209 0.54677403
-21.12099648 -17.08867264 2.24023724 -0.92811161 -0.93491817 0.94333702
-21.26337051 -15.91804314 2.05152965 -0.93436790 -0.87087321 0.86387455
-22.45434952 -15.60291767 1.96293449 -0.98670262 -0.85363275 0.82656819
-21.18608475 -16.87470245 1.30518353 -0.93097174 -0.92321187 0.54959714
-21.22803688 -15.62134933 1.11839879 -0.93281525 -0.85464114 0.47094432
-21.18415451 -17.36135101 2.25959945 -0.93088692 -0.94983631 0.95149022
-21.19471741 -16.07539558 2.05481625 -0.93135107 -0.87948191 0.86525851
-22.14077187 -15.59197426 1.94270694 -0.97292316 -0.85303402 0.81805062
-21.17284393 -17.08279991 1.31156862 -0.93038988 -0.93459684 0.55228585
-21.22881889 -15.82837963 1.12430310 -0.93284959 -0.86596775 0.47343057
-21.16044807 -17.56543922 2.26936769 -0.92984521 -0.96100193 0.95560354
-22.71902275 -15.71941662 1.05059063 -0.99833304 -0.86000639 0.44239113
-21.84931564 -15.59278679 1.92447162 -0.96011585 -0.85307848 0.81037194
-21.16091156 -17.29392242 1.31816661 -0.92986554 -0.94614732 0.55506414
-21.20710182 -16.02039528 1.12896943 -0.93189526 -0.87647289 0.47539550
-21.15025139 -17.78274536 2.28088045 -0.92939711 -0.97289073 0.96045142
-21.20035362 -16.50314331 2.07667208 -0.93159872 -0.90288395 0.87446171
-21.58941460 -15.61278343 1.90914774 -0.94869512 -0.85417253 0.80391926
-21.15484619 -17.51194191 1.32529664 -0.92959905 -0.95807511 0.55806655
-21.20602798 -16.22974205 1.13496912 -0.93184811 -0.88792622 0.47792190
-21.19490623 -16.71370506 2.08702493 -0.93135935 -0.91440374 0.87882119
-21.34942245 -15.64429379 1.89566278 -0.93814921 -0.85589641 0.79824090
-21.14228439 -17.72670937 1.33210742 -0.92904705 -0.96982503 0.56093448
-21.20631599 -16.44215012 1.14115918 -0.93186074 -0.89954704 0.48052844
-21.19950104 -15.74004650 1.89075923 -0.93156129 -0.86113507 0.79617608
-21.16362953 -17.91525650 1.33945024 -0.92998499 -0.98014039 0.56402642
-21.21831322 -16.61202812 1.14658737 -0.93238795 -0.90884101 0.48281419
-21.25202942 -17.14076996 2.11266065 -0.93386954 -0.93776840 0.88961607
-21.20322418 -15.89844990 1.89826787 -0.93172491 -0.86980128 0.79933786
-22.49003220 -15.55841351 1.79340434 -0.98827058 -0.85119796 0.75518107
-21.21688461 -16.82686996 1.15287256 -0.93232518 -0.92059499 0.48546082
-21.17634773 -17.30042076 2.11611152 -0.93054384 -0.94650286 0.89106917
-21.29935646 -15.69618797 1.00030160 -0.93594921 -0.85873556 0.42121503
-21.19654465 -16.10260201 1.90730894 -0.93143135 -0.88097042 0.80314493
-22.27906036 -15.62047291 1.78368127 -0.97899991 -0.85459322 0.75108683
-21.21514893 -17.04359818 1.15925312 -0.93224889 -0.93245214 0.48814759
-21.17325211 -17.52073479 2.12745047 -0.93040782 -0.95855618 0.89584386
-21.23071671 -15.85244274 1.00193501 -0.93293297 -0.86728424 0.42190281
-21.17549896 -16.29755402 1.91512406 -0.93050659 -0.89163619 0.80643576
-21.98196030 -15.61931801 1.76648986 -0.96594459 -0.85453004 0.74384773
-21.19911957 -17.25088501 1.16487181 -0.93154454 -0.94379276 0.49051356
-21.16516495 -17.73913193 2.13846064 -0.93005246 -0.97050464 0.90048015
-21.21510315 -16.04948235 1.00649107 -0.93224686 -0.87806422 0.42382133
-21.69710350 -15.62320328 1.75028479 -0.95342726 -0.85474259 0.73702395
-21.19520187 -17.47006798 1.17134750 -0.93137234 -0.95578420 0.49324039
-21.14147758 -17.94651604 2.14799166 -0.92901158 -0.98185062 0.90449351
-21.21052742 -16.25668335 1.01173484 -0.93204582 -0.88940018 0.42602941
-22.27482605 -15.77182770 0.86113304 -0.97881389 -0.86287379 0.36261281
-21.40823364 -15.62060738 1.73365688 -0.94073355 -0.85460055 0.73002213
-21.18322372 -17.68476105 1.17744231 -0.93084604 -0.96753001 0.49580684
-21.20575905 -16.46568489 1.01706457 -0.93183631 -0.90083462 0.42827371
-21.91208076 -15.72290802 0.84928089 -0.96287388 -0.86019742 0.35762200
-21.18511391 -16.95066643 1.94669116 -0.93092906 -0.92736787 0.81972831
-21.24064445 -15.70386410 1.72759759 -0.93336922 -0.85915554 0.72747064
-21.19441605 -17.86414337 1.18334663 -0.93133783 -0.97734398 0.49829307
-21.23950958 -16.65304947 1.02316809 -0.93331939 -0.91108531 0.43084383
-21.66610527 -15.70180035 0.84152579 -0.95206511 -0.85904258 0.35435644
-21.16235924 -17.09671974 1.95236099 -0.92992920 -0.93535841 0.82211584
-21.19039917 -15.82166862 1.72971129 -0.93116134 -0.86560059 0.72836071
-22.66223907 -15.68144703 1.66098166 -0.99583781 -0.85792911 0.69941944
-21.21107864 -16.84712410 1.02738035 -0.93207002 -0.92170304 0.43261755
-21.38971710 -15.70762634 0.83347803 -0.93991989 -0.85936135 0.35096762
-21.15322876 -17.31024742 1.96216822 -0.92952794 -0.94704044 0.82624549
-21.17653847 -16.01942635 1.73732066 -0.93055224 -0.87641990 0.73156488
-22.30522537 -15.64228344 1.64039600 -0.98014969 -0.85578644 0.69075108
-21.21216393 -17.06657219 1.03331184 -0.93211770 -0.93370903 0.43511522
-21.28578949 -15.83813572 0.83325857 -0.93535304 -0.86650151 0.35087520
-21.14991760 -17.53069878 1.97274172 -0.92938244 -0.95910132 0.83069789
-21.17211723 -16.22612000 1.74591637 -0.93035799 -0.88772804 0.73518443
-22.02115059 -15.65018272 1.62554300 -0.96766669 -0.85621864 0.68449670
-21.19739151 -17.27532196 1.03846967 -0.93146861 -0.94512969 0.43728712
-21.24813461 -16.01844025 0.83611184 -0.93369836 -0.87636590 0.35207668
-21.13245773 -17.74152374 1.98208928 -0.92861521 -0.97063553 0.83463407
-21.17223549 -16.43827629 1.75507581 -0.93036318 -0.89933509 0.73904139
-22.62805748 -15.79676056 0.73878938 -0.99433577 -0.86423784 0.31109536
-21.71358490 -15.63762283 1.60873580 -0.95415145 -0.85553145 0.67741936
-21.19622993 -17.49728966 1.04448712 -0.93141752 -0.95727348 0.43982100
-21.27580070 -16.24979591 0.84203792 -0.93491411 -0.88902336 0.35457209
-21.12684250 -17.96445274 1.99281597 -0.92836851 -0.98283190 0.83915091
-21.15483284 -16.63874817 1.76282609 -0.92959845 -0.91030288 0.74230492
-22.27881050 -15.76179600 0.72907305 -0.97898895 -0.86232495 0.30700392
-21.42316628 -15.63359833 1.59323144 -0.94138974 -0.85531127 0.67089069
-21.18238831 -17.71094131 1.04990292 -0.93080932 -0.96896237 0.44210154
-21.25394440 -16.44547081 0.84576917 -0.93395364 -0.89972872 0.35614327
-21.14042473 -16.84337616 1.77099907 -0.92896533 -0.92149800 0.74574649
-21.97636986 -15.75572014 0.72113490 -0.96569890 -0.86199254 0.30366126
-21.26036263 -15.72038269 1.58801985 -0.93423569 -0.86005926 0.66869611
-21.19787788 -17.89441681 1.05549049 -0.93148994 -0.97900027 0.44445440
-21.27391624 -16.62166405 0.85030514 -0.93483126 -0.90936822 0.35805330
-21.15258598 -17.01652145 1.77931297 -0.92949969 -0.93097079 0.74924737
-21.73034859 -15.73470402 0.71440333 -0.95488811 -0.86084276 0.30082667
-21.15887642 -15.80007362 1.58580494 -0.92977613 -0.86441910 0.66776347
-22.67253876 -15.63867664 1.50284088 -0.99629039 -0.85558915 0.63282830
-21.25373840 -16.82192039 0.85425586 -0.93394464 -0.92032415 0.35971689
-21.13810349 -17.22463608 1.78776777 -0.92886329 -0.94235671 0.75280756
-21.48447227 -15.76320744 0.70862436 -0.94408369 -0.86240220 0.29839322
-21.20075226 -16.03998375 1.59740067 -0.93161625 -0.87754458 0.67264628
-22.32335281 -15.60599422 1.48464251 -0.98094624 -0.85380107 0.62516516
-21.25840378 -17.04381180 0.85945028 -0.93414962 -0.93246382 0.36190420
-21.12645340 -17.43704414 1.79664540 -0.92835140 -0.95397747 0.75654584
-21.31125259 -15.84296989 0.70570308 -0.93647194 -0.86676598 0.29716310
-21.18503571 -16.23850060 1.60443628 -0.93092567 -0.88840538 0.67560887
-22.03415871 -15.61105347 1.47072613 -0.96823829 -0.85407788 0.61930513
-21.25180244 -17.25886917 0.86420578 -0.93385953 -0.94422954 0.36390668
-21.12675095 -17.66148758 1.80679119 -0.92836446 -0.96625674 0.76081812
-21.30224991 -16.04518127 0.70932287 -0.93607634 -0.87782890 0.29868737
-21.18656349 -16.45215607 1.61303532 -0.93099278 -0.90009445 0.67922986
-21.74416733 -15.61193752 1.45669079 -0.95549536 -0.85412621 0.61339504
-21.24487877 -17.47578049 0.86903441 -0.93355531 -0.95609677 0.36593997
-21.11743927 -17.88018036 1.81623232 -0.92795527 -0.97822136 0.76479363
-21.30424881 -16.25761223 0.71345073 -0.93616420 -0.88945097 0.30042556
-21.16429138 -16.64917564 1.61981034 -0.93001407 -0.91087335 0.68208271
-21.49057770 -15.63561153 1.44527221 -0.94435197 -0.85542142 0.60858679
-21.23145485 -17.68944931 0.87364358 -0.93296540 -0.96778655 0.36788085
-21.28702927 -16.45723724 0.71688002 -0.93540752 -0.90037245 0.30186957
-21.15909576 -16.86150169 1.62814879 -0.92978579 -0.92248964 0.68559396
-21.28739929 -15.69340706 1.43754077 -0.93542379 -0.85858339 0.60533118
-21.25345993 -17.87800026 0.87869173 -0.93393236 -0.97810209 0.37000656
-21.30530167 -16.63247490 0.72075385 -0.93621045 -0.90995967 0.30350080
-21.16176224 -17.02739525 1.63505411 -0.92990297 -0.93156564 0.68850172
-21.14751625 -15.74471474 1.43266416 -0.92927694 -0.86139047 0.60327768
-21.23204994 -18.08888817 0.88308138 -0.93299156 -0.98963976 0.37185499
-21.29753113 -16.84296417 0.72469121 -0.93586898 -0.92147547 0.30515879
-21.15949249 -17.24584007 1.64391375 -0.92980319 -0.94351673 0.69223237
-21.19170189 -15.98537254 1.44336903 -0.93121856 -0.87455678 0.60778540
-21.29262924 -17.05776024 0.72881901 -0.93565357 -0.93322694 0.30689695
-21.14300156 -17.45475006 1.65173113 -0.92907858 -0.95494616 0.69552416
-21.15750885 -16.16907120 1.44836473 -0.92971605 -0.88460690 0.60988903
-21.28896904 -17.27567863 0.73307389 -0.93549275 -0.94514918 0.30868864
-21.14461136 -17.68078804 1.66124213 -0.92914927 -0.96731269 0.69952917
-21.17238617 -16.39204216 1.45716655 -0.93036979 -0.89680564 0.61359537
-21.37867355 -16.19579506 2.35517478 -0.93943459 -0.88606900 0.99173588
-21.27723312 -17.48913956 0.73707473 -0.93497705 -0.95682764 0.31037334
-21.12442207 -17.89075089 1.66905951 -0.92826211 -0.97879970 0.70282096
-21.14599419 -16.58506203 1.46299481 -0.92921007 -0.90736568 0.61604959
-21.18165016 -16.25712395 2.34406590 -0.93077689 -0.88942426 0.98705804
-21.28207397 -17.71849251 0.74183762 -0.93518978 -0.96937549 0.31237894
-21.14929390 -16.80321121 1.47120190 -0.92935503 -0.91930062 0.61950547
-21.17882919 -16.41403770 2.35276771 -0.93065292 -0.89800900 0.99072230
-21.32221222 -17.92286110 0.74698156 -0.93695354 -0.98055643 0.31454498
-21.14778709 -16.96509361 1.47714901 -0.92928886 -0.92815715 0.62200975
-21.19595909 -16.64138412 2.36702418 -0.93140566 -0.91044706 0.99672550
-21.46929550 -18.27825546 0.75784099 -0.94341677 -1.00000000 0.31911775
-21.13534737 -17.17436409 1.48440456 -0.92874223 -0.93960631 0.62506497
-21.15647888 -16.82624626 2.37480044 -0.92967075 -0.92056084 1.00000000
-21.13036346 -17.39175034 1.49237382 -0.92852318 -0.95149946 0.62842071
-21.12194252 -17.60847092 1.50022411 -0.92815316 -0.96335620 0.63172638
-21.11468124 -17.82834244 1.50831223 -0.92783409 -0.97538537 0.63513219
