-3.58031249 -5.40198803 0.73785919 -0.50851882 -0.79075485 0.29308370
-3.83343291 -5.38968134 0.70915574 -0.54447001 -0.78895336 0.28168243
-2.69098043 -6.31820583 1.91598320 -0.38220525 -0.92487288 0.76104414
-2.69858193 -5.53420591 1.66521263 -0.38328490 -0.81010920 0.66143602
-2.49960828 -6.29232216 2.25816989 -0.35502428 -0.92108393 0.89696348
-2.69270635 -5.86114073 2.10489917 -0.38245037 -0.85796666 0.83608311
-2.93441772 -5.14211988 1.55181599 -0.41678113 -0.75271481 0.61639398
-3.31372380 -5.16321421 1.55255175 -0.47065473 -0.75580263 0.61668622
-2.80236888 -5.17916441 1.87225032 -0.39802596 -0.75813746 0.74367309
-3.14208603 -5.15925169 1.86282897 -0.44627666 -0.75522262 0.73993087
-3.77678418 -5.16136408 1.55707490 -0.53642410 -0.75553179 0.61848283
-4.20576096 -5.16102791 1.54992020 -0.59735250 -0.75548261 0.61564094
-3.76005507 -5.36756420 1.95483458 -0.53404802 -0.78571582 0.77647620
-4.02847004 -5.15109730 1.88148892 -0.57217151 -0.75402892 0.74734277
-2.85573387 -6.67792225 1.23160219 -0.40560549 -0.97752893 0.48920244
-3.31871653 -6.79302406 1.24389255 -0.47136384 -0.99437779 0.49408427
-2.64769745 -6.62407160 1.58553720 -0.37605768 -0.96964616 0.62978828
-2.67935348 -5.80786943 1.38108552 -0.38055384 -0.85016870 0.54857844
-4.30900955 -6.77800417 1.19266200 -0.61201710 -0.99217916 0.47373506
-2.82030940 -5.22828436 1.23624432 -0.40057409 -0.76532775 0.49104631
-4.11254120 -6.77955866 1.59022033 -0.58411235 -0.99240667 0.63164848
-4.54473925 -6.53349113 1.52023888 -0.64549828 -0.95638680 0.60385126
-3.31078267 -5.20117188 2.25383759 -0.47023699 -0.76135898 0.89524269
-2.99236321 -5.41018915 0.76356781 -0.42501125 -0.79195535 0.30329534
-3.21641326 -5.38595247 0.74513870 -0.45683351 -0.78840756 0.29597518
-3.81889677 -5.22269487 2.29486179 -0.54240543 -0.76450956 0.91153783
-3.53334856 -5.40442991 0.73464084 -0.50184846 -0.79111230 0.29180533
-3.79491472 -5.40717983 0.70813817 -0.53899920 -0.79151487 0.28127825
-2.64532924 -6.32077360 1.91161108 -0.37572131 -0.92524874 0.75930750
-2.68895030 -5.60311222 1.68118143 -0.38191691 -0.82019585 0.66777897
-2.50168347 -6.41568232 2.29731297 -0.35531902 -0.93914169 0.91251147
-2.90110993 -5.15876865 1.55129826 -0.41205037 -0.75515187 0.61618829
-3.26768446 -5.16270876 1.54603970 -0.46411565 -0.75572866 0.61409956
-2.75999165 -5.17816639 1.86547077 -0.39200705 -0.75799137 0.74098021
-3.09676743 -5.15766954 1.85503542 -0.43983996 -0.75499099 0.73683518
-3.72618032 -5.15975952 1.54934692 -0.52923673 -0.75529695 0.61541325
-4.14876604 -5.15710688 1.54065967 -0.58925742 -0.75490862 0.61196256
-3.60601711 -5.21596432 1.89033520 -0.51216972 -0.76352429 0.75085658
-4.12084532 -5.33695936 1.94111097 -0.58529174 -0.78123581 0.77102512
-2.79248881 -6.64481354 1.22198844 -0.39662269 -0.97268242 0.48538378
-3.25964332 -6.78001738 1.23755932 -0.46297356 -0.99247384 0.49156865
-2.66149664 -5.86543083 1.39102459 -0.37801760 -0.85859466 0.55252630
-4.24524879 -6.77149582 1.18662333 -0.60296106 -0.99122643 0.47133645
-2.78831530 -5.24763203 1.23666263 -0.39602992 -0.76815993 0.49121249
-4.06380320 -6.79519081 1.58781195 -0.57718998 -0.99469495 0.63069183
-4.64413881 -6.76781559 1.56892729 -0.65961617 -0.99068773 0.62319070
-4.71960735 -6.15764236 1.40976179 -0.67033511 -0.90136921 0.55996889
-3.31010365 -5.27258015 2.27611780 -0.47014055 -0.77181184 0.90409255
-2.95737004 -5.42714310 0.76327878 -0.42004108 -0.79443711 0.30318055
-3.17341709 -5.39072514 0.74262607 -0.45072669 -0.78910619 0.29497713
-3.75311804 -5.20070696 2.27452826 -0.53306276 -0.76129091 0.90346116
-3.48970246 -5.41150236 0.73222715 -0.49564931 -0.79214758 0.29084659
-3.74044657 -5.40162373 0.70355922 -0.53126299 -0.79070157 0.27945945
-2.65131927 -6.44950533 1.94604206 -0.37657210 -0.94409275 0.77298379
-2.71254206 -5.74347830 1.71897423 -0.38526767 -0.84074295 0.68279058
-2.63514209 -5.93089247 2.11812615 -0.37427440 -0.86817706 0.84133697
-2.84072375 -5.12610626 1.53576779 -0.40347359 -0.75037068 0.61001951
-3.22281361 -5.16346884 1.54002869 -0.45774257 -0.75583988 0.61171198
-2.73882294 -5.21734571 1.87348294 -0.38900042 -0.76372653 0.74416268
-3.04572892 -5.14589071 1.84364498 -0.43259087 -0.75326681 0.73231083
-3.67574668 -5.15772438 1.54161906 -0.52207351 -0.75499904 0.61234367
-4.10656357 -5.17091274 1.53695536 -0.58326328 -0.75692958 0.61049122
-3.53024149 -5.17514181 1.86709225 -0.50140715 -0.75754863 0.74162424
-4.10708714 -5.38863611 1.95067298 -0.58333766 -0.78880042 0.77482319
-2.75143027 -6.66405106 1.22233176 -0.39079106 -0.97549844 0.48552015
-3.21189046 -6.78968239 1.23555934 -0.45619112 -0.99388862 0.49077424
-2.64943218 -5.93724108 1.40442085 -0.37630406 -0.86910641 0.55784744
-2.87316275 -5.22874498 0.93161184 -0.40808097 -0.76539516 0.37004381
-4.17234564 -6.74934435 1.17786729 -0.59260648 -0.98798382 0.46785849
-2.75709033 -5.26851940 1.23749924 -0.39159498 -0.77121747 0.49154478
-4.01503181 -6.81047869 1.58540356 -0.57026285 -0.99693280 0.62973523
-4.58398104 -6.77081108 1.56279337 -0.65107185 -0.99112618 0.62075424
-2.88683581 -5.26960850 2.25056195 -0.41002297 -0.77137685 0.89394158
-3.26004434 -5.26622820 2.26428151 -0.46303052 -0.77088207 0.89939106
-2.91111875 -5.42290974 0.75952172 -0.41347194 -0.79381746 0.30168822
-3.12349176 -5.38320255 0.73815912 -0.44363567 -0.78800499 0.29320282
-3.69646096 -5.19039011 2.25961709 -0.52501565 -0.75978070 0.89753830
-3.44399047 -5.41488934 0.72927701 -0.48915675 -0.79264337 0.28967479
-3.69069552 -5.40213585 0.69999778 -0.52419674 -0.79077649 0.27804482
-2.65865469 -6.58570147 1.98265910 -0.37761396 -0.96402943 0.78752834
-2.71566153 -5.84420443 1.74452424 -0.38571075 -0.85548747 0.69293922
-2.59093785 -5.93169832 2.11245751 -0.36799601 -0.86829501 0.83908534
-2.81857800 -5.16254044 1.54146230 -0.40032819 -0.75570399 0.61228138
-3.18010330 -5.16716051 1.53501952 -0.45167634 -0.75638032 0.60972226
-2.71813846 -5.25815582 1.88211143 -0.38606256 -0.76970041 0.74759001
-3.00946784 -5.15834665 1.84124696 -0.42744064 -0.75509012 0.73135829
-3.62993145 -5.16162395 1.53582311 -0.51556629 -0.75556988 0.61004144
-4.05109549 -5.16759062 1.52815783 -0.57538503 -0.75644326 0.60699677
-3.47532582 -5.16380692 1.85488963 -0.49360737 -0.75588942 0.73677731
-4.05345583 -5.38832092 1.94111097 -0.57572031 -0.78875422 0.77102512
-2.73082876 -6.73421812 1.23228884 -0.38786498 -0.98576963 0.48947516
-3.15493917 -6.77937317 1.22989285 -0.44810221 -0.99237955 0.48852345
-2.61049509 -5.95019913 1.40355659 -0.37077376 -0.87100321 0.55750412
-2.81690383 -5.20320892 0.92362362 -0.40009040 -0.76165718 0.36687082
-4.11848927 -6.75688553 1.17454600 -0.58495712 -0.98908776 0.46653923
-2.74440217 -5.32579422 1.24712002 -0.38979283 -0.77960145 0.49536625
-3.04667163 -5.25231457 1.20970130 -0.43272477 -0.76884532 0.48050323
-4.53917646 -6.79620886 1.56202662 -0.64470816 -0.99484396 0.62044972
-4.70206499 -6.29665470 1.42842412 -0.66784352 -0.92171812 0.56738168
-2.79985523 -5.18711710 2.20717239 -0.39766896 -0.75930160 0.87670690
-3.18564439 -5.21952915 2.23503876 -0.45246333 -0.76404613 0.88777560
-2.88893890 -5.46387720 0.76327878 -0.41032168 -0.79981434 0.30318055
-3.08762932 -5.39928961 0.73760074 -0.43854207 -0.79035985 0.29298103
-3.66485310 -5.21505594 2.26029491 -0.52052629 -0.76339132 0.89780754
-4.03528547 -5.14475918 2.24939418 -0.57313955 -0.75310117 0.89347768
-3.40466118 -5.42800951 0.72793603 -0.48357072 -0.79456395 0.28914213
-3.66336346 -5.43506765 0.70152414 -0.52031469 -0.79559714 0.27865112
-2.70874476 -5.92593384 1.76421916 -0.38472834 -0.86745119 0.70076221
-2.71607900 -5.04889965 1.50160086 -0.38577005 -0.73906904 0.59644812
-3.13242435 -5.16226053 1.52750564 -0.44490439 -0.75566304 0.60673767
-2.70390654 -5.31249952 1.89567053 -0.38404116 -0.77765536 0.75297576
-2.96743035 -5.16064548 1.83525205 -0.42146999 -0.75542665 0.72897708
-3.57980776 -5.15876055 1.52809525 -0.50844711 -0.75515068 0.60697192
-4.00778723 -5.17912674 1.52399063 -0.56923389 -0.75813192 0.60534149
-3.42911935 -5.16476965 1.84733570 -0.48704457 -0.75603032 0.73377681
-4.01837111 -5.41214514 1.94054842 -0.57073718 -0.79224169 0.77080166
-3.10237312 -6.77757215 1.22589302 -0.44063616 -0.99211591 0.48693469
-2.65795732 -6.16166925 1.45065939 -0.37751490 -0.90195870 0.57621372
-2.84322929 -5.33250189 0.94407350 -0.40382946 -0.78058332 0.37499368
-4.06981707 -6.77247715 1.17273450 -0.57804412 -0.99137008 0.46581972
-2.98524499 -5.22212029 1.19806099 -0.42400023 -0.76442546 0.47587958
-4.48229599 -6.77980089 1.55320907 -0.63662934 -0.99244213 0.61694729
-4.95858192 -6.70375919 1.51771092 -0.70427716 -0.98131102 0.60284716
-2.80161309 -5.24981689 2.22851133 -0.39791861 -0.76847970 0.88518286
-3.14931822 -5.21526241 2.22668362 -0.44730386 -0.76342160 0.88445687
-2.87682390 -5.50378323 0.76761389 -0.40860096 -0.80565590 0.30490249
-3.04842257 -5.38969183 0.73369223 -0.43297344 -0.78895491 0.29142854
-3.60600686 -5.18273163 2.23860598 -0.51216823 -0.75865966 0.88919252
-4.00518274 -5.15628052 2.24609518 -0.56886399 -0.75478768 0.89216733
-3.36552644 -5.42205954 0.72444952 -0.47801235 -0.79369301 0.28775725
-3.62443733 -5.43250942 0.69847149 -0.51478595 -0.79522264 0.27743858
-2.71992445 -6.02461052 1.79030144 -0.38631621 -0.88189572 0.71112233
-2.80399704 -5.27353239 1.56579340 -0.39825723 -0.77195126 0.62194592
-3.10104752 -5.16536760 1.52399921 -0.44044787 -0.75611788 0.60534489
-2.70347023 -5.37455893 1.91354382 -0.38397920 -0.78673977 0.76007521
-2.93358874 -5.15801907 1.82925701 -0.41666338 -0.75504214 0.72659582
-3.54670811 -5.16274643 1.52423120 -0.50374591 -0.75573415 0.60543704
-3.96907735 -5.17946768 1.51843429 -0.56373584 -0.75818187 0.60313445
-3.42356658 -5.20972109 1.85779500 -0.48625588 -0.76261044 0.73793131
-3.81817079 -5.19495630 1.85449028 -0.54230231 -0.76044911 0.73661864
-3.05814195 -6.76519537 1.22089314 -0.43435392 -0.99030417 0.48494872
-2.66741419 -6.26384354 1.47226608 -0.37885809 -0.91691518 0.58479607
-2.82264280 -5.35458899 0.94567114 -0.40090552 -0.78381652 0.37562829
-4.02568054 -6.77121878 1.16911125 -0.57177532 -0.99118590 0.46438053
-3.39795613 -6.78815556 1.58928645 -0.48261839 -0.99366510 0.63127756
-4.42038298 -6.77818680 1.54630828 -0.62783569 -0.99220586 0.61420625
-4.95242214 -6.78392601 1.52905476 -0.70340228 -0.99304599 0.60735303
-3.10491443 -5.21565342 2.21832848 -0.44099709 -0.76347882 0.88113815
-2.85478520 -5.54642534 0.77165997 -0.40547076 -0.81189793 0.30650964
-3.00286055 -5.38801861 0.73034203 -0.42650220 -0.78871000 0.29009780
-3.95540404 -5.15892315 2.23619843 -0.56179380 -0.75517452 0.88823622
-3.32212925 -5.42785501 0.72203583 -0.47184855 -0.79454136 0.28679851
-3.58913684 -5.45352125 0.69821709 -0.50977218 -0.79829842 0.27733752
-2.71352267 -6.11196613 1.81159317 -0.38540697 -0.89468300 0.71957958
-2.62186146 -6.29409599 2.22709203 -0.37238815 -0.92134362 0.88461912
-2.77347827 -5.29618979 1.56734645 -0.39392257 -0.77526790 0.62256277
-3.06258082 -5.17477226 1.52099371 -0.43498439 -0.75749451 0.60415113
-2.69396496 -5.44096899 1.93141723 -0.38262916 -0.79646099 0.76717466
-2.89924526 -5.17302656 1.82805800 -0.41178551 -0.75723898 0.72611952
-3.50553036 -5.17204809 1.52036726 -0.49789739 -0.75709575 0.60390228
-3.91524172 -5.17643785 1.51009977 -0.55608946 -0.75773835 0.59982395
-3.38144469 -5.21664524 1.85256541 -0.48027325 -0.76362401 0.73585409
-3.73791909 -5.15374184 1.83086646 -0.53090400 -0.75441605 0.72723508
-3.00590396 -6.76267910 1.21689320 -0.42693445 -0.98993582 0.48335990
-2.66064858 -6.35784292 1.49084795 -0.37789714 -0.93067503 0.59217697
-2.79526997 -5.38450527 0.94790787 -0.39701769 -0.78819573 0.37651673
-3.33890319 -6.77599430 1.58133876 -0.47423100 -0.99188495 0.62812066
-2.83554339 -5.09062767 1.15952742 -0.40273780 -0.74517727 0.46057373
-4.35337925 -6.76779509 1.53749073 -0.61831903 -0.99068469 0.61070383
-4.76900959 -6.62061739 1.48441136 -0.67735183 -0.96914053 0.58962029
-2.80456305 -5.41930723 2.28612709 -0.39833760 -0.79329008 0.90806830
-3.04726982 -5.19309902 2.20022583 -0.43280974 -0.76017725 0.87394762
-2.84565639 -5.61553001 0.78004116 -0.40417418 -0.82201362 0.30983871
-2.97086525 -5.41024494 0.73090035 -0.42195785 -0.79196352 0.29031959
-3.48493767 -5.14488411 2.20268369 -0.49497256 -0.75311941 0.87492394
-3.93892837 -5.20470047 2.24543548 -0.55945373 -0.76187551 0.89190531
-3.27573705 -5.42821884 0.71881747 -0.46525937 -0.79459459 0.28552017
-3.55697155 -5.47928572 0.69872588 -0.50520366 -0.80206990 0.27753961
-2.71389508 -6.21712208 1.83820784 -0.38545987 -0.91007596 0.73015112
-2.63440108 -6.43678188 2.27244210 -0.37416917 -0.94223028 0.90263253
-2.72607350 -5.28599167 1.55906355 -0.38718960 -0.77377504 0.61927277
-3.02117443 -5.17889023 1.51648545 -0.42910334 -0.75809735 0.60236037
-2.68373108 -5.50746965 1.94929051 -0.38117561 -0.80619550 0.77427411
-2.85461974 -5.16946840 1.82026458 -0.40544724 -0.75671816 0.72302395
-3.45364118 -5.16486835 1.51167333 -0.49052745 -0.75604475 0.60044897
-3.87212062 -5.18693638 1.50593257 -0.54996490 -0.75927514 0.59816867
-3.33526897 -5.21678400 1.84501135 -0.47371483 -0.76364428 0.73285353
-3.68414497 -5.14754057 1.82017946 -0.52326638 -0.75350827 0.72299010
-2.94507790 -6.73992014 1.20922673 -0.41829520 -0.98660433 0.48031470
-2.65804100 -6.46462870 1.51245475 -0.37752679 -0.94630653 0.60075933
-3.07607460 -5.33407402 0.90642983 -0.43690091 -0.78081346 0.36004132
-3.29711127 -6.79860163 1.58175707 -0.46829522 -0.99519426 0.62828678
-2.86801004 -5.22491837 1.18682194 -0.40734911 -0.76483500 0.47141534
-4.22698355 -6.66220188 1.50682092 -0.60036677 -0.97522771 0.59852153
-4.69530869 -6.60565758 1.47416532 -0.66688395 -0.96695065 0.58555049
-2.76371241 -5.42347527 2.28043675 -0.39253551 -0.79390019 0.90580809
-3.00230646 -5.19108582 2.19117451 -0.42642349 -0.75988257 0.87035239
-2.83664870 -5.68651056 0.78871137 -0.40289479 -0.83240390 0.31328258
-2.93586540 -5.42706585 0.73062122 -0.41698673 -0.79442585 0.29020870
-3.45046234 -5.16354322 2.20132828 -0.49007595 -0.75585079 0.87438554
-3.87211108 -5.18407393 2.22564197 -0.54996353 -0.75885612 0.88404316
-3.23551869 -5.43845463 0.71720833 -0.45954707 -0.79609293 0.28488100
-3.51924944 -5.49652481 0.69796270 -0.49984592 -0.80459338 0.27723646
-2.69238400 -6.27474737 1.85045052 -0.38240460 -0.91851127 0.73501402
-2.59533191 -6.45672560 2.27370167 -0.36862010 -0.94514966 0.90313286
-2.69541335 -5.30819178 1.56061661 -0.38283485 -0.77702475 0.61988962
-2.97789621 -5.17934227 1.51097524 -0.42295647 -0.75816351 0.60017169
-2.68093681 -5.59123802 1.97332704 -0.38077873 -0.81845772 0.78382158
-2.77345014 -5.09863853 1.78849113 -0.39391857 -0.74634993 0.71040326
-3.41048789 -5.17023039 1.50684345 -0.48439831 -0.75682968 0.59853053
-3.81279683 -5.17521906 1.49528289 -0.54153901 -0.75755996 0.59393853
-3.30039454 -5.23439264 1.84384930 -0.46876153 -0.76622188 0.73239195
-3.64505625 -5.16120195 1.81680465 -0.51771450 -0.75550807 0.72164965
-2.85881019 -6.65694189 1.19056058 -0.40604243 -0.97445780 0.47290036
-2.65935040 -6.58428907 1.53708649 -0.37771276 -0.96382272 0.61054331
-3.40625668 -6.77942705 1.19394505 -0.48379734 -0.99238741 0.47424471
-3.23757768 -6.78383684 1.57339120 -0.45983952 -0.99303293 0.62496382
-2.83137298 -5.23595428 1.18521643 -0.40214548 -0.76645046 0.47077763
-4.21718407 -6.74029684 1.51870537 -0.59897494 -0.98665947 0.60324216
-4.71943140 -6.72823000 1.49538922 -0.67031014 -0.98489308 0.59398079
-2.71875739 -5.41897678 2.27118969 -0.38615045 -0.79324174 0.90213507
-2.95748925 -5.18871307 2.18212318 -0.42005801 -0.75953519 0.86675709
-2.82426071 -5.75225973 0.79651451 -0.40113530 -0.84202844 0.31638205
-2.90733099 -5.45587349 0.73229629 -0.41293395 -0.79864275 0.29087406
-3.44886422 -5.23235369 2.22166157 -0.48984897 -0.76592344 0.88246208
-3.83383679 -5.20071936 2.22234297 -0.54452741 -0.76129270 0.88273275
-3.18832183 -5.43640947 0.71372181 -0.45284364 -0.79579353 0.28349611
-3.50593209 -5.55200911 0.70305043 -0.49795443 -0.81271529 0.27925736
-2.67176390 -6.33589411 1.86375785 -0.37947589 -0.92746210 0.74029982
-2.55260611 -6.46761417 2.27181220 -0.36255166 -0.94674355 0.90238231
-2.67659235 -5.35444832 1.56941712 -0.38016167 -0.78379589 0.62338525
-2.93473172 -5.17945576 1.50546515 -0.41682571 -0.75818008 0.59798300
-2.66187692 -5.64244127 1.98565352 -0.37807161 -0.82595295 0.78871775
-2.78671336 -5.19989586 1.81846607 -0.39580238 -0.76117218 0.72230953
-3.36635089 -5.17362452 1.50153053 -0.47812945 -0.75732654 0.59642017
-3.76411653 -5.17709255 1.48880053 -0.53462487 -0.75783420 0.59136373
-3.26040483 -5.24362659 1.83978176 -0.46308172 -0.76757360 0.73077631
-3.58168888 -5.14001131 1.80105543 -0.50871432 -0.75240612 0.71539390
-2.82001448 -6.68203163 1.19189394 -0.40053222 -0.97813046 0.47342998
-3.34879422 -6.77057076 1.18851304 -0.47563583 -0.99109101 0.47208706
-2.96410179 -5.29310560 0.89254093 -0.42099720 -0.77481639 0.35452452
-3.18001342 -6.77213907 1.56586182 -0.45166355 -0.99132061 0.62197310
-2.79285669 -5.24328423 1.18280804 -0.39667493 -0.76752347 0.46982101
-4.17269754 -6.76331472 1.51793873 -0.59265643 -0.99002886 0.60293764
-4.69390821 -6.78196001 1.50087821 -0.66668504 -0.99275821 0.59616107
-2.68218923 -5.43091583 2.26905584 -0.38095662 -0.79498941 0.90128750
-2.91466832 -5.18924618 2.17446423 -0.41397607 -0.75961328 0.86371493
-2.81628966 -5.82878351 0.80605173 -0.40000317 -0.85323012 0.32017031
-2.88781118 -5.50204134 0.73676324 -0.41016150 -0.80540091 0.29264838
-3.34652400 -5.14642143 2.17557263 -0.47531340 -0.75334448 0.86415517
-3.78435111 -5.20185661 2.21244621 -0.53749883 -0.76145917 0.87880170
-3.16692352 -5.47868299 0.71720833 -0.44980437 -0.80198163 0.28488100
-3.46781731 -5.56888533 0.70228732 -0.49254093 -0.81518567 0.27895424
-2.67574883 -6.45750904 1.89516318 -0.38004187 -0.94526434 0.75277424
-2.52297378 -6.51181316 2.28188992 -0.35834292 -0.95321351 0.90638530
-2.67338920 -5.43366480 1.58805370 -0.37970674 -0.79539180 0.63078785
-2.89548278 -5.18598127 1.50195873 -0.41125113 -0.75913531 0.59659028
-2.66534400 -5.74374914 2.01585317 -0.37856406 -0.84078264 0.80071330
-2.75667620 -5.22235537 1.82026458 -0.39153615 -0.76445985 0.72302395
-3.31396365 -5.16357374 1.49235356 -0.47068879 -0.75585526 0.59277499
-3.70417094 -5.16278791 1.47768784 -0.52611071 -0.75574023 0.58694965
-3.21744514 -5.24766064 1.83397102 -0.45698005 -0.76816410 0.72846824
-3.53839803 -5.14663410 1.79543078 -0.50256562 -0.75337559 0.71315974
-2.76200533 -6.66140842 1.18489408 -0.39229307 -0.97511160 0.47064960
-3.29931259 -6.77725840 1.18595684 -0.46860787 -0.99206996 0.47107172
-2.92886400 -5.30816936 0.89193702 -0.41599232 -0.77702147 0.35428464
-3.13087797 -6.77776432 1.56251550 -0.44468477 -0.99214405 0.62064391
-2.77726436 -5.29363489 1.19043446 -0.39446032 -0.77489388 0.47285026
-4.12550259 -6.75773287 1.51218808 -0.58595324 -0.98921180 0.60065341
-4.64405107 -6.77809572 1.49502337 -0.65960371 -0.99219257 0.59383547
-2.64923930 -5.42835140 2.26265407 -0.37627667 -0.79461402 0.89874464
-2.88010573 -5.18492889 2.16680551 -0.40906709 -0.75898129 0.86067283
-2.80827069 -5.88312817 0.81269890 -0.39886421 -0.86118519 0.32281062
-2.87378359 -5.53840208 0.74039257 -0.40816915 -0.81072348 0.29408997
-3.30906510 -5.14152098 2.16676164 -0.46999303 -0.75262713 0.86065537
-3.73541236 -5.18600559 2.19793081 -0.53054798 -0.75913888 0.87303603
-3.14400554 -5.49871683 0.71801293 -0.44654930 -0.80491424 0.28520060
-3.43630648 -5.57673693 0.70101535 -0.48806536 -0.81633502 0.27844900
-2.68129301 -6.55738163 1.92124546 -0.38082933 -0.95988393 0.76313436
-2.66201401 -5.47578621 1.59685433 -0.37809110 -0.80155760 0.63428354
-2.86253667 -5.18434191 1.49745035 -0.40657172 -0.75889534 0.59479946
-2.67445827 -5.83592653 2.04420400 -0.37985858 -0.85427576 0.81197447
-2.74269867 -5.25554991 1.82745850 -0.38955089 -0.76931894 0.72588140
-3.28441834 -5.17092466 1.48993862 -0.46649241 -0.75693130 0.59181577
-3.67980075 -5.18018579 1.47768784 -0.52264935 -0.75828695 0.58694965
-3.18873167 -5.25620651 1.83164668 -0.45290184 -0.76941508 0.72754502
-3.51193571 -5.16008520 1.79430580 -0.49880713 -0.75534463 0.71271288
-2.74486899 -6.70898867 1.19122720 -0.38985914 -0.98207647 0.47316515
-3.25031900 -6.75710106 1.17956626 -0.46164921 -0.98911929 0.46853334
-2.90762854 -5.32884169 0.89314479 -0.41297621 -0.78004754 0.35476440
-3.10616612 -6.80847645 1.56628013 -0.44117489 -0.99663973 0.62213922
-2.76499987 -5.33097029 1.19605398 -0.39271837 -0.78035915 0.47508240
-4.07489824 -6.77004576 1.50912106 -0.57876581 -0.99101418 0.59943521
-4.57374287 -6.76648474 1.48587513 -0.64961767 -0.99049288 0.59020174
-2.61106205 -5.43645144 2.25909758 -0.37085429 -0.79579967 0.89733195
-2.80384254 -5.97061920 0.82397014 -0.39823526 -0.87399232 0.32728764
-2.87429380 -5.62501335 0.75128073 -0.40824160 -0.82340181 0.29841483
-3.18140101 -5.01097202 2.10237265 -0.45186064 -0.73351711 0.83507955
-3.70824790 -5.21705055 2.20122981 -0.52668977 -0.76368332 0.87434644
-3.09875298 -5.49933434 0.71506280 -0.44012198 -0.80500466 0.28402877
-3.38256407 -5.56775856 0.69643641 -0.48043224 -0.81502074 0.27663022
-2.69575334 -6.71169281 1.96223199 -0.38288316 -0.98247236 0.77941453
-2.65984344 -5.56047726 1.61704385 -0.37778279 -0.81395489 0.64230299
-2.81594014 -5.17676020 1.48993659 -0.39995351 -0.75778550 0.59181494
-2.67111802 -5.92731047 2.07070589 -0.37938416 -0.86765271 0.82250124
-2.72718191 -5.30656004 1.83944845 -0.38734701 -0.77678591 0.73064393
-3.23444247 -5.16344023 1.48172772 -0.45939422 -0.75583571 0.58855432
-3.62586474 -5.17300081 1.46889031 -0.51498872 -0.75723523 0.58345520
-3.14782834 -5.26297283 1.82699811 -0.44709226 -0.77040553 0.72569853
-3.44504261 -5.13117170 1.77630663 -0.48930618 -0.75111216 0.70556349
-3.20360017 -6.76845598 1.17796862 -0.45501363 -0.99078143 0.46789873
-2.86938000 -5.33831406 0.89163512 -0.40754369 -0.78143412 0.35416475
-3.06491756 -6.83143187 1.56711674 -0.43531626 -1.00000000 0.62247157
-4.01333141 -6.76339245 1.50183702 -0.57002133 -0.99004024 0.59654188
-4.51580858 -6.77222443 1.48075211 -0.64138919 -0.99133307 0.58816683
-2.53799725 -5.36980724 2.22424364 -0.36047673 -0.78604418 0.88348770
-2.78786182 -5.17129326 2.14591765 -0.39596549 -0.75698525 0.85237598
-2.80419540 -6.07087803 0.83726448 -0.39828539 -0.88866848 0.33256829
-2.85680866 -5.67828703 0.75686437 -0.40575814 -0.83120012 0.30063269
-3.24518824 -5.18429518 2.16743922 -0.46092048 -0.75888854 0.86092454
-3.66886091 -5.23099327 2.19727111 -0.52109551 -0.76572430 0.87277400
-3.07274723 -5.53431845 0.71747655 -0.43642834 -0.81012571 0.28498754
-3.34239101 -5.58040857 0.69516444 -0.47472638 -0.81687248 0.27612498
-2.64527583 -5.62084532 1.62998593 -0.37571374 -0.82279170 0.64744371
-2.78980088 -5.20627546 1.49344301 -0.39624092 -0.76210606 0.59320772
-2.67362189 -6.03455782 2.10275459 -0.37973979 -0.88335180 0.83523124
-2.71199894 -5.35928106 1.85203803 -0.38519055 -0.78450334 0.73564458
-3.19077730 -5.16546011 1.47641480 -0.45319238 -0.75613141 0.58644402
-3.57994819 -5.17652035 1.46333396 -0.50846708 -0.75775039 0.58124816
-3.07603788 -5.21657801 1.80375504 -0.43689573 -0.76361412 0.71646619
-3.40953946 -5.14792633 1.77461922 -0.48426360 -0.75356477 0.70489323
-3.15355277 -6.77232265 1.17509294 -0.44790530 -0.99134749 0.46675649
-2.84602213 -5.37542343 0.89495635 -0.40422612 -0.78686631 0.35548395
-2.99839973 -6.79680824 1.55456781 -0.42586860 -0.99493170 0.61748701
-3.42439675 -6.79823303 1.52519488 -0.48637381 -0.99514025 0.60581982
-3.95990324 -6.76980925 1.49761987 -0.56243283 -0.99097955 0.59486681
-4.46449184 -6.78734398 1.47782469 -0.63410056 -0.99354631 0.58700401
-2.51203108 -5.40262461 2.23135662 -0.35678872 -0.79084808 0.88631302
-2.74911952 -5.17713785 2.14104390 -0.39046285 -0.75784081 0.85044008
-2.80258441 -6.16956949 0.85026973 -0.39805657 -0.90311515 0.33773407
-2.84053636 -5.73510599 0.76300639 -0.40344697 -0.83951741 0.30307236
-3.20566940 -5.19335175 2.16269493 -0.45530754 -0.76021421 0.85904008
-3.03224015 -5.54306507 0.71586740 -0.43067503 -0.81140602 0.28434837
-3.29915094 -5.58765888 0.69312936 -0.46858490 -0.81793380 0.27531663
-2.75612450 -5.22199202 1.49294209 -0.39145780 -0.76440668 0.59300876
-2.69369054 -5.40690422 1.86282897 -0.38259017 -0.79147452 0.73993087
-3.14621091 -5.16547489 1.47061884 -0.44686252 -0.75613356 0.58414179
-3.53413081 -5.17966795 1.45777762 -0.50195956 -0.75821120 0.57904118
-3.03937626 -5.22917128 1.80143082 -0.43168858 -0.76545757 0.71554303
-3.36657691 -5.15321398 1.76899457 -0.47816154 -0.75433880 0.70265907
-3.09704566 -6.76145029 1.16966093 -0.43987948 -0.98975593 0.46459886
-2.82323098 -5.41419935 0.89857954 -0.40098906 -0.79254240 0.35692313
-2.62238169 -6.04125071 1.37428212 -0.37246203 -0.88433152 0.54587609
-3.36761332 -6.79156637 1.51877260 -0.47830874 -0.99416441 0.60326886
-3.02034426 -5.22943544 1.14529991 -0.42898545 -0.76549625 0.45492247
-4.40779161 -6.79385281 1.47306752 -0.62604731 -0.99449909 0.58511442
-2.51275945 -5.49491549 2.26336551 -0.35689217 -0.80435783 0.89902723
-2.71741104 -5.19596720 2.14174008 -0.38595924 -0.76059711 0.85071665
-2.88242054 -6.45483875 0.89304274 -0.40939587 -0.94487345 0.35472387
-2.83763719 -5.82038116 0.77361536 -0.40303519 -0.85200018 0.30728632
-3.15740919 -5.18762112 2.15185046 -0.44845304 -0.75937539 0.85473257
-3.51941061 -5.15532732 2.14580774 -0.49986881 -0.75464815 0.85233235
-2.99922156 -5.56550312 0.71640378 -0.42598534 -0.81469059 0.28456143
-3.27902603 -5.63394833 0.69694519 -0.46572652 -0.82470971 0.27683231
-2.73674321 -5.26493025 1.50045598 -0.38870502 -0.77069205 0.59599334
-2.62731671 -6.13773489 2.12740755 -0.37316296 -0.89845508 0.84502363
-2.68419480 -5.47332144 1.88021445 -0.38124147 -0.80119681 0.74683648
-3.10673857 -5.17347050 1.46723783 -0.44125620 -0.75730395 0.58279884
-3.48077393 -5.17117119 1.44898009 -0.49438116 -0.75696743 0.57554668
-2.99984074 -5.23651886 1.79736328 -0.42607328 -0.76653314 0.71392733
-3.32054830 -5.15333652 1.76168239 -0.47162402 -0.75435674 0.69975460
-3.04241204 -6.75374126 1.16486800 -0.43211976 -0.98862749 0.46269506
-2.64075303 -6.19090080 1.40523601 -0.37507135 -0.90623766 0.55817121
-3.31968999 -6.80204058 1.51636434 -0.47150210 -0.99569762 0.60231227
-4.34161091 -6.78503609 1.46501708 -0.61664754 -0.99320847 0.58191675
-2.69767356 -5.23789597 2.15218401 -0.38315588 -0.76673472 0.85486501
-2.89238906 -6.58893967 0.91153914 -0.41081172 -0.96450347 0.36207077
-2.82774138 -5.89336395 0.78227001 -0.40162969 -0.86268353 0.31072402
-3.11416173 -5.18957329 2.14439487 -0.44231051 -0.75966114 0.85177112
-3.48059082 -5.16796303 2.14184904 -0.49435517 -0.75649780 0.85075992
-2.96142268 -5.57897711 0.71559918 -0.42061669 -0.81666291 0.28424183
-3.25646400 -5.67676926 0.70025218 -0.46252200 -0.83097798 0.27814588
-2.68620610 -6.00166035 1.72731018 -0.38152713 -0.87853622 0.68610168
-2.70804954 -5.29062462 1.50296056 -0.38462961 -0.77445322 0.59698820
-2.59236240 -6.16290188 2.13048911 -0.36819834 -0.90213913 0.84624767
-2.67229939 -5.53639936 1.89640093 -0.37955195 -0.81043029 0.75326592
-3.06139183 -5.17113447 1.46095896 -0.43481550 -0.75696200 0.58030480
-3.44064307 -5.18161821 1.44573891 -0.48868132 -0.75849664 0.57425928
-2.95939803 -5.24190664 1.79271472 -0.42032912 -0.76732183 0.71208090
-3.26947761 -5.14500237 1.75155795 -0.46437034 -0.75313675 0.69573307
-2.98323011 -6.73476982 1.15815783 -0.42371404 -0.98585039 0.46002972
-3.43378592 -6.78088427 1.12684071 -0.48770738 -0.99260074 0.44759032
-2.65584397 -6.33740377 1.43535340 -0.37721476 -0.92768306 0.57013404
-3.26920915 -6.80688953 1.51275182 -0.46433222 -0.99640745 0.60087734
-4.27782345 -6.77897739 1.45769858 -0.60758770 -0.99232161 0.57900977
-2.68007731 -5.28478861 2.16471672 -0.38065666 -0.77359897 0.85984313
-2.83535409 -6.57059765 0.90575898 -0.40271091 -0.96181852 0.35977486
-2.81533742 -5.96287298 0.79036629 -0.39986792 -0.87285846 0.31393993
-3.06625199 -5.18307447 2.13355041 -0.43550581 -0.75870985 0.84746361
-3.45435071 -5.19914532 2.14580774 -0.49062824 -0.76106232 0.85233235
-2.93543649 -5.61506748 0.71828109 -0.41692582 -0.82194591 0.28530711
-3.22662163 -5.70746136 0.70177853 -0.45828342 -0.83547074 0.27875215
-2.66775966 -6.06268454 1.74025214 -0.37890714 -0.88746905 0.69124234
-2.70282769 -5.36277056 1.51899004 -0.38388795 -0.78501415 0.60335523
-2.57883596 -6.24069071 2.15206027 -0.36627716 -0.91352600 0.85481590
-2.66301346 -5.60642529 1.91498530 -0.37823305 -0.82068086 0.76064777
-3.01717019 -5.17011261 1.45516300 -0.42853463 -0.75681245 0.57800263
-3.38873339 -5.17389965 1.43740439 -0.48130846 -0.75736678 0.57094872
-2.92455459 -5.25704622 1.79155254 -0.41538024 -0.76953799 0.71161926
-3.23503709 -5.16219759 1.75043297 -0.45947868 -0.75565380 0.69528627
-2.93145680 -6.73163319 1.15432346 -0.41636059 -0.98539126 0.45850670
-3.37603712 -6.77228594 1.12170780 -0.47950518 -0.99134207 0.44555148
-2.65293336 -6.44449997 1.45626819 -0.37680134 -0.94336003 0.57844162
-3.21543097 -6.80429649 1.50753367 -0.45669398 -0.99602789 0.59880465
-2.89452195 -5.21721172 1.13111520 -0.41111466 -0.76370692 0.44928819
-4.22909927 -6.77241898 1.45184362 -0.60066730 -0.99136156 0.57668412
-2.67713594 -5.34086370 2.18281937 -0.38023889 -0.78180736 0.86703366
-2.81668520 -6.61305285 0.91038311 -0.40005934 -0.96803319 0.36161160
-2.81754112 -6.04059362 0.80041689 -0.40018091 -0.88423538 0.31793210
-3.03328896 -5.18282127 2.12745047 -0.43082401 -0.75867277 0.84504068
-3.35891891 -5.10832691 2.10094237 -0.47707385 -0.74776810 0.83451146
-2.91346502 -5.63765574 0.71962208 -0.41380516 -0.82525241 0.28583977
-3.21331906 -5.74680138 0.70533991 -0.45639402 -0.84122938 0.28016677
-2.68196034 -6.17454529 1.76924241 -0.38092411 -0.90384352 0.70275754
-2.69664764 -5.41351223 1.53001022 -0.38301018 -0.79244179 0.60773253
-2.66676283 -5.68272448 1.93716681 -0.37876558 -0.83184969 0.76945847
-2.98216248 -5.16574812 1.44985008 -0.42356241 -0.75617355 0.57589227
-3.35793209 -5.18003654 1.43462622 -0.47693369 -0.75826514 0.56984526
-2.86124396 -5.20021629 1.76714742 -0.40638810 -0.76121908 0.70192534
-3.18423438 -5.13506460 1.73580873 -0.45226309 -0.75168204 0.68947738
-2.86019278 -6.65275812 1.13802755 -0.40623879 -0.97384536 0.45203382
-3.33969355 -6.77926397 1.12019813 -0.47434324 -0.99236357 0.44495183
-2.66345263 -6.55852270 1.47969282 -0.37829542 -0.96005094 0.58774602
-3.17499542 -6.80164194 1.50351977 -0.45095086 -0.99563926 0.59721029
-2.85232830 -5.21803951 1.12728143 -0.40512180 -0.76382810 0.44776538
-4.18025255 -6.78882742 1.44964802 -0.59372950 -0.99376345 0.57581204
-2.68863368 -5.44821978 2.22041726 -0.38187194 -0.79752237 0.88196784
-2.81444812 -6.13367176 0.81214255 -0.39974159 -0.89786035 0.32258964
-2.98290539 -5.17074919 2.11457253 -0.42366791 -0.75690562 0.83992547
-3.33191943 -5.13723373 2.10424137 -0.47323906 -0.75199956 0.83582181
-2.90031433 -5.70008230 0.72632688 -0.41193736 -0.83439058 0.28850296
-3.16848397 -5.75126696 0.70305043 -0.45002601 -0.84188306 0.27925736
-2.67022443 -6.25531864 1.78787887 -0.37925723 -0.91566730 0.71016008
-2.69261980 -5.49109650 1.54754245 -0.38243809 -0.80379879 0.61469650
-2.66799784 -6.66657066 2.29073286 -0.37894097 -0.97586727 0.90989774
-2.66563344 -5.77374792 1.96294522 -0.37860516 -0.84517390 0.77969784
-2.94678450 -5.17931271 1.44840109 -0.41853759 -0.75815916 0.57531673
-3.31899810 -5.19121790 1.43184805 -0.47140384 -0.75990188 0.56874174
-2.78410912 -5.13549900 1.73867476 -0.39543250 -0.75174564 0.69061577
-3.15895414 -5.16640854 1.73974597 -0.44867247 -0.75627023 0.69104129
-2.80230737 -6.63236094 1.13131738 -0.39801723 -0.97085959 0.44936848
-3.27101254 -6.74681377 1.11114013 -0.46458834 -0.98761344 0.44135392
-2.66606688 -6.68606901 1.50520885 -0.37866673 -0.97872144 0.59788120
-3.11492658 -6.78411102 1.49509048 -0.44241914 -0.99307305 0.59386212
-2.82688427 -5.24970961 1.13034844 -0.40150794 -0.76846403 0.44898361
-4.11189747 -6.77300549 1.44049990 -0.58402091 -0.99144739 0.57217830
-2.65929723 -5.47510767 2.22459483 -0.37770522 -0.80145830 0.88362718
-2.81029510 -6.22694588 0.82386827 -0.39915174 -0.91151398 0.32724720
-2.94018936 -5.17136097 2.10711694 -0.41760087 -0.75699520 0.83696401
-3.30980253 -5.17393827 2.11083913 -0.47009778 -0.75737244 0.83844250
-2.88649368 -5.76256371 0.73303169 -0.40997437 -0.84353673 0.29116616
-3.12276864 -5.75365591 0.70050657 -0.44353297 -0.84223276 0.27824691
-2.65238452 -6.32369947 1.80289173 -0.37672338 -0.92567700 0.71612328
-2.67840147 -5.54969025 1.55956459 -0.38041863 -0.81237584 0.61947179
-2.62605834 -6.68320227 2.29073286 -0.37298423 -0.97830182 0.90989774
-2.65869761 -5.85456944 1.98512673 -0.37762004 -0.85700476 0.78850853
-2.90286374 -5.17737246 1.44260514 -0.41229945 -0.75787514 0.57301450
-3.26232266 -5.17419434 1.42119837 -0.46335411 -0.75740993 0.56451160
-2.64073181 -4.94317865 1.66662145 -0.37506834 -0.72359335 0.66199565
-3.10849500 -5.15662813 1.72962153 -0.44150567 -0.75483853 0.68701977
-2.75231004 -6.62975645 1.12780261 -0.39091602 -0.97047830 0.44797239
-3.23026919 -6.77079678 1.11174405 -0.45880148 -0.99112409 0.44159380
-3.07142830 -6.80176544 1.49468911 -0.43624100 -0.99565738 0.59370267
-2.79749918 -5.27431631 1.13188183 -0.39733431 -0.77206600 0.44959268
-4.06824636 -6.79702330 1.44013393 -0.57782102 -0.99496317 0.57203293
-2.62321544 -5.48833036 2.22320223 -0.37258044 -0.80339384 0.88307405
-2.80669737 -6.32402325 0.83615232 -0.39864075 -0.92572439 0.33212653
-2.88935709 -5.15683842 2.09356141 -0.41038108 -0.75486934 0.83157969
-3.26102543 -5.16913652 2.10028267 -0.46316987 -0.75666958 0.83424938
-2.86851788 -5.81797409 0.73866373 -0.40742123 -0.85164785 0.29340327
-3.08749652 -5.77490950 0.70076096 -0.43852320 -0.84534395 0.27834797
-2.65132689 -6.43502045 1.83032882 -0.37657318 -0.94197243 0.72702152
-2.67358899 -5.62927580 1.57759774 -0.37973511 -0.82402575 0.62663466
-2.57925725 -6.68713045 2.28641844 -0.36633697 -0.97887683 0.90818405
-2.66025257 -5.95640612 2.01450205 -0.37784091 -0.87191182 0.80017662
-2.85908413 -5.17508507 1.43680918 -0.40608135 -0.75754035 0.57071233
-3.22871518 -5.19294119 1.42073536 -0.45858076 -0.76015413 0.56432766
-2.73617077 -5.20231819 1.74971509 -0.38862371 -0.76152676 0.69500113
-3.06124258 -5.15135860 1.72118449 -0.43479431 -0.75406718 0.68366849
-2.73799229 -6.71463776 1.13962519 -0.38888243 -0.98290342 0.45266843
-3.17667937 -6.76772308 1.10781896 -0.45119002 -0.99067420 0.44003472
-3.01343131 -6.78694677 1.48706269 -0.42800358 -0.99348819 0.59067345
-2.77423668 -5.31096172 1.13609898 -0.39403030 -0.77743024 0.45126778
-4.00839949 -6.79370546 1.43391311 -0.56932086 -0.99447751 0.56956196
-2.59109044 -5.50978613 2.22529101 -0.36801767 -0.80653459 0.88390374
-2.80517840 -6.42854881 0.84955305 -0.39842501 -0.94102508 0.33744940
-2.84876513 -5.16003704 2.08746147 -0.40461573 -0.75533754 0.82915670
-3.21544814 -5.16872644 2.09170532 -0.45669642 -0.75660950 0.83084244
-2.86027479 -5.89481354 0.74751413 -0.40625045 -0.86289573 0.29691872
-3.06974602 -5.82924223 0.70584869 -0.43600208 -0.85329729 0.28036886
-2.66336274 -6.58243179 1.86811960 -0.37828264 -0.96355081 0.74203235
-2.66292858 -5.69850874 1.59262538 -0.37822098 -0.83416021 0.63260376
-2.66063118 -6.05849028 2.04387760 -0.37789467 -0.88685513 0.81184483
-2.82374597 -5.18782377 1.43536019 -0.40106219 -0.75940502 0.57013679
-3.18068671 -5.18829489 1.41378999 -0.45175919 -0.75947398 0.56156892
-2.72353840 -5.25856113 1.76307988 -0.38682953 -0.76975971 0.70030969
-3.02296114 -5.16057444 1.71780956 -0.42935711 -0.75541621 0.68232799
-3.11825395 -6.75348759 1.10208225 -0.44289175 -0.98859036 0.43775606
-2.96205235 -6.78601789 1.48264742 -0.42070612 -0.99335217 0.58891964
-2.74883986 -5.34402466 1.13954937 -0.39042312 -0.78227007 0.45263830
-3.05516148 -5.26248026 1.09835589 -0.43393061 -0.77033341 0.43627590
-2.56355643 -5.54124832 2.23155737 -0.36410695 -0.81114012 0.88639277
-2.80717063 -6.54420853 0.86462897 -0.39870796 -0.95795560 0.34343767
-3.16504216 -5.15991831 2.07982922 -0.44953716 -0.75532019 0.82612514
-2.84269428 -5.95386553 0.75368255 -0.40375346 -0.87153989 0.29936886
-3.06429601 -5.90819359 0.71449786 -0.43522799 -0.86485434 0.28380439
-2.66090155 -6.69789076 1.89659214 -0.37793308 -0.98045194 0.75334185
-2.65720344 -5.78012466 1.61115944 -0.37740782 -0.84610736 0.63996565
-2.67582393 -6.19754887 2.08584237 -0.38005254 -0.90721083 0.82851362
-2.78744960 -5.19860888 1.43342829 -0.39590696 -0.76098377 0.56936938
-3.13891697 -5.19322109 1.40962267 -0.44582656 -0.76019514 0.55991364
-2.69389868 -5.28240108 1.76540411 -0.38261974 -0.77324945 0.70123291
-2.97696257 -5.15624237 1.70993495 -0.42282385 -0.75478208 0.67920011
-3.05848861 -6.73519039 1.09574163 -0.43440315 -0.98591197 0.43523750
-2.68534255 -6.26315928 1.36182857 -0.38140449 -0.91681498 0.54092944
-3.42704892 -6.75210190 1.44471443 -0.48675051 -0.98838753 0.57385236
-2.53663063 -5.55156469 2.23086119 -0.36028263 -0.81265020 0.88611627
-3.13182664 -5.16027927 2.07389116 -0.44481951 -0.75537300 0.82376647
-2.84484482 -6.03181982 0.76333749 -0.40405890 -0.88295102 0.30320388
-3.04916620 -5.94724321 0.71805924 -0.43307906 -0.87057054 0.28521898
-2.65814900 -5.85419893 1.62869167 -0.37754214 -0.85695052 0.64692962
-2.67295599 -6.27144527 2.10682487 -0.37964520 -0.91802794 0.83684802
-2.76382399 -5.21340466 1.43391120 -0.39255136 -0.76314962 0.56956124
-3.10035110 -5.18462420 1.40314031 -0.44034895 -0.75893670 0.55733877
-2.66726494 -5.29161310 1.76424205 -0.37883690 -0.77459794 0.70077133
-2.94975901 -5.16522360 1.70824754 -0.41896006 -0.75609678 0.67852986
-3.02183223 -6.73871803 1.09393001 -0.42919677 -0.98642832 0.43451792
-2.79190612 -6.59471607 1.43287492 -0.39653993 -0.96534902 0.56914961
-3.38804746 -6.78053427 1.44624794 -0.48121104 -0.99254948 0.57446146
-2.51098919 -5.58788443 2.23921633 -0.35664073 -0.81796682 0.88943499
-2.71280527 -5.12020111 2.05153918 -0.38530508 -0.74950629 0.81488806
-3.08471894 -5.15560198 2.06399441 -0.43812871 -0.75468832 0.81983542
-2.82677817 -6.09278440 0.76977414 -0.40149286 -0.89187515 0.30576056
-2.98655725 -5.91677475 0.71093643 -0.42418662 -0.86611050 0.28238973
-2.67878008 -6.39533710 2.14339423 -0.38047239 -0.93616349 0.85137367
-2.73190522 -5.23239040 1.43439424 -0.38801786 -0.76592880 0.56975311
-3.05280876 -5.17891026 1.39619493 -0.43359643 -0.75810027 0.55458003
-2.67620158 -5.39412737 1.79329574 -0.38010618 -0.78960419 0.71231169
-2.89830661 -5.15026808 1.69699812 -0.41165218 -0.75390756 0.67406148
-2.95856500 -6.71059370 1.08607972 -0.42021081 -0.98231143 0.43139973
-2.75874949 -6.63200378 1.43729019 -0.39183062 -0.97080725 0.57090336
-3.32814550 -6.76641369 1.43858039 -0.47270307 -0.99048251 0.57141584
-2.90597630 -5.21163940 1.07640004 -0.41274154 -0.76289123 0.42755488
-2.52239847 -5.70800924 2.28168797 -0.35826123 -0.83555090 0.90630507
-2.68663287 -5.14884377 2.05628371 -0.38158774 -0.75369906 0.81677264
-3.04551196 -5.16352129 2.05937600 -0.43256006 -0.75584757 0.81800091
-2.82685614 -6.19528627 0.78237915 -0.40150395 -0.90687960 0.31076738
-2.95465159 -5.94606590 0.71246272 -0.41965497 -0.87039816 0.28299600
-2.71748638 -5.28576279 1.44453716 -0.38596994 -0.77374154 0.57378197
-3.01430988 -5.18791533 1.39341676 -0.42812836 -0.75941843 0.55347651
-2.66477275 -5.45734262 1.80898476 -0.37848291 -0.79885781 0.71854347
-2.86588955 -5.16837692 1.69699812 -0.40704793 -0.75655836 0.67406148
-2.85779238 -6.59497309 1.06373680 -0.40589789 -0.96538663 0.42252493
-2.68792081 -6.57855320 1.42163587 -0.38177067 -0.96298307 0.56468534
-3.28046250 -6.77657700 1.43628025 -0.46593055 -0.99197024 0.57050222
-2.88365221 -5.24871588 1.08042526 -0.40957078 -0.76831853 0.42915371
-2.65508318 -5.16729927 2.05696154 -0.37710670 -0.75640064 0.81704187
-2.99582815 -5.15323257 2.04749990 -0.42550337 -0.75434148 0.81328362
-2.81930804 -6.28354073 0.79283869 -0.40043187 -0.91979849 0.31492200
-2.93652821 -6.00365877 0.71805924 -0.41708088 -0.87882876 0.28521898
-2.62770176 -6.08789873 1.68078744 -0.37321764 -0.89116001 0.66762245
-2.69815111 -5.33048630 1.45226502 -0.38322371 -0.78028828 0.57685149
-2.96803761 -5.18316031 1.38693440 -0.42155623 -0.75872236 0.55090165
-2.64771605 -5.51025915 1.82118738 -0.37606031 -0.80660385 0.72339046
-2.81946969 -5.16106462 1.68856108 -0.40045482 -0.75548798 0.67071021
-2.82253742 -6.62733316 1.06615222 -0.40089056 -0.97012359 0.42348436
-2.70238376 -6.73334885 1.45214164 -0.38382488 -0.98564237 0.57680249
-3.22858644 -6.77753639 1.43206310 -0.45856249 -0.99211067 0.56882715
-2.84967494 -5.26500463 1.08005941 -0.40474495 -0.77070296 0.42900839
-2.64618301 -5.23097515 2.07593918 -0.37584257 -0.76572162 0.82457995
-2.95583677 -5.15887403 2.04222155 -0.41982332 -0.75516731 0.81118703
-2.82347488 -6.40099335 0.80758929 -0.40102369 -0.93699145 0.32078105
-2.93165064 -6.08981419 0.72772592 -0.41638809 -0.89144039 0.28905866
-2.68916750 -6.33749294 1.74640810 -0.38194776 -0.92769611 0.69368756
-2.68351841 -5.38561440 1.46289086 -0.38114539 -0.78835809 0.58107215
-2.93060255 -5.19325066 1.38461924 -0.41623926 -0.76019943 0.54998207
-2.62197638 -5.54584742 1.82757914 -0.37240446 -0.81181335 0.72592932
-2.76593280 -5.13987875 1.67562425 -0.39285088 -0.75238675 0.66557163
-2.77392554 -6.62854195 1.06343484 -0.39398611 -0.97030056 0.42240497
-3.17848468 -6.78167152 1.42861271 -0.45144644 -0.99271595 0.56745660
-2.81560707 -5.28107357 1.07969344 -0.39990622 -0.77305514 0.42886305
-2.63741970 -5.29642820 2.09559488 -0.37459791 -0.77530277 0.83238739
-2.91962862 -5.17078066 2.03958249 -0.41468060 -0.75691020 0.81013882
-2.82470894 -6.51510096 0.82180351 -0.40119898 -0.95369476 0.32642704
-2.92153168 -6.16719151 0.73612070 -0.41495091 -0.90276706 0.29239315
-2.65079570 -6.35783386 1.74740994 -0.37649772 -0.93067366 0.69408548
-2.67508888 -5.45473051 1.47738075 -0.37994814 -0.79847544 0.58682770
-2.89506078 -5.20647001 1.38323009 -0.41119117 -0.76213449 0.54943025
-2.64797974 -5.69429111 1.87174082 -0.37609777 -0.83354282 0.74347073
-2.75947237 -6.71159220 1.07430434 -0.39193329 -0.98245758 0.42672244
-3.14567184 -6.79479074 1.42822933 -0.44678596 -0.99463642 0.56730431
-2.80729914 -5.32553577 1.08628023 -0.39872622 -0.77956361 0.43147936
-2.62975645 -5.34431219 2.10982823 -0.37350950 -0.78231215 0.83804095
-2.88041067 -5.15815783 2.02902579 -0.40911040 -0.75506246 0.80594558
-2.83967662 -6.63597345 0.83762687 -0.40332487 -0.97138834 0.33271223
-2.91782212 -6.23471737 0.74375230 -0.41442403 -0.91265160 0.29542449
-2.67719579 -6.50617695 1.78547990 -0.38024738 -0.95238847 0.70920718
-2.66868591 -5.50751162 1.48848963 -0.37903872 -0.80620164 0.59124023
-2.85540032 -5.19282770 1.37582171 -0.40555814 -0.76013750 0.54648763
-2.63856554 -5.74502230 1.88452446 -0.37476066 -0.84096897 0.74854851
-2.76036692 -5.26670265 1.70768511 -0.39206034 -0.77095151 0.67830646
-3.08836246 -6.78222609 1.42132866 -0.43864620 -0.99279714 0.56456333
-2.78198910 -5.35874748 1.08957350 -0.39513138 -0.78442520 0.43278748
-2.61729884 -5.40483379 2.12745047 -0.37174010 -0.79117143 0.84504068
-2.90196753 -6.30331421 0.75087512 -0.41217217 -0.92269295 0.29825372
-2.69252920 -6.66093683 1.82405078 -0.38242522 -0.97504258 0.72452784
-2.66057229 -5.58031797 1.50394547 -0.37788633 -0.81685919 0.59737939
-2.82085156 -5.20725107 1.37489557 -0.40065110 -0.76224887 0.54611975
-2.62588143 -5.81388521 1.90195668 -0.37295911 -0.85104930 0.75547272
-2.72367668 -5.27713251 1.70543528 -0.38684916 -0.77247822 0.67741281
-3.03851175 -6.78535366 1.41787827 -0.43156579 -0.99325496 0.56319278
-3.48697829 -6.80925274 1.38963568 -0.49526238 -0.99675339 0.55197459
-2.61382771 -5.48582458 2.15320587 -0.37124708 -0.80302703 0.85527092
-2.91089535 -6.42790222 0.76588392 -0.41344020 -0.94093043 0.30421534
-2.64755583 -5.64443922 1.51698637 -0.37603757 -0.82624543 0.60255933
-2.79084349 -5.23001242 1.37628472 -0.39638898 -0.76558071 0.54667151
-2.60395241 -5.86354685 1.91299713 -0.36984450 -0.85831887 0.75985807
-2.70272136 -5.31805420 1.71330988 -0.38387284 -0.77846843 0.68054068
-2.98088360 -6.77013683 1.41059422 -0.42338076 -0.99102747 0.56029952
-3.42899799 -6.80122042 1.38341486 -0.48702735 -0.99557757 0.54950368
-2.60706210 -5.56186342 2.17692828 -0.37028617 -0.81415778 0.86469364
-2.72987008 -5.11345005 1.99009848 -0.38772881 -0.74851805 0.79048336
-2.64110422 -5.72449875 1.53437412 -0.37512124 -0.83796471 0.60946590
-2.75974965 -5.25088263 1.37721074 -0.39197266 -0.76863575 0.54703933
-2.60962820 -5.97814417 1.94553733 -0.37065062 -0.87509388 0.77278328
-2.70211005 -5.40004301 1.73468375 -0.38378602 -0.79047018 0.68903053
-2.92279243 -6.75266123 1.40292668 -0.41512996 -0.98846936 0.55725390
-3.38004541 -6.81031895 1.38085341 -0.48007450 -0.99690944 0.54848623
-2.62760353 -5.69963980 2.22505045 -0.37320369 -0.83432579 0.88380820
-2.70653319 -5.14718103 1.99669635 -0.38441423 -0.75345564 0.79310405
-2.63215733 -5.80115843 1.55079591 -0.37385049 -0.84918630 0.61598879
-2.73300505 -5.28019285 1.38045192 -0.38817409 -0.77292621 0.54832673
-2.61995792 -6.10712814 1.98272610 -0.37211779 -0.89397484 0.78755498
-2.68776584 -5.45644855 1.74762058 -0.38174868 -0.79872692 0.69416916
-2.85053468 -6.70036507 1.38797522 -0.40486705 -0.98081416 0.55131507
-3.32417202 -6.80495596 1.37536442 -0.47213870 -0.99612439 0.54630595
-2.59405446 -5.72118568 2.22708392 -0.36843866 -0.83747971 0.88461590
-2.67239118 -5.16073799 1.99537671 -0.37956497 -0.75544018 0.79257989
-2.63020158 -5.89567757 1.57204771 -0.37357271 -0.86302221 0.62443018
-2.72645736 -5.34917450 1.39434278 -0.38724411 -0.78302389 0.55384433
-2.62581563 -6.22941065 2.01759052 -0.37294975 -0.91187483 0.80140340
-2.67956328 -5.52667904 1.76505721 -0.38058364 -0.80900741 0.70109510
-2.79409099 -6.68369341 1.38069105 -0.39685023 -0.97837371 0.54842174
-3.26421666 -6.79031134 1.36804581 -0.46362311 -0.99398071 0.54339898
-2.56642365 -5.75630331 2.23453951 -0.36451420 -0.84262031 0.88757730
-2.65545607 -5.20764923 2.00725293 -0.37715966 -0.76230711 0.79729724
-2.62406492 -5.98327923 1.59136748 -0.37270111 -0.87584555 0.63210416
-2.71387863 -5.40786457 1.40545547 -0.38545752 -0.79161507 0.55825835
-2.63823462 -6.37147713 2.05884695 -0.37471366 -0.93267083 0.81779081
-2.67058325 -5.59702015 1.78249383 -0.37930819 -0.81930411 0.70802110
-2.71870017 -6.58960247 1.35807204 -0.38614234 -0.96460050 0.53943729
-3.22115374 -6.78255844 1.36328876 -0.45750681 -0.99284577 0.54150939
-2.56034064 -5.81662226 2.25351715 -0.36365023 -0.85144997 0.89511538
-2.70104504 -5.35811424 2.06135535 -0.38363475 -0.78433251 0.81878716
-2.63029099 -6.07583284 1.61310220 -0.37358540 -0.88939375 0.64073735
-2.71012282 -5.46409702 1.41703117 -0.38492408 -0.79984653 0.56285632
-2.65848017 -6.50799751 2.09952211 -0.37758917 -0.95265496 0.83394730
-2.69773984 -5.72221231 1.81905448 -0.38316530 -0.83763003 0.72254330
-2.69334745 -6.64662313 1.36650622 -0.38254145 -0.97294730 0.54278743
-3.17931151 -6.80444288 1.36365473 -0.45156386 -0.99604928 0.54165477
-2.56231213 -5.92251825 2.28876162 -0.36393023 -0.86695123 0.90911478
-2.68253589 -5.40537071 2.07323146 -0.38100585 -0.79125005 0.82350445
-2.62978101 -6.18164968 1.63725197 -0.37351298 -0.90488344 0.65032983
-2.69550347 -5.52116585 1.42768085 -0.38284767 -0.80820036 0.56708646
-2.66139627 -6.63481998 2.13554883 -0.37800336 -0.97121954 0.84825742
-2.62595606 -5.66255474 1.79430580 -0.37296972 -0.82889718 0.71271288
-3.11915040 -6.78681326 1.35597014 -0.44301906 -0.99346864 0.53860241
-2.51262546 -5.90902376 2.27723932 -0.35687312 -0.86497587 0.90453804
-2.65686417 -5.43905544 2.07982922 -0.37735966 -0.79618090 0.82612514
-2.61466813 -6.25542402 1.65270782 -0.37136647 -0.91568273 0.65646905
-2.68197012 -5.58176661 1.43925655 -0.38092551 -0.81707126 0.57168442
-2.62104869 -6.65497589 2.13671088 -0.37227270 -0.97416997 0.84871900
-2.69541073 -5.90735340 1.86798954 -0.38283449 -0.86473137 0.74198067
-3.06911373 -6.79017210 1.35267675 -0.43591225 -0.99396032 0.53729421
-2.63087440 -5.47263002 2.08642721 -0.37366825 -0.80109560 0.82874590
