-3.32083035 -2.21805286 1.36000323 -0.68357754 -0.56952316 0.62592512
-2.86498427 -2.20572901 1.47544765 -0.58974373 -0.56635880 0.67905700
-3.12024045 -2.17109799 1.51402128 -0.64228708 -0.55746675 0.69681007
-2.22545862 -2.41576982 0.87209630 -0.45810035 -0.62029040 0.40137181
-3.37176538 -3.18996119 1.20911050 -0.69406229 -0.81907737 0.55647856
-3.03421330 -2.59963346 0.99903417 -0.62457877 -0.66750056 0.45979345
-3.13989997 -2.35510707 0.94222265 -0.64633387 -0.60471421 0.43364662
-3.25647807 -2.30309439 1.13396382 -0.67033094 -0.59135908 0.52189320
-2.87178850 -3.41389680 0.74336284 -0.59114438 -0.87657666 0.34212378
-3.12030864 -3.37501907 0.74290597 -0.64230108 -0.86659414 0.34191352
-2.10700846 -2.62194467 0.72943103 -0.43371794 -0.67322934 0.33571184
-2.28356266 -2.58793402 0.72942466 -0.47006080 -0.66449654 0.33570892
-2.51495504 -2.48960495 0.72257638 -0.51769185 -0.63924885 0.33255708
-2.79091477 -2.52256179 0.73646092 -0.57449687 -0.64771110 0.33894727
-2.82434177 -3.41787577 1.72475088 -0.58137769 -0.87759835 0.79379582
-3.10451555 -2.44299793 0.73739088 -0.63905013 -0.62728173 0.33937526
-3.42330742 -2.43910623 0.74816144 -0.70467198 -0.62628245 0.34433228
-3.12703800 -2.98424029 1.60896444 -0.64368629 -0.76625496 0.74050647
-2.25402069 -2.24360561 1.36254489 -0.46397972 -0.57608432 0.62709486
-2.44212604 -2.20925164 1.38248062 -0.50270033 -0.56726331 0.63627005
-2.99633384 -2.24715567 1.31343842 -0.61678147 -0.57699585 0.60449421
-3.26760888 -2.21261120 1.34350860 -0.67262214 -0.56812596 0.61833364
-2.82499456 -2.20311308 1.46156037 -0.58151203 -0.56568712 0.67266554
-3.08982682 -2.17900944 1.50571346 -0.63602656 -0.55949813 0.69298649
-2.21023607 -2.42970490 0.87209630 -0.45496687 -0.62386847 0.40137181
-3.35860133 -3.21779609 1.21169901 -0.69135255 -0.82622445 0.55766988
-3.02663279 -2.62621570 1.00203967 -0.62301832 -0.67432600 0.46117669
-3.21062946 -2.30130816 1.12271440 -0.66089320 -0.59090042 0.51671576
-2.86154914 -3.44556642 0.74645299 -0.58903664 -0.88470840 0.34354600
-3.09369731 -3.38875580 0.74157268 -0.63682324 -0.87012130 0.34129989
-2.08207273 -2.62438488 0.72633082 -0.42858502 -0.67385590 0.33428502
-2.25563431 -2.58904815 0.72553539 -0.46431187 -0.66478258 0.33391893
-2.51436901 -2.52067542 0.72717768 -0.51757121 -0.64722675 0.33467478
-2.79389143 -2.55714345 0.74167901 -0.57510960 -0.65659052 0.34134883
-2.82734728 -3.46591282 1.74025297 -0.58199632 -0.88993269 0.80093044
-2.10501027 -2.34079385 1.19129086 -0.43330660 -0.60103905 0.54827726
-3.07381845 -2.45014167 0.73355716 -0.63273132 -0.62911600 0.33761084
-3.42551136 -2.47314334 0.75218666 -0.70512563 -0.63502204 0.34618485
-3.17780185 -3.07170439 1.64595234 -0.65413576 -0.78871286 0.75752974
-2.23603654 -2.25380039 1.36012864 -0.46027777 -0.57870197 0.62598282
-2.42274880 -2.21962285 1.37931478 -0.49871162 -0.56992632 0.63481301
-2.97021937 -2.25676560 1.30801618 -0.61140591 -0.57946336 0.60199869
-3.24270725 -2.22567582 1.33889019 -0.66749626 -0.57148051 0.61620808
-2.78659320 -2.20123458 1.44844449 -0.57360733 -0.56520480 0.66662914
-3.05036306 -2.18021297 1.49287415 -0.62790310 -0.55980712 0.68707734
-2.92484713 -3.57915926 1.27819073 -0.60206622 -0.91901064 0.58827186
-2.17676616 -2.42357731 0.86464417 -0.44807723 -0.62229514 0.39794207
-3.00939608 -3.49817991 1.49582422 -0.61947024 -0.89821780 0.68843508
-3.03929067 -2.67059541 1.01205814 -0.62562388 -0.68572128 0.46578756
-3.17116809 -2.30351710 1.11371481 -0.65277028 -0.59146762 0.51257384
-2.84978247 -3.47571206 0.74919975 -0.58661455 -0.89244878 0.34481016
-3.05642152 -3.39062071 0.73757279 -0.62915021 -0.87060010 0.33945900
-2.05003071 -2.61735916 0.72057325 -0.42198932 -0.67205197 0.33163515
-2.22650027 -2.58844137 0.72121406 -0.45831478 -0.66462678 0.33193007
-2.50121045 -2.53922606 0.72801423 -0.51486260 -0.65198994 0.33505979
-2.75466347 -2.55346084 0.73525673 -0.56703472 -0.65564495 0.33839306
-2.83189154 -3.50531840 1.75354052 -0.58293176 -0.90005076 0.80704588
-2.07523012 -2.32993698 1.18039393 -0.42717651 -0.59825134 0.54326206
-3.04244232 -2.44849730 0.72857332 -0.62627268 -0.62869376 0.33531711
-3.40903616 -2.48580575 0.75108886 -0.70173430 -0.63827336 0.34567961
-3.29514337 -3.21649218 1.71637154 -0.67829001 -0.82588965 0.78993934
-2.21009326 -2.24854636 1.35046375 -0.45493746 -0.57735294 0.62153465
-2.39327645 -2.21367264 1.36823452 -0.49264488 -0.56839848 0.62971348
-2.93427944 -2.25112724 1.29649401 -0.60400784 -0.57801563 0.59669572
-3.19948316 -2.21850991 1.32503462 -0.65859878 -0.56964052 0.60983121
-2.76039410 -2.20159435 1.43995786 -0.56821436 -0.56529719 0.66272324
-3.02045894 -2.18057799 1.48305571 -0.62174749 -0.55990088 0.68255854
-2.17048287 -2.43953729 0.86677337 -0.44678384 -0.62639314 0.39892200
-3.03000307 -3.55550432 1.51471996 -0.62371212 -0.91293681 0.69713163
-3.05140567 -2.70660758 1.02057374 -0.62811774 -0.69496799 0.46970677
-3.15251088 -2.31279922 1.11090243 -0.64892977 -0.59385091 0.51127946
-2.84695840 -3.50598907 0.75297660 -0.58603323 -0.90022296 0.34654841
-3.03248954 -3.39619565 0.73557281 -0.62422395 -0.87203157 0.33853853
-2.03174424 -2.61924887 0.71835881 -0.41822514 -0.67253715 0.33061600
-2.20790148 -2.59151053 0.71905339 -0.45448628 -0.66541487 0.33093566
-2.50008011 -2.56224489 0.73136061 -0.51462990 -0.65790039 0.33659992
-2.74403787 -2.56774449 0.73565811 -0.56484747 -0.65931255 0.33857778
-2.84553671 -3.56825328 1.77642453 -0.58574057 -0.91621035 0.81757796
-3.02851295 -2.46881318 0.72895670 -0.62340534 -0.63391018 0.33549353
-3.40287232 -2.51414084 0.75328445 -0.70046550 -0.64554888 0.34669009
-3.35163569 -3.31368828 1.75762725 -0.68991870 -0.85084641 0.80892676
-2.18578935 -2.25181365 1.34402049 -0.44993460 -0.57819188 0.61856925
-2.37257886 -2.22242999 1.36427724 -0.48838437 -0.57064706 0.62789214
-2.91120148 -2.26254225 1.29242730 -0.59925735 -0.58094662 0.59482408
-3.16222477 -2.22240686 1.31513786 -0.65092933 -0.57064116 0.60527635
-2.73936367 -2.21305561 1.43610024 -0.56388533 -0.56824005 0.66094786
-2.98418903 -2.18323445 1.47172689 -0.61428148 -0.56058294 0.67734456
-2.14998651 -2.44736505 0.86464417 -0.44256476 -0.62840301 0.39794207
-3.01988792 -3.58894348 1.52101862 -0.62162995 -0.92152292 0.70003051
-3.05604219 -2.74502730 1.02808762 -0.62907213 -0.70483291 0.47316495
-3.32435536 -2.36820960 0.93687117 -0.68430316 -0.60807848 0.43118367
-3.11008430 -2.31209564 1.10077798 -0.64019644 -0.59367031 0.50661981
-2.84325528 -3.54695034 0.75812680 -0.58527094 -0.91074044 0.34891874
-3.06221104 -3.47264314 0.74857247 -0.63034195 -0.89166081 0.34452146
-2.18397951 -2.59641099 0.71646059 -0.44956207 -0.66667312 0.32974234
-3.53251553 -3.53118038 0.77440363 -0.72715199 -0.90669125 0.35640994
-2.46639466 -2.55949402 0.72592276 -0.50769591 -0.65719408 0.33409721
-2.69926095 -2.55813551 0.72763032 -0.55563039 -0.65684527 0.33488309
-2.83449292 -3.60071802 1.78380644 -0.58346725 -0.92454624 0.82097542
-2.83481383 -3.25255919 1.64605451 -0.58353329 -0.83515048 0.75757676
-3.00540590 -2.48150468 0.72703981 -0.61864889 -0.63716894 0.33461133
-3.35699415 -2.51322794 0.74633175 -0.69102168 -0.64531446 0.34349018
-3.24131227 -3.24436283 1.70925856 -0.66720915 -0.83304590 0.78666568
-2.16153216 -2.25486493 1.33757722 -0.44494137 -0.57897532 0.61560380
-2.33712077 -2.21720219 1.35161412 -0.48108548 -0.56930476 0.62206411
-2.87484837 -2.26320720 1.28226066 -0.59177423 -0.58111733 0.59014499
-3.14202428 -2.23788285 1.31249869 -0.64677113 -0.57461488 0.60406172
-2.71119213 -2.21845603 1.42838502 -0.55808634 -0.56962669 0.65739697
-2.94800615 -2.18552184 1.46039796 -0.60683340 -0.56117028 0.67213058
-2.13711143 -2.46372223 0.86570877 -0.43991449 -0.63260299 0.39843202
-2.93997025 -3.53946996 1.49141514 -0.60517925 -0.90881974 0.68640584
-3.25716424 -2.35172868 0.92159128 -0.67047215 -0.60384673 0.42415127
-3.17860651 -2.39351106 1.13115144 -0.65430140 -0.61457509 0.52059883
-2.81726599 -3.56009340 0.75709671 -0.57992119 -0.91411513 0.34844464
-3.08848643 -3.54663253 0.76090544 -0.63575065 -0.91065884 0.35019755
-2.00683498 -2.65551496 0.72145903 -0.41309768 -0.68184912 0.33204281
-2.18270159 -2.62801909 0.72164619 -0.44929901 -0.67478907 0.33212897
-3.49644113 -3.53920436 0.77120835 -0.71972620 -0.90875155 0.35493934
-2.45428443 -2.57921362 0.72717768 -0.50520307 -0.66225743 0.33467478
-2.68597651 -2.57774282 0.72843307 -0.55289584 -0.66187978 0.33525255
-2.82532048 -3.28296661 1.65259266 -0.58157915 -0.84295809 0.76058584
-3.00924397 -2.51681161 0.73202366 -0.61943895 -0.64623463 0.33690506
-3.30497360 -2.50711584 0.73791540 -0.68031353 -0.64374506 0.33961666
-2.14107275 -2.26171327 1.33355010 -0.44072992 -0.58073372 0.61375034
-2.32580876 -2.23437095 1.35319698 -0.47875696 -0.57371312 0.62279260
-3.11099720 -2.24551487 1.30524111 -0.64038438 -0.57657450 0.60072148
-2.68306160 -2.22359014 1.42066991 -0.55229580 -0.57094496 0.65384620
-2.91637349 -2.19075346 1.45133495 -0.60032195 -0.56251359 0.66795945
-2.88862944 -3.52277327 1.47629857 -0.59461099 -0.90453255 0.67944860
-2.22858548 -2.36260390 1.01679575 -0.45874399 -0.60663915 0.46796799
-3.22813892 -2.36187959 0.91742402 -0.66449744 -0.60645318 0.42223334
-2.78760600 -3.56837559 0.75503665 -0.57381576 -0.91624177 0.34749651
-3.05451202 -3.55256057 0.75790554 -0.62875718 -0.91218096 0.34881690
-1.99473643 -2.67435360 0.72323060 -0.41060725 -0.68668622 0.33285818
-2.15492177 -2.62815785 0.71775699 -0.44358066 -0.67482471 0.33033901
-3.45216823 -3.53840184 0.76609588 -0.71061283 -0.90854549 0.35258639
-2.42605066 -2.58168745 0.72341299 -0.49939129 -0.66289264 0.33294210
-2.64853930 -2.57420087 0.72241223 -0.54518956 -0.66097033 0.33248153
-2.84831452 -3.35156894 1.67874527 -0.58631235 -0.86057293 0.77262229
-2.99486232 -2.53694582 0.73240703 -0.61647856 -0.65140444 0.33708152
-3.29228544 -2.53021312 0.73864728 -0.67770171 -0.64967567 0.33995351
-2.12806106 -2.27646685 1.33435547 -0.43805152 -0.58452195 0.61412102
-2.30510092 -2.24257803 1.34923971 -0.47449434 -0.57582045 0.62097132
-3.07693934 -2.25063300 1.29666388 -0.63337374 -0.57788867 0.59677392
-2.65356755 -2.22726417 1.41218317 -0.54622459 -0.57188833 0.64994031
-2.88331246 -2.19456100 1.44151652 -0.59351653 -0.56349123 0.66344059
-2.16861367 -2.32754803 0.99522442 -0.44639909 -0.59763795 0.45804006
-2.97441459 -2.43415976 0.92193687 -0.61226946 -0.62501234 0.42431033
-3.19127107 -2.36600518 0.91094160 -0.65690839 -0.60751247 0.41924989
-3.10935712 -2.65501595 1.20641029 -0.64004678 -0.68172097 0.55523580
-2.73881483 -3.55137539 0.74748302 -0.56377232 -0.91187668 0.34402004
-3.01802015 -3.55520654 0.75423896 -0.62124544 -0.91286039 0.34712940
-1.96069419 -2.66316891 0.71658725 -0.40359983 -0.68381441 0.32980064
-2.13836622 -2.64164567 0.71775699 -0.44017279 -0.67828792 0.33033901
-2.39523864 -2.58102608 0.71881175 -0.49304879 -0.66272277 0.33082443
-2.62248540 -2.58122444 0.71960247 -0.53982645 -0.66277373 0.33118835
-2.84165215 -3.38646197 1.68746281 -0.58494091 -0.86953229 0.77663440
-2.97886300 -2.55571294 0.73240703 -0.61318517 -0.65622324 0.33708152
-3.24517560 -2.52684283 0.73132867 -0.66800439 -0.64881033 0.33658519
-3.19876361 -3.00391722 1.59378541 -0.65845066 -0.77130735 0.73352051
-2.10138655 -2.27626061 1.32630146 -0.43256068 -0.58446902 0.61041427
-2.28043270 -2.24677110 1.34290814 -0.46941650 -0.57689708 0.61805731
-2.79253960 -2.28460073 1.26396060 -0.57483137 -0.58661050 0.58172262
-3.05207777 -2.26210856 1.29204535 -0.62825608 -0.58083522 0.59464830
-2.62693167 -2.23306251 1.40523946 -0.54074174 -0.57337719 0.64674455
-2.86062956 -2.20589828 1.43698502 -0.58884734 -0.56640232 0.66135502
-2.17953205 -2.36929584 1.00755084 -0.44864658 -0.60835743 0.46371314
-3.06170845 -2.53880596 0.95526350 -0.63023853 -0.65188205 0.43964851
-3.09837890 -2.67953587 1.20873451 -0.63778692 -0.68801689 0.55630547
-2.72237849 -3.57637930 0.74919975 -0.56038898 -0.91829681 0.34481016
-2.98925614 -3.56657004 0.75257236 -0.61532456 -0.91577816 0.34636235
-1.94733250 -2.68019009 0.71791595 -0.40084937 -0.68818486 0.33041218
-2.11435723 -2.64592028 0.71516418 -0.43523064 -0.67938548 0.32914570
-2.37240958 -2.58877730 0.71672022 -0.48834953 -0.66471308 0.32986185
-2.61877346 -2.61003017 0.72321498 -0.53906238 -0.67017007 0.33285099
-2.85919595 -3.43978715 1.70780361 -0.58855224 -0.88322443 0.78599602
-2.94315386 -2.54903698 0.72627306 -0.60583460 -0.65450907 0.33425844
-3.23478389 -2.54331493 0.73169458 -0.66586530 -0.65303981 0.33675361
-2.29241657 -2.39717746 1.22628224 -0.47188333 -0.61551648 0.56438160
-3.16953969 -3.00483847 1.58612657 -0.65243506 -0.77154392 0.72999567
-2.08327770 -2.27798367 1.32146895 -0.42883307 -0.58491147 0.60819018
-2.25671458 -2.24462318 1.33499360 -0.46453425 -0.57634556 0.61441469
-2.76297140 -2.28205061 1.25514948 -0.56874484 -0.58595568 0.57766742
-3.01255035 -2.25512409 1.27950943 -0.62011951 -0.57904184 0.58887881
-2.60105515 -2.23210740 1.39675272 -0.53541517 -0.57313192 0.64283860
-2.82525420 -2.20015216 1.42414558 -0.58156550 -0.56492686 0.65544581
-2.14416289 -2.35266638 0.99584079 -0.44136599 -0.60408753 0.45832372
-3.08230901 -2.58078170 0.96588939 -0.63447905 -0.66266006 0.44453895
-3.13705277 -2.37992835 0.90260708 -0.64574778 -0.61108750 0.41541404
-3.08571744 -2.69410682 1.20873451 -0.63518065 -0.69175822 0.55630547
-2.72553587 -3.61600685 0.75503665 -0.56103891 -0.92847186 0.34749651
-1.93693924 -2.69251728 0.71880168 -0.39870998 -0.69135010 0.33081982
-2.10552812 -2.66042638 0.71646059 -0.43341321 -0.68311018 0.32974234
-2.36540842 -2.60575080 0.71839345 -0.48690838 -0.66907132 0.33063191
-2.60505605 -2.62095976 0.72281361 -0.53623873 -0.67297643 0.33266625
-2.85654497 -3.48064494 1.71942699 -0.58800656 -0.89371538 0.79134554
-2.92120433 -2.56227064 0.72473955 -0.60131639 -0.65790701 0.33355266
-3.23263645 -2.57454562 0.73498797 -0.66542321 -0.66105884 0.33826935
-2.19698262 -2.32542062 1.18146992 -0.45223871 -0.59709167 0.54375732
-2.05552602 -2.27599430 1.31260943 -0.42312050 -0.58440065 0.60411268
-2.23214769 -2.24839711 1.32866204 -0.45947728 -0.57731462 0.61150068
-2.86923194 -2.40146995 1.31208289 -0.59061813 -0.61661869 0.60387033
-2.95149708 -2.23889208 1.25905609 -0.60755199 -0.57487398 0.57946539
-2.56481123 -2.22890759 1.38440847 -0.52795452 -0.57231033 0.63715732
-2.78654718 -2.19850206 1.41130626 -0.57359785 -0.56450319 0.64953673
-2.25991821 -2.40072966 0.84880394 -0.46519369 -0.61642861 0.39065179
-2.13060212 -2.36751437 0.99645710 -0.43857458 -0.60790002 0.45860738
-3.07192826 -2.60514832 0.96782136 -0.63234222 -0.66891658 0.44542813
-3.09013939 -2.73256326 1.21745062 -0.63609087 -0.70163256 0.56031698
-1.90431464 -2.68227267 0.71260124 -0.39199436 -0.68871957 0.32796612
-2.08271360 -2.66594529 0.71429986 -0.42871696 -0.68452728 0.32874790
-2.33991075 -2.61031461 0.71546537 -0.48165980 -0.67024314 0.32928431
-2.58439636 -2.63310385 0.72160941 -0.53198600 -0.67609465 0.33211204
-2.86292934 -3.53314424 1.73686206 -0.58932072 -0.90719551 0.79936981
-2.88167667 -2.55959415 0.71860558 -0.59317982 -0.65721977 0.33072954
-3.18720531 -2.57149220 0.72803533 -0.65607142 -0.66027480 0.33506948
-2.16966414 -2.32543015 1.17435694 -0.44661531 -0.59709418 0.54048365
-3.28817511 -3.19530487 1.66689241 -0.67685562 -0.82044941 0.76716715
-2.03997564 -2.28749037 1.31180394 -0.41991955 -0.58735245 0.60374194
-2.20244598 -2.24673796 1.31916463 -0.45336330 -0.57688856 0.60712963
-2.95390821 -2.26995707 1.26631379 -0.60804832 -0.58285046 0.58280569
-2.54248929 -2.23761439 1.37977934 -0.52335966 -0.57454592 0.63502681
-2.75959921 -2.20563579 1.40450895 -0.56805074 -0.56633490 0.64640832
-2.21081996 -2.37788296 0.83534425 -0.45508704 -0.61056232 0.38445714
-2.09937310 -2.36226058 0.98844492 -0.43214622 -0.60655099 0.45491987
-2.92650175 -2.51246428 0.92531782 -0.60240686 -0.64511836 0.42586637
-3.08994079 -2.76732969 1.22442353 -0.63604999 -0.71055943 0.56352615
-1.90960693 -2.72626996 0.72145903 -0.39308375 -0.70001668 0.33204281
-2.07793975 -2.69437027 0.71862125 -0.42773429 -0.69182587 0.33073679
-2.31831241 -2.61907721 0.71379220 -0.47721386 -0.67249310 0.32851425
-2.56231570 -2.64369249 0.72000384 -0.52744085 -0.67881346 0.33137310
-2.85589027 -3.56991124 1.74630594 -0.58787179 -0.91663605 0.80371624
-2.84229875 -2.55652261 0.71247160 -0.58507401 -0.65643108 0.32790646
-3.15569878 -2.57910061 0.72437602 -0.64958596 -0.66222841 0.33338535
-2.13362861 -2.31550932 1.16226470 -0.43919757 -0.59454679 0.53491831
-3.28682423 -3.23422933 1.67664003 -0.67657757 -0.83044398 0.77165335
-2.00274968 -2.27400637 1.29650116 -0.41225675 -0.58389020 0.59669906
-2.18185568 -2.25397491 1.31520736 -0.44912487 -0.57874680 0.60530835
-2.92911458 -2.28041053 1.26169527 -0.60294467 -0.58553457 0.58068007
-2.50371861 -2.23129725 1.36589205 -0.51537889 -0.57292390 0.62863535
-2.73267221 -2.21251845 1.39771163 -0.56250793 -0.56810212 0.64327991
-2.25292826 -2.45469999 0.85812223 -0.46375486 -0.63028640 0.39494041
-3.08095956 -2.79444528 1.22791004 -0.63420123 -0.71752185 0.56513083
-3.05937529 -2.51401877 1.12552679 -0.62975824 -0.64551753 0.51801014
-1.89024162 -2.73499203 0.72057325 -0.38909748 -0.70225620 0.33163515
-2.05262494 -2.69654632 0.71559632 -0.42252335 -0.69238460 0.32934457
-2.29797530 -2.62915158 0.71253729 -0.47302759 -0.67507982 0.32793671
-2.54974222 -2.66396356 0.72120804 -0.52485263 -0.68401843 0.33192730
-2.84501743 -3.60235691 1.75357056 -0.58563364 -0.92496705 0.80705971
-2.83340025 -2.58097839 0.71438849 -0.58324230 -0.66271055 0.32878870
-2.11279249 -2.32191610 1.15870821 -0.43490854 -0.59619188 0.53328151
-3.28511333 -3.27326226 1.68638766 -0.67622536 -0.84046632 0.77613962
-1.99319017 -2.29210281 1.29972279 -0.41028896 -0.58853680 0.59818172
-2.15870643 -2.25840330 1.30966723 -0.44435972 -0.57988387 0.60275859
-2.95046091 -2.32663465 1.27753007 -0.60733873 -0.59740341 0.58796781
-2.48420048 -2.24200630 1.36280596 -0.51136118 -0.57567364 0.62721503
-2.69713616 -2.21215367 1.38638270 -0.55519301 -0.56800848 0.63806593
-2.20395851 -2.43138456 0.84466249 -0.45367464 -0.62429976 0.38874573
-2.26030731 -2.38189769 0.99655342 -0.46527380 -0.61159319 0.45865169
-3.07596850 -2.82546139 1.23313963 -0.63317388 -0.72548574 0.56753767
-3.05981493 -2.54661417 1.13171387 -0.62984872 -0.65388697 0.52085769
-1.87301993 -2.74681473 0.72057325 -0.38555247 -0.70529187 0.33163515
-2.04391813 -2.72026896 0.71862125 -0.42073107 -0.69847578 0.33073679
-2.26998806 -2.63014603 0.70877260 -0.46726653 -0.67533517 0.32620406
-2.56138086 -2.70967770 0.72963727 -0.52724838 -0.69575632 0.33580676
-2.82143474 -2.60274577 0.71553862 -0.58077925 -0.66829967 0.32931802
-3.14270926 -2.63487649 0.72913307 -0.64691216 -0.67654979 0.33557472
-2.09568143 -2.33234835 1.15728557 -0.43138632 -0.59887052 0.53262675
-3.29497147 -3.32433367 1.70240164 -0.67825460 -0.85357982 0.78350985
-1.96100080 -2.28362775 1.28764164 -0.40366292 -0.58636069 0.59262156
-2.13431835 -2.26130247 1.30333555 -0.43933955 -0.58062828 0.59984446
-3.02912021 -2.41886020 1.31909657 -0.62353039 -0.62108392 0.60709828
-2.45516586 -2.24378633 1.35431921 -0.50538450 -0.57613069 0.62330908
-2.66600728 -2.21495581 1.37731969 -0.54878527 -0.56872797 0.63389480
-2.16944623 -2.42347336 0.83689725 -0.44657046 -0.62226844 0.38517189
-2.22559762 -2.37529016 0.98756093 -0.45812896 -0.60989654 0.45451301
-3.08884168 -2.87355757 1.24592328 -0.63582373 -0.73783529 0.57342118
-3.02606869 -2.55103517 1.12496424 -0.62290221 -0.65502208 0.51775122
-1.87190497 -2.78290224 0.72721660 -0.38532296 -0.71455795 0.33469269
-2.03851128 -2.74867272 0.72294259 -0.41961810 -0.70576894 0.33272561
-2.26097631 -2.65333271 0.71128237 -0.46541151 -0.68128878 0.32735914
-2.51068640 -2.69009352 0.71960247 -0.51681316 -0.69072771 0.33118835
-2.79913259 -2.60659528 0.71285498 -0.57618850 -0.66928810 0.32808292
-2.24356627 -2.29412365 1.15583932 -0.46182773 -0.58905566 0.53196114
-1.95021772 -2.29284334 1.28764164 -0.40144327 -0.58872694 0.59262156
-2.11858606 -2.26600122 1.30016983 -0.43610114 -0.58183473 0.59838748
-2.44051957 -2.25155282 1.35200465 -0.50236964 -0.57812488 0.62224382
-2.64270759 -2.21685815 1.37052226 -0.54398912 -0.56921643 0.63076633
-2.15672898 -2.43221617 0.83637959 -0.44395268 -0.62451327 0.38493362
-3.01603413 -3.57425928 1.47965336 -0.62083668 -0.91775250 0.68099260
-2.21045947 -2.38158059 0.98576242 -0.45501286 -0.61151177 0.45368528
-3.15719748 -2.96577263 1.28020668 -0.64989448 -0.76151305 0.58919972
-1.86198330 -2.79658222 0.72854531 -0.38328063 -0.71807057 0.33530420
-2.01854491 -2.74884629 0.72034979 -0.41550812 -0.70581353 0.33153230
-2.23967886 -2.65344429 0.70835429 -0.46102753 -0.68131739 0.32601154
-2.52340412 -2.72908950 0.72722888 -0.51943105 -0.70074064 0.33469832
-2.77133250 -2.61329699 0.70978802 -0.57046598 -0.67100888 0.32667139
-2.23172975 -2.31085587 1.15723181 -0.45939124 -0.59335196 0.53260201
-1.92059159 -2.28672409 1.27717125 -0.39534488 -0.58715570 0.58780271
-2.09677792 -2.27121997 1.29542112 -0.43161201 -0.58317477 0.59620196
-2.40621591 -2.24782348 1.34043193 -0.49530840 -0.57716727 0.61691767
-2.60745120 -2.21555781 1.35919344 -0.53673178 -0.56888252 0.62555242
-2.13508725 -2.43841243 0.83379120 -0.43949783 -0.62610430 0.38374236
-2.99715161 -3.59754014 1.48150229 -0.61694980 -0.92373025 0.68184358
-2.19285607 -2.39262509 0.98456341 -0.45138925 -0.61434758 0.45313343
-1.83588898 -2.79513311 0.72500217 -0.37790924 -0.71769845 0.33367351
-2.00007820 -2.75990057 0.71991765 -0.41170684 -0.70865190 0.33133343
-2.21674633 -2.65991545 0.70626283 -0.45630696 -0.68297899 0.32504895
-2.52747107 -2.76792526 0.73365116 -0.52026820 -0.71071237 0.33765411
-2.76898170 -2.64428997 0.71362174 -0.56998205 -0.67896688 0.32843581
-3.07434916 -2.66955662 0.72364414 -0.63284051 -0.68545455 0.33304849
-2.21716619 -2.32483244 1.15723181 -0.45639339 -0.59694070 0.53260201
-1.89807343 -2.28882647 1.27153337 -0.39070964 -0.58769554 0.58520794
-2.07748103 -2.27895284 1.29225528 -0.42763984 -0.58516032 0.59474492
-3.18680739 -2.90993905 1.51880527 -0.65598953 -0.74717683 0.69901180
-2.38538218 -2.25651622 1.33657432 -0.49101987 -0.57939929 0.61514223
-2.58642483 -2.22589898 1.35541713 -0.53240359 -0.57153779 0.62381440
-1.83722711 -2.45793128 0.81247950 -0.37818471 -0.63111609 0.37393391
-2.95765686 -3.59565520 1.47287381 -0.60881996 -0.92324626 0.67787242
-2.16102052 -2.38806939 0.97676992 -0.44483608 -0.61317784 0.44954658
-1.79202855 -2.76553106 0.71392989 -0.36888078 -0.71009761 0.32857764
-1.97582567 -2.76292348 0.71732485 -0.40671456 -0.70942807 0.33014011
-2.20862627 -2.68441391 0.70919091 -0.45463550 -0.68926942 0.32639655
-2.46647215 -2.73596740 0.72040522 -0.50771189 -0.70250666 0.33155781
-2.73265982 -2.64242721 0.70825452 -0.56250536 -0.67848861 0.32596561
-3.04268551 -2.67591000 0.71998489 -0.62632275 -0.68708587 0.33136436
-2.93814707 -3.44299793 1.68649673 -0.60480398 -0.88404888 0.77618980
-2.19863296 -2.33464718 1.15514302 -0.45257843 -0.59946078 0.53164065
-1.88020504 -2.29643416 1.26911712 -0.38703150 -0.58964890 0.58409584
-2.05074286 -2.27839088 1.28434074 -0.42213592 -0.58501601 0.59110236
-3.13269854 -2.89652085 1.50118303 -0.64485151 -0.74373150 0.69090140
-2.35658717 -2.25732803 1.32808757 -0.48509255 -0.57960778 0.61123627
-2.55274224 -2.22518754 1.34484351 -0.52547020 -0.57135516 0.61894804
-1.63424337 -2.43100214 0.79725027 -0.33640143 -0.62420160 0.36692482
-1.82059252 -2.46788263 0.81194717 -0.37476054 -0.63367128 0.37368891
-2.13829160 -2.39311194 0.97317296 -0.44015741 -0.61447263 0.44789112
-3.19891572 -3.12143111 1.32204413 -0.65848202 -0.80148107 0.60845488
-1.78397810 -2.79158473 0.71791595 -0.36722362 -0.71678734 0.33041218
-1.97318733 -2.79593682 0.72294259 -0.40617147 -0.71790481 0.33272561
-2.19416428 -2.70128846 0.71002752 -0.45165855 -0.69360220 0.32678160
-2.46496272 -2.76888561 0.72522193 -0.50740117 -0.71095896 0.33377466
-2.72576904 -2.66921043 0.71093816 -0.56108695 -0.68536562 0.32720071
-3.04645991 -2.71317983 0.72510785 -0.62709969 -0.69665551 0.33372214
-2.89249635 -3.43269324 1.67227066 -0.59540695 -0.88140297 0.76964241
-2.16206765 -2.32521319 1.14330673 -0.44505161 -0.59703845 0.52619314
-1.86688006 -2.30963397 1.26992261 -0.38428861 -0.59303820 0.58446658
-2.02655292 -2.28031301 1.27800918 -0.41715652 -0.58550954 0.58818835
-2.33709168 -2.26691842 1.32500148 -0.48107949 -0.58207023 0.60981596
-2.53173232 -2.23509645 1.34106731 -0.52114534 -0.57389945 0.61721009
-1.61472821 -2.43477941 0.79506421 -0.33238432 -0.62517142 0.36591873
-1.80276048 -2.47617102 0.81088257 -0.37108991 -0.63579947 0.37319893
-2.18865085 -2.36592889 0.79916674 -0.45052364 -0.60749292 0.36780685
-2.11812758 -2.40080905 0.97077495 -0.43600675 -0.61644900 0.44678748
-3.16568875 -3.12795591 1.31623340 -0.65164238 -0.80315644 0.60578054
-1.76125431 -2.79445696 0.71570146 -0.36254606 -0.71752483 0.32939297
-1.95220482 -2.80349183 0.72164619 -0.40185231 -0.71984470 0.33212897
-2.18929434 -2.73035049 0.71421045 -0.45065609 -0.70106441 0.32870674
-2.44621515 -2.78285432 0.72482055 -0.50354207 -0.71454567 0.33358991
-2.70894408 -2.68628430 0.71093816 -0.55762357 -0.68974966 0.32720071
-3.01028633 -2.71524262 0.72035080 -0.61965352 -0.69718522 0.33153278
-2.90535069 -3.49262810 1.69289851 -0.59805298 -0.89679229 0.77913612
-2.13592339 -2.32639599 1.13704038 -0.43966994 -0.59734213 0.52330911
-2.00364089 -2.28339410 1.27246904 -0.41244021 -0.58630067 0.58563852
-3.12323809 -2.96168137 1.51473868 -0.64290410 -0.76046258 0.69714022
-2.30841112 -2.26724458 1.31651473 -0.47517574 -0.58215398 0.60591006
-2.49681926 -2.23256969 1.32973838 -0.51395869 -0.57325065 0.61199605
-1.60460830 -2.45296335 0.79779679 -0.33030120 -0.62984049 0.36717635
-1.79284310 -2.49523997 0.81354403 -0.36904845 -0.64069575 0.37442383
-2.20266962 -2.41090274 0.81018704 -0.45340934 -0.61904073 0.37287882
-1.77118313 -2.85036302 0.72765952 -0.36458984 -0.73187971 0.33489653
-1.94012845 -2.82371688 0.72380686 -0.39936647 -0.72503781 0.33312339
-2.17450571 -2.74713326 0.71504706 -0.44761193 -0.70537364 0.32909179
-2.44806790 -2.82025838 0.73084140 -0.50392342 -0.72414982 0.33636096
-2.70453453 -2.70739651 0.71323836 -0.55671591 -0.69517058 0.32825935
-3.01644349 -2.74651265 0.72510785 -0.62092090 -0.70521432 0.33372214
-2.82029557 -3.42229891 1.65164280 -0.58054477 -0.87873405 0.76014870
-2.11731458 -2.32816195 1.13286281 -0.43583941 -0.59779561 0.52138644
-1.99892926 -2.29970145 1.27642632 -0.41147032 -0.59048784 0.58745980
-3.10383439 -2.97113609 1.51202750 -0.63890994 -0.76289022 0.69589245
-2.28468013 -2.26502395 1.30879962 -0.47029081 -0.58158380 0.60235924
-2.47106671 -2.23075294 1.32143056 -0.50865763 -0.57278413 0.60817248
-1.58475637 -2.44752026 0.79342461 -0.32621476 -0.62844288 0.36516410
-1.75512290 -2.46770048 0.80130130 -0.36128393 -0.63362449 0.36878926
-2.24854851 -3.68584442 1.42718160 -0.46285328 -0.94640386 0.65684313
-2.18997598 -2.41982818 0.80968612 -0.45079643 -0.62133247 0.37264827
-3.10144567 -2.83740759 1.19696069 -0.63841826 -0.72855318 0.55088675
-1.75368559 -2.85200763 0.72588795 -0.36098805 -0.73230195 0.33408117
-1.91461468 -2.81513882 0.71905339 -0.39411455 -0.72283524 0.33093566
-2.15075731 -2.74343419 0.71128237 -0.44272342 -0.70442384 0.32735914
-2.40004349 -2.79183888 0.72000384 -0.49403784 -0.71685261 0.33137310
-2.67924380 -2.71590757 0.71093816 -0.55150992 -0.69735593 0.32720071
-2.97444057 -2.74287510 0.71888709 -0.61227483 -0.70428032 0.33085912
-2.81398654 -3.45887136 1.66088974 -0.57924610 -0.88812464 0.76440448
-2.10769129 -2.34696674 1.13564789 -0.43385848 -0.60262406 0.52266824
-3.25321174 -3.15508556 1.59674990 -0.66965854 -0.81012243 0.73488492
-2.26264000 -2.27144098 1.30417049 -0.46575397 -0.58323151 0.60022873
-2.44463205 -2.23506427 1.31463325 -0.50321621 -0.57389116 0.60504413
-1.56422615 -2.44928622 0.79069203 -0.32198870 -0.62889630 0.36390647
-1.75076389 -2.49438500 0.80662423 -0.36038664 -0.64047623 0.37123910
-2.23696947 -3.71943402 1.43488181 -0.46046981 -0.95502859 0.66038704
-2.16173673 -2.41918349 0.80467689 -0.44498348 -0.62116694 0.37034285
-3.04370093 -3.55797410 1.43598592 -0.62653172 -0.91357100 0.66089523
-3.16275191 -2.92950177 1.22845912 -0.65103781 -0.75219989 0.56538349
-1.74974501 -2.88640428 0.73208839 -0.36017692 -0.74113387 0.33693486
-1.90567040 -2.84003353 0.72251046 -0.39227343 -0.72922742 0.33252674
-2.13704109 -2.76155472 0.71253729 -0.43990001 -0.70907664 0.32793671
-2.41946220 -2.84997869 0.73164421 -0.49803510 -0.73178101 0.33673042
-2.65940213 -2.72986150 0.71017140 -0.54742563 -0.70093882 0.32684782
-2.94704151 -2.75216651 0.71632558 -0.60663486 -0.70666605 0.32968020
-2.82827783 -3.52182746 1.68294024 -0.58218789 -0.90428972 0.77455294
-2.07536197 -2.34063697 1.12590027 -0.42720366 -0.60099876 0.51818204
-1.93995416 -2.28980541 1.25664008 -0.39933059 -0.58794689 0.57835346
-3.22263122 -3.16486788 1.59132767 -0.66336370 -0.81263423 0.73238939
-2.24060988 -2.27767086 1.29954135 -0.46121916 -0.58483112 0.59809828
-2.41960764 -2.24038172 1.30859113 -0.49806502 -0.57525653 0.60226327
-1.54373670 -2.45089078 0.78795940 -0.31777105 -0.62930834 0.36264881
-1.72175872 -2.48640561 0.80023676 -0.35441607 -0.63842738 0.36829934
-2.18671966 -3.68766642 1.41691458 -0.45012611 -0.94687170 0.65211785
-2.13746309 -2.42261147 0.80117047 -0.43998688 -0.62204713 0.36872905
-3.03366089 -3.59155083 1.44198084 -0.62446505 -0.92219239 0.66365433
-3.13080406 -3.24315548 1.33366561 -0.64446151 -0.83273590 0.61380351
-3.29894495 -3.09302235 1.29033101 -0.67907256 -0.79418665 0.59385931
-1.70186174 -2.84693694 0.71880168 -0.35032037 -0.73100001 0.33081982
-1.88235080 -2.84384155 0.72034979 -0.38747320 -0.73020518 0.33153230
-2.11846948 -2.77336645 0.71211898 -0.43607712 -0.71210951 0.32774419
-2.37110543 -2.82925105 0.72201079 -0.48808107 -0.72645885 0.33229676
-2.27998519 -3.69827437 1.68931758 -0.46932438 -0.94959551 0.77748805
-2.64761066 -2.75220442 0.71170491 -0.54499841 -0.70667577 0.32755360
-2.94117403 -2.78137922 0.71925300 -0.60542703 -0.71416688 0.33102754
-2.83265066 -3.57333803 1.69930029 -0.58308804 -0.91751593 0.78208250
-2.93526912 -3.33965063 1.61536932 -0.60421157 -0.85751271 0.74345428
-1.92790473 -2.30475068 1.25822294 -0.39685026 -0.59178436 0.57908195
-3.24651313 -3.22903776 1.61369431 -0.66827971 -0.82911092 0.74268335
-2.22242308 -2.28770900 1.29722679 -0.45747548 -0.58740860 0.59703302
-2.40412450 -2.25428176 1.30783594 -0.49487790 -0.57882559 0.60191572
-1.53533208 -2.47203159 0.79178506 -0.31604099 -0.63473660 0.36440954
-1.70829880 -2.50034332 0.80130130 -0.35164541 -0.64200610 0.36878926
-2.17867661 -3.72757125 1.42718160 -0.44847050 -0.95711797 0.65684313
-1.92336118 -2.42384124 0.79444736 -0.39591500 -0.62236291 0.36563483
-2.11579394 -2.42873406 0.79866582 -0.43552637 -0.62361920 0.36757633
-3.02700329 -3.62952161 1.44977438 -0.62309462 -0.93194205 0.66724122
-2.62749457 -2.40236115 0.81277966 -0.54085761 -0.61684752 0.37407205
-3.14322019 -3.29754066 1.34819245 -0.64701730 -0.84670025 0.62048936
-1.70451748 -2.89298677 0.72810239 -0.35086703 -0.74282408 0.33510035
-1.86660004 -2.85886979 0.72121406 -0.38423097 -0.73406392 0.33193007
-2.10217047 -2.78819084 0.71253729 -0.43272206 -0.71591592 0.32793671
-2.36962748 -2.86362767 0.72722888 -0.48777685 -0.73528564 0.33469832
-2.24903917 -3.69978380 1.68341208 -0.46295431 -0.94998306 0.77477014
-2.61547828 -2.75305200 0.70748776 -0.53838408 -0.70689338 0.32561272
-2.92649412 -2.80250978 0.71998489 -0.60240525 -0.71959257 0.33136436
-2.82846904 -3.61470079 1.71068120 -0.58222723 -0.92813653 0.78732044
-2.91793370 -3.36225843 1.61745811 -0.60064316 -0.86331761 0.74441558
-3.23275948 -3.25607800 1.61708319 -0.66544855 -0.83605397 0.74424303
-3.19653749 -2.91448283 1.47612548 -0.65799242 -0.74834353 0.67936897
-2.18643427 -2.27885342 1.28411102 -0.45006737 -0.58513474 0.59099662
-2.36830068 -2.24907279 1.29575181 -0.48750374 -0.57748806 0.59635419
-1.50685716 -2.46021008 0.78468025 -0.31017956 -0.63170123 0.36113963
-1.67949593 -2.49193144 0.79491383 -0.34571645 -0.63984621 0.36584952
-1.90218747 -2.42823505 0.79185897 -0.39155647 -0.62349105 0.36444354
-2.08650136 -2.42592096 0.79315573 -0.42949665 -0.62289691 0.36504036
-2.96390653 -3.60003376 1.42999089 -0.61010641 -0.92437053 0.65813607
-2.61521864 -2.42145014 0.81370574 -0.53833067 -0.62174892 0.37449825
-3.13941002 -3.33541632 1.35574639 -0.64623302 -0.85642546 0.62396592
-1.66207564 -2.86132812 0.71703017 -0.34213057 -0.73469514 0.33000448
-1.84646642 -2.86727071 0.72034979 -0.38008657 -0.73622102 0.33153230
-2.08461046 -2.80134392 0.71253729 -0.42910740 -0.71929318 0.32793671
-2.35533190 -2.88299131 0.72843307 -0.48483416 -0.74025756 0.33525255
-2.22859240 -3.71863842 1.68562663 -0.45874542 -0.95482433 0.77578932
-2.61281729 -2.78525710 0.71170491 -0.53783631 -0.71516263 0.32755360
-2.91166449 -2.82356548 0.72071671 -0.59935266 -0.72499895 0.33170119
-2.83410358 -3.66951036 1.72846377 -0.58338708 -0.94220984 0.79550463
-2.91269445 -3.39896131 1.62650955 -0.59956467 -0.87274170 0.74858141
-3.23453021 -3.29926610 1.62860548 -0.66581309 -0.84714323 0.74954605
-2.16955185 -2.28985071 1.28256798 -0.44659221 -0.58795851 0.59028643
-2.35412264 -2.26390886 1.29575181 -0.48458526 -0.58129752 0.59635419
-1.49530113 -2.47624469 0.78686637 -0.30780080 -0.63581836 0.36214575
-1.66596210 -2.50563097 0.79597837 -0.34293059 -0.64336383 0.36633945
-1.89509451 -2.45089078 0.79548270 -0.39009643 -0.62930834 0.36611134
-2.06111622 -2.42723966 0.78914833 -0.42427123 -0.62323546 0.36319602
-2.56856084 -2.40873456 0.80351913 -0.52872634 -0.61848396 0.36980999
-2.20427012 -2.36277390 0.94608873 -0.45373881 -0.60668278 0.43542594
-3.15995383 -3.07735682 1.25770760 -0.65046185 -0.79016423 0.57884479
-1.65748501 -2.89549375 0.72323060 -0.34118560 -0.74346775 0.33285818
-1.82841444 -2.87881565 0.72034979 -0.37637064 -0.73918539 0.33153230
-2.06696796 -2.81438661 0.71253729 -0.42547578 -0.72264212 0.32793671
-2.31983399 -2.87647676 0.72281361 -0.47752708 -0.73858482 0.33266625
-2.19223452 -3.69703317 1.67086279 -0.45126131 -0.94927680 0.76899445
-2.58903480 -2.78597856 0.70863789 -0.53294080 -0.71534789 0.32614204
-2.87855911 -2.81809735 0.71559370 -0.59253806 -0.72359490 0.32934338
-2.91372132 -3.43258357 1.63625705 -0.59977603 -0.88137484 0.75306761
-3.22155690 -3.31718302 1.62996101 -0.66314256 -0.85174376 0.75016993
-2.14745069 -2.28786731 1.27562428 -0.44204277 -0.58744925 0.58709073
-2.32605004 -2.25831556 1.28593338 -0.47880661 -0.57986134 0.59183532
-1.47483981 -2.46833754 0.78194761 -0.30358896 -0.63378805 0.35988197
-1.64771199 -2.50383472 0.79278463 -0.33917388 -0.64290261 0.36486956
-1.86955130 -2.44129610 0.78927052 -0.38483849 -0.62684470 0.36325225
-2.03207469 -2.41629219 0.78213543 -0.41829318 -0.62042451 0.35996839
-2.28350401 -2.37166619 0.78476638 -0.47004873 -0.60896605 0.36117926
-2.53587174 -2.40087056 0.79657370 -0.52199745 -0.61646479 0.36661345
-2.17892146 -2.35758519 0.93969691 -0.44852090 -0.60535049 0.43248418
-3.12479448 -3.07212567 1.24927056 -0.64322448 -0.78882104 0.57496172
-1.63146448 -2.88113308 0.71747303 -0.33582941 -0.73978043 0.33020833
-1.81377912 -2.88575268 0.71991765 -0.37335804 -0.74096656 0.33133343
-2.05824685 -2.83044934 0.71421045 -0.42368057 -0.72676653 0.32870674
-2.30502200 -2.88585258 0.72241223 -0.47447810 -0.74099225 0.33248153
-2.17268372 -3.71717095 1.67381549 -0.44723690 -0.95444751 0.77035344
-2.58335376 -2.81527090 0.71208829 -0.53177142 -0.72286916 0.32773006
-2.84956932 -2.82511044 0.71266627 -0.58657062 -0.72539562 0.32799608
-2.92478776 -3.48947406 1.65505612 -0.60205400 -0.89598244 0.76171964
-3.27065873 -3.41100240 1.66656101 -0.67324996 -0.87583345 0.76701462
-3.14156699 -2.96540880 1.47414613 -0.64667702 -0.76141965 0.67845798
-2.13552427 -2.30403757 1.27716732 -0.43958777 -0.59160125 0.58780086
-2.31048608 -2.27159595 1.28517818 -0.47560287 -0.58327127 0.59148777
-1.45737243 -2.47422624 0.78085458 -0.29999337 -0.63530010 0.35937890
-1.62452340 -2.50286865 0.78905857 -0.33440062 -0.64265454 0.36315471
-1.33921432 -2.40523696 0.89714581 -0.27567106 -0.61758590 0.41290054
-1.85994875 -2.46073842 0.79185897 -0.38286182 -0.63183689 0.36444354
-2.02807093 -2.44234729 0.78664374 -0.41746899 -0.62711465 0.36204329
-2.25925732 -2.37606359 0.78138542 -0.46505764 -0.61009514 0.35962322
-2.51650000 -2.41274142 0.79518461 -0.51800984 -0.61951280 0.36597413
-2.14741158 -2.35274720 0.93214291 -0.44203472 -0.60410827 0.42900753
-3.06990361 -3.05665588 1.23464632 -0.63192546 -0.78484893 0.56823111
-1.61332965 -2.89132690 0.71747303 -0.33209643 -0.74239784 0.33020833
-1.78626406 -2.88220930 0.71602845 -0.36769420 -0.74005675 0.32954347
-2.02798080 -2.82577443 0.70960921 -0.41745046 -0.72556615 0.32658908
-2.26974201 -2.87883234 0.71679270 -0.46721590 -0.73918968 0.32989520
-2.14192319 -3.71782899 1.66790998 -0.44090497 -0.95461649 0.76763546
-2.55120111 -2.81536937 0.70787114 -0.52515292 -0.72289449 0.32578915
-2.83594632 -2.84711695 0.71376407 -0.58376640 -0.73104620 0.32850131
-2.75140452 -3.69236565 1.71637154 -0.56636387 -0.94807833 0.78993934
-2.19184279 -2.30516553 1.11010492 -0.45118070 -0.59189087 0.51091242
-3.19690371 -3.05518961 1.50977457 -0.65806782 -0.78447241 0.69485557
-2.10121417 -2.29550290 1.26482296 -0.43252522 -0.58940983 0.58211952
-2.27503896 -2.26529479 1.27309406 -0.46830624 -0.58165336 0.58592618
-1.43702686 -2.47498131 0.77812195 -0.29580534 -0.63549399 0.35812125
-1.60771489 -2.51140976 0.78852630 -0.33094066 -0.64484763 0.36290973
-1.31778395 -2.40193176 0.89265400 -0.27125973 -0.61673725 0.41083324
-2.27695894 -3.72728562 1.41394234 -0.46870145 -0.95704460 0.65074992
-1.83529150 -2.45992804 0.78771752 -0.37778625 -0.63162881 0.36253750
-2.00031376 -2.44014692 0.78163451 -0.41175532 -0.62654966 0.35973787
-2.25352144 -2.40017343 0.78476638 -0.46387696 -0.61628574 0.36117926
-2.48865604 -2.41638088 0.79101735 -0.51227832 -0.62044734 0.36405620
-2.13131452 -2.36476350 0.93156189 -0.43872121 -0.60719365 0.42874014
-3.10088038 -3.12606931 1.25545776 -0.63830185 -0.80267203 0.57780933
-1.58955657 -2.89111781 0.71481568 -0.32720286 -0.74234420 0.32898530
-1.77017593 -2.89669609 0.71689272 -0.36438251 -0.74377650 0.32994124
-2.01915383 -2.85128188 0.71295559 -0.41563347 -0.73211563 0.32812923
-2.24312544 -2.88226008 0.71398300 -0.46173698 -0.74006981 0.32860208
-2.54777312 -2.84751105 0.71208829 -0.52444732 -0.73114741 0.32773006
-2.81245804 -2.85930037 0.71230036 -0.57893145 -0.73417449 0.32782766
-2.72484827 -3.70504808 1.71423769 -0.56089741 -0.95133477 0.78895724
-2.98805094 -3.65614676 1.71771920 -0.61507642 -0.93877852 0.79055959
-2.16068625 -2.30095220 1.10129380 -0.44476727 -0.59080899 0.50685722
-3.23624277 -3.13140583 1.53814542 -0.66616559 -0.80404228 0.70791292
-2.07200980 -2.29213643 1.25556481 -0.42651361 -0.58854544 0.57785857
-2.23582554 -2.25471854 1.25874412 -0.46023434 -0.57893771 0.57932180
-1.42333519 -2.48731470 0.77921504 -0.29298696 -0.63866079 0.35862434
-1.58982313 -2.51821566 0.78746170 -0.32725772 -0.64659512 0.36241975
-1.27157605 -2.35160661 0.87019485 -0.26174805 -0.60381538 0.40049669
-2.24263859 -3.72368193 1.40701389 -0.46163678 -0.95611930 0.64756119
-1.81639373 -2.46672153 0.78616446 -0.37389624 -0.63337314 0.36182272
-1.96407068 -2.42721415 0.77311885 -0.40429485 -0.62322897 0.35581863
-2.22791052 -2.40283465 0.78090245 -0.45860505 -0.61696911 0.35940093
-2.46226168 -2.42112207 0.78731316 -0.50684518 -0.62166470 0.36235139
-2.09999371 -2.35941839 0.92400789 -0.43227398 -0.60582119 0.42526349
-3.07712960 -3.14139628 1.25377035 -0.63341290 -0.80660748 0.57703269
-1.57870638 -2.91481304 0.71835881 -0.32496941 -0.74842834 0.33061600
-1.74990511 -2.90442801 0.71602845 -0.36020985 -0.74576181 0.32954347
-1.99897718 -2.86069298 0.71211898 -0.41148019 -0.73453206 0.32774419
-2.25382543 -2.93342733 0.72361636 -0.46393952 -0.75320786 0.33303571
-2.50916266 -2.83981586 0.70595431 -0.51649952 -0.72917151 0.32490698
-2.78617430 -2.86849427 0.71010476 -0.57352108 -0.73653519 0.32681715
-2.95673466 -3.66467023 1.71284544 -0.60863012 -0.94096702 0.78831649
-2.52819347 -3.65410161 1.91827905 -0.52041692 -0.93825340 0.88286483
-2.16524386 -2.33530211 1.11146045 -0.44570541 -0.59962893 0.51153630
-3.19347715 -3.12931800 1.52692902 -0.65736246 -0.80350620 0.70275068
-2.20857334 -2.25557375 1.25119150 -0.45462459 -0.57915729 0.57584584
-1.40114725 -2.48443151 0.77538937 -0.28841966 -0.63792050 0.35686362
-1.56881905 -2.52000690 0.78480023 -0.32293412 -0.64705509 0.36119485
-1.29276371 -2.42837310 0.89650410 -0.26610944 -0.62352651 0.41260523
-1.79298222 -2.46709347 0.78254068 -0.36907709 -0.63346863 0.36015493
-1.94512630 -2.43499207 0.77161610 -0.40039524 -0.62522608 0.35512701
-2.20886397 -2.41246676 0.77945346 -0.45468441 -0.61944228 0.35873407
-2.43868017 -2.42835689 0.78453499 -0.50199103 -0.62352234 0.36107278
-2.10393858 -2.39425015 0.93272400 -0.43308601 -0.61476487 0.42927498
-3.08682775 -3.19088125 1.26614475 -0.63540918 -0.81931359 0.58272785
-1.57488072 -2.95229673 0.72544503 -0.32418191 -0.75805289 0.33387733
-1.74068713 -2.93042183 0.71991765 -0.35831240 -0.75243616 0.33133343
-1.98316503 -2.87642956 0.71295559 -0.40822533 -0.73857272 0.32812923
-2.22580981 -2.93509364 0.72040522 -0.45817265 -0.75363570 0.33155781
-1.32148540 -2.38172483 1.04561222 -0.27202165 -0.61154878 0.48123044
-2.29670739 -3.71613574 1.66712189 -0.47276658 -0.95418173 0.76727277
-2.49383521 -2.85849738 0.70672101 -0.51334441 -0.73396832 0.32525983
-2.76809621 -2.88594365 0.71010476 -0.56979978 -0.74101561 0.32681715
-2.49800801 -3.65929770 1.91264117 -0.51420337 -0.93958753 0.88027006
-2.79873633 -3.67946577 1.95549071 -0.57610691 -0.94476604 0.89999104
-2.15052819 -2.34886050 1.11146045 -0.44267628 -0.60311031 0.51153630
-3.22894740 -3.20359564 1.55398023 -0.66466385 -0.82257825 0.71520066
-2.16844058 -2.24294591 1.23608637 -0.44636345 -0.57591492 0.56889385
-1.38089693 -2.48474455 0.77265674 -0.28425124 -0.63800085 0.35560596
-1.53969705 -2.50854564 0.77788043 -0.31693950 -0.64411217 0.35801008
-1.28008199 -2.44150019 0.89842921 -0.26349896 -0.62689710 0.41349122
-1.76852250 -2.46569180 0.77839923 -0.36404216 -0.63310874 0.35824886
-1.91890895 -2.43355274 0.76710784 -0.39499852 -0.62485647 0.35305214
-2.17556596 -2.40602994 0.77269155 -0.44783017 -0.61778951 0.35562196
-2.40683603 -2.42715096 0.77897865 -0.49543604 -0.62321270 0.35851553
-3.06005740 -3.20330477 1.26333237 -0.62989867 -0.82250357 0.58143348
-1.54823041 -2.94654536 0.72145903 -0.31869605 -0.75657618 0.33204281
-1.71326971 -2.92618799 0.71602845 -0.35266864 -0.75134903 0.32954347
-1.97377741 -2.90182114 0.71630198 -0.40629295 -0.74509245 0.32966936
-2.19431424 -2.93183780 0.71598995 -0.45168942 -0.75279975 0.32952574
-1.30319154 -2.37483597 1.03970671 -0.26825595 -0.60977995 0.47851250
-2.26055861 -3.69679952 1.65331912 -0.46532553 -0.94921678 0.76092023
-2.45482802 -2.84037662 0.69905359 -0.50531501 -0.72931552 0.32173100
-2.75855064 -2.90321136 0.71120256 -0.56783485 -0.74544942 0.32732242
-2.84737754 -3.61040592 1.67176628 -0.58611947 -0.92703378 0.76941031
-2.49193454 -3.68776488 1.92150068 -0.51295316 -0.94689697 0.88434756
-2.76691651 -3.67360449 1.94520187 -0.56955695 -0.94326109 0.89525574
-2.12060809 -2.33794093 1.10129380 -0.43651736 -0.60030651 0.50685722
-3.21381497 -3.21877623 1.55398023 -0.66154891 -0.82647610 0.71520066
-2.18105984 -2.27706313 1.24968100 -0.44896108 -0.58467507 0.57515061
-1.36368525 -2.48106861 0.76937759 -0.28070828 -0.63705701 0.35409677
-1.53190708 -2.52233672 0.78000963 -0.31533599 -0.64765328 0.35899004
-1.27285874 -2.45594621 0.90163761 -0.26201206 -0.63060641 0.41496783
-1.76131546 -2.48032856 0.78046995 -0.36255863 -0.63686699 0.35920188
-1.90741980 -2.44256830 0.76710784 -0.39263353 -0.62717140 0.35305214
-2.18477631 -2.43951583 0.78041947 -0.44972607 -0.62638760 0.35917866
-2.39399981 -2.43708611 0.77851564 -0.49279377 -0.62576371 0.35830244
-2.22704530 -2.36131144 0.91628718 -0.45842695 -0.60630727 0.42171013
-1.52722037 -2.93991852 0.71791595 -0.31437123 -0.75487459 0.33041218
-1.70934963 -2.95106816 0.72034979 -0.35186172 -0.75773746 0.33153230
-1.94383752 -2.88666105 0.71002752 -0.40012994 -0.74119985 0.32678160
-2.19222736 -2.95782208 0.72000384 -0.45125985 -0.75947165 0.33137310
-1.26035130 -2.33044195 1.01608443 -0.25943747 -0.59838104 0.46764061
-2.24407339 -3.72206879 1.65840435 -0.46193212 -0.95570511 0.76326060
-2.45972204 -2.88274503 0.70595431 -0.50632238 -0.74019432 0.32490698
-2.74160767 -2.92191339 0.71156847 -0.56434727 -0.75025147 0.32749081
-2.83274460 -3.63854527 1.67664003 -0.58310735 -0.93425900 0.77165335
-2.44753718 -3.67126441 1.90458703 -0.50381422 -0.94266021 0.87656325
-2.73385930 -3.67769408 1.93807876 -0.56275225 -0.94431114 0.89197737
-3.23081207 -3.27638316 1.57245421 -0.66504771 -0.84126765 0.72370309
-2.15774107 -2.28136182 1.24439418 -0.44416100 -0.58577883 0.57271743
-1.34806943 -2.48958802 0.76937759 -0.27749383 -0.63924450 0.35409677
-1.51402509 -2.52861786 0.77894503 -0.31165504 -0.64926606 0.35850006
-1.24976492 -2.44865346 0.89586246 -0.25725833 -0.62873387 0.41230991
-1.39552069 -2.46004915 0.90312558 -0.28726146 -0.63165987 0.41565266
-1.73910856 -2.48180938 0.77736384 -0.35798743 -0.63724720 0.35777235
-1.89084303 -2.45297909 0.76660693 -0.38922128 -0.62984455 0.35282159
-2.15791559 -2.44003844 0.77607250 -0.44419694 -0.62652183 0.35717803
-2.35546899 -2.42847610 0.77064413 -0.48486239 -0.62355298 0.35467967
-3.00481009 -3.55546212 1.37840831 -0.61852622 -0.91292602 0.63439584
-2.20426369 -2.36687994 0.91291237 -0.45373747 -0.60773712 0.42015693
-1.50345325 -2.93900561 0.71525860 -0.30947888 -0.75464016 0.32918915
-1.68686104 -2.95498967 0.71862125 -0.34723252 -0.75874436 0.33073679
-1.91815329 -2.88736987 0.70709944 -0.39484298 -0.74138182 0.32543400
-2.14912486 -2.93846321 0.71157461 -0.44238740 -0.75450093 0.32749364
-1.27669168 -2.39761329 1.04265940 -0.26280108 -0.61562842 0.47987142
-2.19761324 -3.69775915 1.64096928 -0.45236850 -0.94946319 0.75523633
-2.42271161 -2.87552357 0.70020372 -0.49870396 -0.73834008 0.32226032
-2.72588205 -2.94195271 0.71230036 -0.56111020 -0.75539690 0.32782766
-2.41842890 -3.67736506 1.89975464 -0.49782237 -0.94422668 0.87433916
-2.69211602 -3.66970515 1.92462409 -0.55415964 -0.94225985 0.88578504
-2.23632050 -2.30535293 1.08685207 -0.46033621 -0.59193897 0.50021058
-2.14081883 -2.29218388 1.24288368 -0.44067764 -0.58855760 0.57202226
-1.33240044 -2.49800897 0.76937759 -0.27426845 -0.64140671 0.35409677
-1.49612474 -2.53477383 0.77788043 -0.30797035 -0.65084672 0.35801008
-1.23351705 -2.45475864 0.89522076 -0.25391376 -0.63030148 0.41201457
-1.39504600 -2.49517226 0.91320336 -0.28716376 -0.64067835 0.42029083
-1.71586478 -2.48151302 0.77374005 -0.35320282 -0.63717109 0.35610452
-1.86711550 -2.45407867 0.76310045 -0.38433707 -0.63012689 0.35120779
-2.13620472 -2.44619966 0.77365750 -0.43972784 -0.62810379 0.35606655
-2.34151816 -2.44462490 0.77110720 -0.48199067 -0.62769943 0.35489279
-2.98850942 -3.58164525 1.38131368 -0.61517084 -0.91964895 0.63573295
-2.18150067 -2.37225604 0.90953755 -0.44905180 -0.60911751 0.41860369
-1.49622262 -2.97110844 0.72101617 -0.30799049 -0.76288313 0.33183900
-1.67213142 -2.97231483 0.72034979 -0.34420052 -0.76319289 0.33153230
-1.91803360 -2.92728043 0.71421045 -0.39481834 -0.75162953 0.32870674
-2.16875291 -3.00412345 0.72482055 -0.44642773 -0.77136034 0.33358991
-1.26075089 -2.40393496 1.04192126 -0.25951973 -0.61725163 0.47953171
-2.41083217 -2.89826822 0.70212054 -0.49625865 -0.74418014 0.32314253
-2.70867801 -2.96046567 0.71266627 -0.55756885 -0.76015043 0.32799608
-2.39131927 -3.68632627 1.89653301 -0.49224201 -0.94652760 0.87285644
-2.66792202 -3.68506479 1.92383265 -0.54917938 -0.94620371 0.88542080
-2.12845039 -2.22314525 1.04000735 -0.43813166 -0.57083076 0.47865084
-2.12511015 -2.30423665 1.24212849 -0.43744409 -0.59165233 0.57167464
