-15.61363697 1.80209064 0.69944960 -0.89991075 0.56910372 0.32398558
-15.52112484 1.57275081 1.22747135 -0.89457870 0.49667773 0.56856567
-15.54026699 2.15102124 1.15510511 -0.89568198 0.67929667 0.53504556
-15.48515511 1.71677792 1.76263261 -0.89250553 0.54216176 0.81645274
-15.50222111 2.25727081 1.68478227 -0.89348912 0.71285045 0.78039241
-15.51377106 2.89761734 1.63624775 -0.89415485 0.91507316 0.75791115
-15.50979900 2.66575289 2.15889120 -0.89392591 0.84184986 1.00000000
-15.62068081 1.70352447 0.69923675 -0.90031672 0.53797632 0.32388699
-15.51284695 1.47352600 1.22590148 -0.89410156 0.46534234 0.56783849
-15.53766918 2.05122948 1.15379047 -0.89553225 0.64778221 0.53443658
-15.79987049 2.67396903 1.09315383 -0.91064453 0.84444457 0.50634968
-15.49168682 1.61904109 1.76214802 -0.89288199 0.51129627 0.81622827
-15.93709087 2.21898270 1.73426926 -0.91855341 0.70075899 0.80331481
-15.49254322 2.79308295 1.63177729 -0.89293134 0.88206095 0.75584042
-15.51061916 2.56568646 2.15657926 -0.89397317 0.81024873 0.99892908
-15.52973843 1.37672091 1.22659922 -0.89507514 0.43477112 0.56816167
-15.53838634 1.95205760 1.15280449 -0.89557356 0.61646354 0.53397989
-15.65296364 2.54825807 1.08043504 -0.90217739 0.80474478 0.50045830
-15.50550556 1.52205539 1.76263261 -0.89367843 0.48066801 0.81645274
-15.51164150 2.05991435 1.68270099 -0.89403212 0.65052491 0.77942836
-15.49411869 2.69298339 1.62998903 -0.89302218 0.85044932 0.75501209
-15.45801353 2.45739436 2.14646387 -0.89094120 0.77604985 0.99424362
-15.51425171 1.27718759 1.22450602 -0.89418256 0.40333828 0.56719208
-15.53253460 1.85224175 1.15132546 -0.89523631 0.58494151 0.53329480
-15.61940098 2.44221997 1.07660413 -0.90024292 0.77125776 0.49868384
-15.50289917 1.42352831 1.76117885 -0.89352822 0.44955298 0.81577933
-15.47698402 1.95637107 1.67715108 -0.89203459 0.61782575 0.77685761
-15.55728912 2.37294364 2.15889120 -0.89666307 0.74938017 1.00000000
-16.76007462 1.50727439 0.75861824 -0.96598703 0.47600016 0.35139254
-15.53000355 1.75302899 1.15017509 -0.89509040 0.55360991 0.53276193
-15.60287857 2.33934283 1.07415223 -0.89929068 0.73876899 0.49754810
-15.51153755 1.32609320 1.76117885 -0.89402610 0.41878277 0.81577933
-15.51066399 1.86172080 1.67969477 -0.89397573 0.58793503 0.77803588
-15.91730118 2.56039047 1.67447054 -0.91741276 0.80857623 0.77561599
-15.50334167 2.26522303 2.14877605 -0.89355373 0.71536177 0.99531466
-16.81499290 1.40571022 0.76106590 -0.96915233 0.44392601 0.35252628
-15.50522327 1.08050323 1.22241282 -0.89366215 0.34122500 0.56622255
-15.52287579 1.65349376 1.14869618 -0.89467961 0.52217650 0.53207690
-15.59160328 2.23761201 1.07216024 -0.89864081 0.70664215 0.49662542
-15.50376129 1.25188196 1.75948274 -0.89357793 0.39534673 0.81499368
-15.49361324 1.78561795 1.67668855 -0.89299303 0.56390160 0.77664340
-15.55601120 2.42761087 1.63200080 -0.89658940 0.76664418 0.75594395
-15.69875145 3.04518700 1.55032289 -0.90481639 0.96167594 0.71811068
-15.49032497 2.18884826 2.14530802 -0.89280349 0.69124252 0.99370825
-15.31926060 0.99527735 1.20566702 -0.88294399 0.31431049 0.55846584
-15.54239178 1.58155203 1.14968216 -0.89580441 0.49945718 0.53253365
-15.57826805 2.16085649 1.07032132 -0.89787221 0.68240261 0.49577361
-15.52122116 1.15516877 1.76069427 -0.89458424 0.36480454 0.81555486
-15.51637459 1.68953979 1.67807603 -0.89430487 0.53355992 0.77728605
-15.83636284 2.36918330 1.66217661 -0.91274780 0.74819267 0.76992142
-15.56122112 2.91697288 1.53351784 -0.89688969 0.92118567 0.71032661
-15.47062874 2.67406988 2.07404900 -0.89166826 0.84447640 0.96070105
-17.10122871 1.88429713 0.68214339 -0.98564988 0.59506464 0.31596932
-15.49826431 0.90892613 1.22084284 -0.89326108 0.28704062 0.56549531
-15.54408550 1.48309815 1.14902484 -0.89590204 0.46836525 0.53222919
-15.55990219 2.05878925 1.06786954 -0.89681369 0.65016961 0.49463797
-15.50242138 1.05590379 1.75754440 -0.89350069 0.33345646 0.81409585
-15.50692368 1.58996272 1.67576361 -0.89376020 0.50211328 0.77621496
-15.91784000 2.27912736 1.66977656 -0.91744387 0.71975279 0.77344173
-15.46379662 2.79809833 1.52112424 -0.89127451 0.88364482 0.70458585
-15.39337444 2.56108952 2.06064820 -0.88721561 0.80879700 0.95449376
-15.77053738 1.04565465 0.70413202 -0.90895391 0.33021975 0.32615447
-15.71203327 1.62970257 0.61500520 -0.90558195 0.51466322 0.28487086
-15.54744434 0.81376427 1.22468042 -0.89609563 0.25698832 0.56727290
-15.52530575 1.38289106 1.14672422 -0.89481968 0.43671966 0.53116351
-15.51271343 0.95871872 1.75802898 -0.89409387 0.30276522 0.81432033
-15.51660824 1.49249911 1.67576361 -0.89431834 0.47133410 0.77621496
-15.37054539 2.10301995 1.60607183 -0.88589984 0.66413772 0.74393368
-15.47911358 2.70053744 1.52091408 -0.89215732 0.85283494 0.70448852
-15.48736858 2.47693181 2.07181549 -0.89263308 0.78221983 0.95966649
-15.54552269 0.93296868 0.69178748 -0.89598489 0.29463330 0.32043648
-15.66232014 1.52506411 0.61214823 -0.90271664 0.48161820 0.28354752
-15.52040482 0.71463680 1.22188950 -0.89453721 0.22568367 0.56598014
-15.52971554 1.28498209 1.14639556 -0.89507383 0.40579981 0.53101128
-16.55358505 2.60640693 1.04543424 -0.95408577 0.82310832 0.48424590
-15.52636051 0.86166084 1.75899816 -0.89488047 0.27211416 0.81476927
-15.51776600 1.39425516 1.67483854 -0.89438510 0.44030845 0.77578646
-15.51552010 2.02345181 1.62104797 -0.89425564 0.63900995 0.75087065
-15.48597050 2.60156631 1.51986384 -0.89255250 0.82157964 0.70400208
-15.52415371 2.38290668 2.07488656 -0.89475328 0.75252652 0.96108902
-15.54710293 2.97682238 2.00292420 -0.89607596 0.94008625 0.92775595
-15.63484383 0.83966506 0.69625705 -0.90113300 0.26516783 0.32250679
-15.56639767 0.61871284 1.22555256 -0.89718807 0.19539070 0.56767684
-15.53946972 1.18753576 1.14655983 -0.89563602 0.37502608 0.53108734
-15.56423473 1.76159656 1.06541765 -0.89706337 0.55631560 0.49350223
-16.13375664 2.43597937 1.01429224 -0.92988849 0.76928699 0.46982092
-15.51362038 0.76323485 1.75681758 -0.89414614 0.24103104 0.81375921
-15.51434326 1.29571974 1.67345107 -0.89418781 0.40919077 0.77514374
-15.51609135 1.92447305 1.61970687 -0.89428860 0.60775226 0.75024945
-15.47452831 2.49973822 1.51692295 -0.89189303 0.78942215 0.70263982
-15.51727104 2.28212142 2.07181549 -0.89435655 0.72069836 0.95966649
-15.51091862 2.86905575 1.99541473 -0.89399046 0.90605330 0.92427760
-15.60390091 0.73975688 0.69434148 -0.89934957 0.23361665 0.32161948
-16.82471848 1.42655802 0.66690636 -0.96971285 0.45050976 0.30891153
-15.71136379 0.52544004 1.23793745 -0.90554333 0.16593498 0.57341355
-15.53668404 1.08916569 1.14573824 -0.89547545 0.34396061 0.53070682
-15.56508064 1.66272330 1.06465149 -0.89711213 0.52509123 0.49314734
-15.84275150 2.28993511 0.99245065 -0.91311604 0.72316593 0.45970386
-15.52497864 0.69046289 1.75778675 -0.89480078 0.21804951 0.81420815
-15.53611851 1.22386467 1.67530107 -0.89544284 0.38649881 0.77600068
-15.52498817 1.85133410 1.61970687 -0.89480138 0.58465487 0.75024945
-15.47631359 2.42523646 1.51587260 -0.89199597 0.76589435 0.70215333
-15.48668671 2.20306206 2.06595254 -0.89259380 0.69573122 0.95695072
-15.72240734 3.06193352 1.47411382 -0.90617985 0.96696448 0.68281060
-15.79545593 2.84441113 2.03269362 -0.91039008 0.89827049 0.94154519
-15.63315392 0.66729075 0.69572496 -0.90103561 0.21073170 0.32226032
-16.86510468 1.35000837 0.66852528 -0.97204059 0.42633525 0.30966139
-15.70968151 0.45128715 1.23758852 -0.90544635 0.14251736 0.57325190
-15.54164410 1.01593888 1.14573824 -0.89576131 0.32083544 0.53070682
-15.50131607 1.58216035 1.05913496 -0.89343697 0.49964929 0.49059209
-15.54914284 2.17234802 0.97074991 -0.89619356 0.68603170 0.44965208
-15.53099442 0.59297675 1.75802898 -0.89514750 0.18726321 0.81432033
-15.52567101 1.12490952 1.67321980 -0.89484072 0.35524860 0.77503663
-15.51853657 1.75176859 1.61769509 -0.89442950 0.55321187 0.74931759
-15.46764851 2.32437110 1.51335192 -0.89149654 0.73404086 0.70098573
-15.49629879 2.10517526 2.06539416 -0.89314783 0.66481841 0.95669210
-15.52029991 2.92177057 1.45147479 -0.89453113 0.92270076 0.67232418
-15.46730709 2.68554664 1.98522341 -0.89147681 0.84810078 0.91955698
-15.61508274 0.56828183 0.69455433 -0.89999408 0.17946449 0.32171807
-16.78958321 1.23774600 0.66452557 -0.96768779 0.39088258 0.30780873
-15.72017479 0.35274053 1.23828626 -0.90605116 0.11139613 0.57357514
-15.53578281 0.91754782 1.14475226 -0.89542353 0.28976336 0.53025007
-15.55661297 1.48904276 1.06265938 -0.89662409 0.47024256 0.49222460
-15.55655289 2.07380915 0.97032720 -0.89662063 0.65491295 0.44945627
-15.53044510 0.49526018 1.75754440 -0.89511585 0.15640412 0.81409585
-15.53639603 1.02760470 1.67368233 -0.89545888 0.32451954 0.77525091
-15.53319073 1.65464473 1.61814225 -0.89527410 0.52253997 0.74952471
-15.48391533 2.22742558 1.51356196 -0.89243406 0.70342529 0.70108300
-15.47568512 2.81289005 1.44506371 -0.89195973 0.88831609 0.66935456
-15.42717361 2.57890749 1.97744584 -0.88916367 0.81442398 0.91595435
-15.63231945 0.47056127 0.69529927 -0.90098751 0.14860415 0.32206315
-16.77112007 1.13045228 0.66328758 -0.96662366 0.35699901 0.30723530
-15.54079437 0.25126764 1.22241282 -0.89571238 0.07935081 0.56622255
-15.54323101 0.82002372 1.14491653 -0.89585280 0.25896508 0.53032619
-16.07289124 1.67241538 0.55724341 -0.92638040 0.52815199 0.25811556
-15.55771542 1.39056921 1.06204641 -0.89668763 0.43914443 0.49194068
-15.52531147 0.39747754 1.75657523 -0.89481997 0.12552418 0.81364697
-15.52470016 0.92887580 1.67160118 -0.89478475 0.29334077 0.77428693
-15.52152443 1.55486405 1.61568344 -0.89460170 0.49102905 0.74838579
-15.49169540 2.12927389 1.51293170 -0.89288247 0.67242879 0.70079106
-15.50677776 2.71798563 1.44646621 -0.89375180 0.85834509 0.67000419
-15.48025990 2.48785233 1.98254156 -0.89222336 0.78566855 0.91831470
-15.75519276 3.12708187 1.92079878 -0.90806949 0.98753846 0.88971543
-15.62099075 0.37201720 0.69455433 -0.90033460 0.11748375 0.32171807
-15.65135765 0.95486015 0.60948175 -0.90208483 0.30154666 0.28231239
-15.54405880 0.15363471 1.22258723 -0.89590049 0.04851814 0.56630331
-15.54409504 0.72215700 1.14458787 -0.89590257 0.22805858 0.53017396
-15.70319748 1.53476024 0.54082423 -0.90507269 0.48468024 0.25051019
-15.56614590 1.29279029 1.06204641 -0.89717352 0.40826565 0.49194068
-15.53742695 0.30010062 1.75778675 -0.89551830 0.09477235 0.81420815
-15.54014778 0.83185750 1.67275739 -0.89567512 0.26270220 0.77482247
-15.54088211 1.45822477 1.61680102 -0.89571744 0.46051019 0.74890345
-15.50082397 2.03137326 1.51251161 -0.89340860 0.64151156 0.70059651
-15.49999714 2.61655641 1.44406199 -0.89336097 0.82631356 0.66889060
-15.52301407 2.39473343 1.98629618 -0.89468759 0.75626141 0.92005384
-15.47068691 2.96930432 1.88111448 -0.89167166 0.93771201 0.87133360
-15.63500118 0.27405533 0.69519287 -0.90114206 0.08654720 0.32201385
-15.66702175 0.85706007 0.60995793 -0.90298766 0.27066123 0.28253296
-15.54870224 0.05597525 1.22293603 -0.89616817 0.01767709 0.56646490
-15.54434299 0.62431175 1.14425921 -0.89591688 0.19715886 0.53002173
-15.73243141 1.43785739 0.54168391 -0.90675759 0.45407814 0.25090837
-15.57197285 1.19481051 1.06189322 -0.89750940 0.37732345 0.49186972
-15.31541729 1.74818242 0.95059925 -0.88272250 0.55207938 0.44031829
-15.53106594 0.20237775 1.75681758 -0.89515167 0.06391128 0.81375921
-15.52919388 0.73342955 1.67090738 -0.89504373 0.23161846 0.77396554
-15.54181671 1.35986781 1.61590695 -0.89577127 0.42944887 0.74848932
-15.49552155 1.93170166 1.51062107 -0.89310300 0.61003512 0.69972080
-15.49845028 2.51626873 1.44225895 -0.89327180 0.79464251 0.66805542
-15.50245571 2.29198098 1.98146880 -0.89350265 0.72381198 0.91781783
-15.44613647 2.86402893 1.87551796 -0.89025664 0.90446585 0.86874133
-15.62642956 0.17571369 0.69466078 -0.90064806 0.05549072 0.32176739
-15.65014935 0.75751412 0.60891038 -0.90201515 0.23922442 0.28204775
-15.55073929 -0.04172854 1.22311056 -0.89628553 -0.01317795 0.56654572
-15.54795837 0.52663207 1.14425921 -0.89612526 0.16631143 0.53002173
-15.66947269 1.33297539 0.53858918 -0.90312892 0.42095619 0.24947491
-15.57320499 1.09653354 1.06143355 -0.89758039 0.34628740 0.49165681
-16.78181076 1.81076550 1.05402994 -0.96723986 0.57184321 0.48822746
-15.53383160 0.12920126 1.75705981 -0.89531106 0.04080201 0.81387138
-15.54835510 0.66093779 1.67275739 -0.89614815 0.20872542 0.77482247
-15.54211044 1.28612995 1.61523640 -0.89578819 0.40616232 0.74817872
-15.49458027 1.85746300 1.50957072 -0.89304876 0.58659041 0.69923425
-15.48654270 2.43952131 1.43985474 -0.89258552 0.77040553 0.66694176
-15.85833073 3.10120320 1.36389017 -0.91401398 0.97936594 0.63175493
-15.71904182 2.83842373 1.90935135 -0.90598589 0.89637965 0.88441294
-15.64306164 0.10215776 0.69551212 -0.90160668 0.03226162 0.32216173
-15.65554047 0.68384618 0.60900563 -0.90232587 0.21595994 0.28209186
-15.56033134 -0.11509565 1.22398269 -0.89683843 -0.03634743 0.56694967
-15.54827499 0.45329779 1.14409494 -0.89614350 0.14315231 0.52994561
-15.66761208 1.25849056 0.53824532 -0.90302163 0.39743373 0.24931563
-15.58416843 1.02351892 1.06189322 -0.89821225 0.32322925 0.49186972
-16.77626610 1.73021376 1.05304360 -0.96692026 0.54640484 0.48777059
-15.53235149 0.03159597 1.75681758 -0.89522576 0.00997807 0.81375921
-15.53631973 0.56263626 1.67090738 -0.89545447 0.17768161 0.77396554
-15.54592037 1.18815351 1.61478937 -0.89600784 0.37522116 0.74797165
-15.49606514 1.75893724 1.50852048 -0.89313436 0.55547577 0.69874781
-15.49762821 2.34157944 1.43945408 -0.89322442 0.73947531 0.66675621
-15.77186298 2.98139381 1.35389221 -0.90903026 0.94152993 0.62712389
-15.42589188 2.68510914 1.86890388 -0.88908982 0.84796262 0.86567765
-15.63540554 0.00387655 0.69508642 -0.90116537 0.00122422 0.32196453
-15.65753269 0.58538944 0.60891038 -0.90244073 0.18486711 0.28204775
-15.55480194 0.35569313 1.14442360 -0.89651972 0.11232857 0.53009784
-15.66126060 1.15900970 0.53764361 -0.90265560 0.36601749 0.24903692
-15.58033848 0.92500323 1.06112707 -0.89799154 0.29211780 0.49151483
-16.69150162 1.61543155 1.04627967 -0.96203476 0.51015639 0.48463753
-15.60576534 2.09608698 0.88980174 -0.89945704 0.66194832 0.41215682
-15.53621387 -0.06601873 1.75730217 -0.89544839 -0.02084884 0.81398368
-15.54153347 0.46507022 1.67113864 -0.89575493 0.14687008 0.77407265
-15.55109596 1.09031641 1.61456573 -0.89630610 0.34432402 0.74786806
-15.49296951 1.66003716 1.50705004 -0.89295590 0.52424294 0.69806671
-15.51006508 2.24387693 1.43925369 -0.89394122 0.70862067 0.66666335
-15.52587509 2.83362842 1.32889724 -0.89485246 0.89486533 0.61554617
-15.39160156 2.57954168 1.86228991 -0.88711345 0.81462425 0.86261404
-15.64111233 -0.09440699 0.69540566 -0.90149432 -0.02981391 0.32211241
-15.65291500 0.48674059 0.60852945 -0.90217459 0.15371361 0.28187129
-15.55473614 0.25791740 1.14425921 -0.89651591 0.08145081 0.53002173
-15.58385086 0.82698840 1.06097376 -0.89819396 0.26116452 0.49144384
-16.75893784 1.51580584 1.05036616 -0.96592152 0.47869441 0.48653039
-15.60674763 1.99648821 0.88902003 -0.89951366 0.63049483 0.41179472
-15.55407906 0.36765903 1.67229486 -0.89647806 0.11610743 0.77460819
-15.55565643 0.99246109 1.61434221 -0.89656895 0.31342113 0.74776453
-15.51892376 1.56427622 1.50873053 -0.89445180 0.49400145 0.69884509
-15.50808525 2.14422083 1.43765092 -0.89382714 0.67714906 0.66592097
-15.50023460 2.72837067 1.32482398 -0.89337468 0.86162472 0.61365944
-15.55018425 1.92586958 1.98120058 -0.89625359 0.60819334 0.91769356
-15.45058250 2.48978233 1.86788630 -0.89051288 0.78627807 0.86520630
-15.66617107 -0.19303408 0.69678915 -0.90293860 -0.06096053 0.32275325
-15.67563438 0.38890284 0.60948175 -0.90348405 0.12281626 0.28231239
-15.56202888 0.16024905 1.14475226 -0.89693624 0.05060696 0.53025007
-15.73242950 0.96559334 0.54013658 -0.90675747 0.30493623 0.25019166
-15.59670830 0.72941875 1.06158674 -0.89893502 0.23035185 0.49172777
-16.69656944 1.40437055 1.04529333 -0.96232682 0.44350293 0.48418063
-15.54615116 0.26973796 1.67113864 -0.89602113 0.08518377 0.77407265
-15.57349110 0.89537203 1.61568344 -0.89759690 0.28276020 0.74838579
-15.52052593 1.46597922 1.50789022 -0.89454418 0.46295905 0.69845587
-15.52125168 2.04673910 1.43765092 -0.89458603 0.64636415 0.66592097
-15.51314545 2.63025570 1.32445359 -0.89411879 0.83063984 0.61348790
-15.55213451 1.82698417 1.97985959 -0.89636594 0.57696509 0.91707242
-15.47964191 2.39479566 1.86966705 -0.89218777 0.75628108 0.86603117
-15.65466595 -0.29126436 0.69625705 -0.90227550 -0.09198184 0.32250679
-15.66178989 0.29008618 0.60871994 -0.90268606 0.09160978 0.28195953
-15.56472206 0.06247802 1.14491653 -0.89709145 0.01973068 0.53032619
-15.65837574 0.86243314 0.53669798 -0.90248930 0.27235803 0.24859890
-15.57906437 0.63054949 1.05990112 -0.89791811 0.19912875 0.49094698
-16.73290634 1.30163574 1.04726613 -0.96442115 0.41105908 0.48509446
-15.54157925 0.17198019 1.67044485 -0.89575762 0.05431167 0.77375126
-15.56094456 0.79661268 1.61367166 -0.89687377 0.25157180 0.74745393
-15.52150631 1.36772394 1.50705004 -0.89460069 0.43192986 0.69806671
-15.51603222 1.94696963 1.43584788 -0.89428514 0.61485678 0.66508579
-15.49399471 2.52691674 1.32112098 -0.89301503 0.79800516 0.61194420
-15.57315731 1.73031330 1.98120058 -0.89757764 0.54643625 0.91769356
-15.48261166 2.29572654 1.86814070 -0.89235896 0.72499484 0.86532414
-15.68646717 -0.39050806 0.69806617 -0.90410841 -0.12332319 0.32334477
-15.65531349 0.19156703 0.60833901 -0.90231282 0.06049724 0.28178307
-15.54704762 -0.60372078 1.22380829 -0.89607280 -0.19065619 0.56686890
-15.56680107 -0.03532052 1.14508092 -0.89721131 -0.01115429 0.53040230
-15.69941139 0.76573801 0.53824532 -0.90485448 0.24182154 0.24931563
-16.21508980 1.39025390 0.45779490 -0.93457621 0.43904486 0.21205094
-15.59667015 0.53311020 1.06097376 -0.89893281 0.16835722 0.49144384
-16.65121460 1.18996620 1.04092503 -0.95971274 0.37579361 0.48215723
-15.56009579 0.09887756 1.67252612 -0.89682484 0.03122572 0.77471536
-15.57048225 0.72354388 1.61434221 -0.89742345 0.22849655 0.74776453
-15.51192474 1.29322290 1.50536954 -0.89404845 0.40840229 0.69728827
-15.50329971 1.87123609 1.43364406 -0.89355129 0.59093994 0.66406500
-15.49589825 2.45230603 1.32019520 -0.89312470 0.77444297 0.61151540
-15.55157185 1.65380228 1.97717762 -0.89633352 0.52227396 0.91583014
-15.44417572 2.21563458 1.86178112 -0.89014363 0.69970167 0.86237842
-15.67646790 -0.46417740 0.69764048 -0.90353209 -0.14658812 0.32314759
-15.66003704 0.11782650 0.60852945 -0.90258503 0.03720983 0.28187129
-15.57388496 -0.67831689 1.22642481 -0.89761961 -0.21421377 0.56808090
-15.55649567 -0.10862011 1.14425921 -0.89661735 -0.03430244 0.53002173
-15.65493393 0.68969953 0.53618222 -0.90229094 0.21780844 0.24836001
-16.03621101 1.29858994 0.45099092 -0.92426628 0.41009721 0.20889932
-15.57907581 0.45904568 1.05944145 -0.89791876 0.14496751 0.49073407
-15.54199219 1.03574252 0.96201330 -0.89578140 0.32708949 0.44560528
-16.76519203 1.74287188 0.96224236 -0.96628201 0.55040228 0.44571137
-15.55445004 0.00110108 1.67183232 -0.89649940 0.00034772 0.77439398
-15.57472038 0.62569803 1.61434221 -0.89766771 0.19759664 0.74776453
-15.52569294 1.19619989 1.50599968 -0.89484197 0.37776223 0.69758016
-15.52266026 1.77468348 1.43444550 -0.89466721 0.56044847 0.66443622
-15.48934746 2.35157871 1.31815863 -0.89274716 0.74263310 0.61057204
-15.58335209 1.55819786 1.98012781 -0.89816523 0.49208188 0.91719669
-15.44993210 2.11746526 1.86076355 -0.89047539 0.66869962 0.86190706
-15.68322086 -0.56303692 0.69817257 -0.90392131 -0.17780814 0.32339406
-15.65847111 0.01942483 0.60843420 -0.90249479 0.00613440 0.28182718
-15.58324432 -0.77686906 1.22764575 -0.89815903 -0.24533674 0.56864643
-15.67093945 0.59176058 0.53669798 -0.90321344 0.18687913 0.24859890
-15.93643570 1.18963516 0.44704020 -0.91851562 0.37568906 0.20706935
-15.58165264 0.36115104 1.05944145 -0.89806730 0.11405219 0.49073407
-15.57606983 0.93978798 0.96398610 -0.89774549 0.29678684 0.44651908
-16.70826912 1.63098884 0.95781255 -0.96300119 0.51506943 0.44365948
-15.57834435 0.52782744 1.61434221 -0.89787662 0.16668892 0.74776453
-15.51901531 1.09762573 1.50452924 -0.89445710 0.34663233 0.69689906
-15.50184536 1.67374086 1.43123996 -0.89346749 0.52857059 0.66295141
-15.48411369 2.25131965 1.31630707 -0.89244550 0.71097106 0.60971439
-15.56323147 1.45752108 1.97610486 -0.89700556 0.46028796 0.91533321
-15.88970566 2.07667661 1.91596544 -0.91582227 0.65581846 0.88747662
-15.67737770 -0.66147900 0.69806617 -0.90358448 -0.20889634 0.32334477
-15.65828419 -0.07895998 0.60843420 -0.90248406 -0.02493571 0.28182718
-15.56612110 -0.87407970 1.22659922 -0.89717209 -0.27603605 0.56816167
-15.66835594 0.49310532 0.53644007 -0.90306455 0.15572362 0.24847944
-15.87979317 1.08503938 0.44469905 -0.91525096 0.34265754 0.20598494
-15.59158993 0.26336643 1.06005430 -0.89864004 0.08317163 0.49101794
-15.57768345 0.84168226 0.96370423 -0.89783853 0.26580489 0.44638851
-16.58302307 1.51380396 0.94895291 -0.95578247 0.47806221 0.43955570
-17.35020638 2.22852898 0.90407878 -1.00000000 0.70377374 0.41876996
-15.58290005 -0.72772229 1.76505566 -0.89813918 -0.22981609 0.81757510
-15.56943226 0.42962271 1.61300111 -0.89736295 0.13567568 0.74714333
-15.52560520 1.00009584 1.50452924 -0.89483690 0.31583220 0.69689906
-15.51601601 1.57670462 1.43164062 -0.89428425 0.49792635 0.66313702
-15.49598122 2.15370941 1.31612194 -0.89312953 0.68014556 0.60962868
-15.58195496 1.36055541 1.97744584 -0.89808470 0.42966601 0.91595435
-15.40249348 1.91400671 1.85135126 -0.88774121 0.60444701 0.85754728
-15.69086456 -0.76086295 0.69902390 -0.90436184 -0.24028198 0.32378837
-15.66347122 -0.17740177 0.60871994 -0.90278298 -0.05602382 0.28195953
-15.59213543 -0.97389531 1.22939014 -0.89867145 -0.30755800 0.56945443
-15.68313026 0.39493531 0.53695589 -0.90391606 0.12472133 0.24871837
-15.83244038 0.98183376 0.44272369 -0.91252172 0.31006500 0.20506994
-15.60490131 0.16550834 1.06097376 -0.89940727 0.05226785 0.49144384
-15.57070827 0.74320251 0.96285880 -0.89743650 0.23470478 0.44599691
-16.70159149 1.41873860 0.95611876 -0.96261632 0.44804040 0.44287491
-15.50524807 1.89041078 0.79250968 -0.89366359 0.59699535 0.36709106
-15.59586143 -0.82658643 1.76723635 -0.89888620 -0.26103759 0.81858516
-15.56983757 0.33174950 1.61277759 -0.89738631 0.10476713 0.74703979
-15.53356838 0.90264446 1.50473928 -0.89529586 0.28505686 0.69699633
-15.51769066 1.47843957 1.43083918 -0.89438075 0.46689406 0.66276574
-15.49933815 2.05498195 1.31519616 -0.89332300 0.64896727 0.60919982
-15.56253719 1.26042104 1.97369111 -0.89696556 0.39804339 0.91421521
-15.48709869 1.82588196 1.86076355 -0.89261752 0.57661706 0.86190706
-15.68577385 -0.85943592 0.69902390 -0.90406841 -0.27141151 0.32378837
-15.68402004 -0.27617252 0.60976744 -0.90396732 -0.08721581 0.28244472
-15.58372116 -1.07170439 1.22921574 -0.89818650 -0.33844632 0.56937367
-15.67930889 0.29628268 0.53669798 -0.90369582 0.09356664 0.24859890
-15.78841209 0.87949359 0.44089463 -0.90998411 0.27774578 0.20422272
-15.59167385 0.06741509 1.05990112 -0.89864486 0.02128981 0.49094698
-15.58703041 0.64586598 0.96370423 -0.89837724 0.20396572 0.44638851
-16.74400139 1.31639028 0.95833367 -0.96506065 0.41571859 0.44390085
-15.60010433 1.80268502 0.79750532 -0.89913076 0.56929141 0.36940506
-15.57252502 -0.92348021 1.76505566 -0.89754122 -0.29163682 0.81757510
-15.58552551 0.23410621 1.61434221 -0.89829051 0.07393119 0.74776453
-15.53893280 0.80502701 1.50473928 -0.89560509 0.25422907 0.69699633
-15.52072716 1.38038933 1.43023813 -0.89455575 0.43592960 0.66248739
-15.50009155 1.95604539 1.31408536 -0.89336640 0.61772293 0.60868531
-15.59189224 1.16420960 1.97664130 -0.89865744 0.36765963 0.91558170
-15.49235153 1.72787082 1.86000037 -0.89292032 0.54566491 0.86155355
-15.69999790 -0.95921862 0.70008808 -0.90488827 -0.30292308 0.32428131
-15.71393013 -0.37543413 0.61129117 -0.90569127 -0.11856282 0.28315052
-15.59654522 -1.17111576 1.23096001 -0.89892560 -0.36984062 0.57018161
-15.58723640 -0.59876007 1.14771020 -0.89838910 -0.18908958 0.53162020
-15.67486668 0.19769366 0.53644007 -0.90343976 0.06243204 0.24847944
-15.79761791 0.78047776 0.44104096 -0.91051471 0.24647638 0.20429049
-15.59976673 -0.03057701 1.06051409 -0.89911133 -0.00965628 0.49123091
-15.57283688 0.54726368 0.96243602 -0.89755917 0.17282693 0.44580108
-16.88731194 1.22078168 0.96719337 -0.97332054 0.38552520 0.44800469
-15.66668606 1.71077168 0.80083573 -0.90296829 0.54026496 0.37094769
-15.57453156 0.16055147 1.61300111 -0.89765686 0.05070246 0.74714333
-15.52467442 0.73092759 1.50284874 -0.89478326 0.23082834 0.69612062
-15.51912689 1.30657721 1.42943680 -0.89446354 0.41261959 0.66211617
-15.47751236 1.87910008 1.31112289 -0.89206505 0.59342343 0.60731310
-15.57743168 1.08936501 1.97395933 -0.89782399 0.34402356 0.91433942
-15.49440479 1.65420640 1.85923719 -0.89303863 0.52240157 0.86120003
-15.69928837 -1.03345966 0.70030093 -0.90484738 -0.32636854 0.32437992
-15.70799255 -0.44937074 0.61110067 -0.90534902 -0.14191215 0.28306228
-15.60475445 -1.24572730 1.23218107 -0.89939880 -0.39340308 0.57074720
-15.57826710 -0.67195636 1.14721715 -0.89787215 -0.21220511 0.53139186
-15.67562485 0.12382566 0.53644007 -0.90348351 0.03910438 0.24847944
-15.77316856 0.70473993 0.44001672 -0.90910554 0.22255823 0.20381607
-15.59346676 -0.10404085 1.06005430 -0.89874822 -0.03285630 0.49101794
-15.58720779 0.47425225 0.96328151 -0.89838743 0.14976977 0.44619271
-15.58454514 1.05438387 0.88159353 -0.89823401 0.33297646 0.40835476
-16.68712425 1.74398911 0.86149698 -0.96178246 0.55075514 0.39904603
-15.74162674 -1.10756171 1.78710461 -0.90728760 -0.34977013 0.82778817
-15.58318233 0.06271289 1.61389518 -0.89815545 0.01980485 0.74755746
-15.53094769 0.63345307 1.50305879 -0.89514482 0.20004570 0.69621795
-15.52306175 1.20873868 1.42903614 -0.89469033 0.38172200 0.66193062
-15.49692535 1.78273618 1.31186354 -0.89318395 0.56299150 0.60765618
-15.59979439 0.99245429 1.97610486 -0.89911288 0.31341898 0.91533321
-15.49265099 1.55561554 1.85771084 -0.89293754 0.49126637 0.86049300
-15.69049358 -1.13193393 0.70019454 -0.90434045 -0.35746691 0.32433063
-15.70286274 -0.54799038 0.61100549 -0.90505338 -0.17305642 0.28301820
-15.60455894 -1.34444404 1.23287880 -0.89938754 -0.42457801 0.57107037
-15.58369255 -0.77030265 1.14803886 -0.89818484 -0.24326307 0.53177243
-15.67209721 0.02532974 0.53626817 -0.90328014 0.00799918 0.24839981
-15.72735786 0.60364002 0.43818769 -0.90646517 0.19063067 0.20296887
-15.58851719 -0.20195793 1.05974793 -0.89846295 -0.06377870 0.49087602
-15.57192993 0.37584952 0.96201330 -0.89750689 0.11869400 0.44560528
-15.61676025 0.95799804 0.88328731 -0.90009075 0.30253762 0.40913934
-15.60372639 -1.19626105 1.77111304 -0.89933950 -0.37778154 0.82038087
-15.57333183 -0.03516431 1.61277759 -0.89758772 -0.01110496 0.74703979
-15.53859711 0.53599972 1.50347888 -0.89558572 0.16926974 0.69641250
-15.52042484 1.11048412 1.42803442 -0.89453834 0.35069302 0.66146660
-15.48604679 1.68293655 1.30982685 -0.89255691 0.53147459 0.60671276
-15.58197594 0.89308900 1.97288656 -0.89808589 0.28203923 0.91384250
-15.50606918 1.45861900 1.85821962 -0.89371091 0.46063468 0.86072868
-15.71094322 -1.23272026 0.70168436 -0.90551907 -0.38929543 0.32502070
-15.70909023 -0.64704108 0.61148161 -0.90541232 -0.20433682 0.28323874
-15.61365604 -1.44413781 1.23444879 -0.89991182 -0.45606151 0.57179761
-15.58849621 -0.86874360 1.14886045 -0.89846170 -0.27435091 0.53215301
-15.67594337 -0.07316464 0.53644007 -0.90350187 -0.02310553 0.24847944
-15.72884274 0.50474417 0.43811452 -0.90655077 0.15939918 0.20293497
-15.56799984 0.27788681 0.96159053 -0.89728040 0.08775719 0.44540945
-15.61848545 0.85964262 0.88302672 -0.90019017 0.27147681 0.40901864
-15.55633736 -1.29094267 1.76626706 -0.89660817 -0.40768218 0.81813622
-15.57972240 -0.75808722 1.67691982 -0.89795601 -0.23940541 0.77675050
-15.55159855 0.43865126 1.50452924 -0.89633507 0.13852692 0.69689906
-15.52113819 1.01256430 1.42743337 -0.89457947 0.31976977 0.66118819
-15.50225735 1.58621812 1.31038237 -0.89349121 0.50093073 0.60697007
-15.59123898 0.79536432 1.97342300 -0.89861977 0.25117758 0.91409099
-15.48133659 1.35817218 1.85389507 -0.89228547 0.42891338 0.85872555
-15.69890785 -1.33106744 0.70147157 -0.90482545 -0.42035365 0.32492214
-15.70870590 -0.74591511 0.61167210 -0.90539014 -0.23556143 0.28332698
-15.58670998 -0.96691287 1.14918911 -0.89835876 -0.30535296 0.53230524
-15.68116760 -0.17173082 0.53669798 -0.90380293 -0.05423292 0.24859890
-15.75168324 0.40644893 0.43884614 -0.90786719 0.12835735 0.20327386
-15.59138203 0.18034777 0.96314061 -0.89862806 0.05695417 0.44612744
-15.61759758 0.76120871 0.88263589 -0.90013903 0.24039118 0.40883759
-16.79659081 1.43605185 0.86625475 -0.96809173 0.45350793 0.40124983
-15.56966782 -1.39063096 1.76893234 -0.89737654 -0.43916392 0.81937075
-15.58655453 -0.85660046 1.67830729 -0.89834982 -0.27051607 0.77739316
-15.54609394 0.34074494 1.50368893 -0.89601779 0.10760791 0.69650984
-15.53116703 0.91525167 1.42783403 -0.89515746 0.28903824 0.66137379
-15.48615170 1.48627698 1.30797541 -0.89256299 0.46936914 0.60585517
-15.59394836 0.69730067 1.97315478 -0.89877594 0.22020890 0.91396677
-15.50538063 1.26218224 1.85593021 -0.89367127 0.39859957 0.85966825
-15.69818974 -1.43041492 0.70189720 -0.90478402 -0.45172778 0.32511932
-15.73163891 -0.84606636 0.61300534 -0.90671194 -0.26718938 0.28394452
-15.72701550 -1.65436137 1.24613583 -0.90644544 -0.52245051 0.57721102
-15.59623718 -1.06589389 1.15050375 -0.89890790 -0.33661133 0.53291416
-15.69775963 -0.27058768 0.53747165 -0.90475923 -0.08545211 0.24895726
-15.74593353 0.30730450 0.43855348 -0.90753579 0.09704735 0.20313829
-15.59819317 0.08242074 0.96356332 -0.89902061 0.02602863 0.44632325
-15.62007809 0.66298407 0.88250560 -0.90028197 0.20937164 0.40877724
-16.75155067 1.32616889 0.86304325 -0.96549577 0.41880670 0.39976227
-15.58631039 -1.49092090 1.77208221 -0.89833575 -0.47083569 0.82082981
-15.57293224 -0.95404053 1.67738235 -0.89756465 -0.30128783 0.77696472
-15.53599548 0.24285772 1.50242865 -0.89543575 0.07669494 0.69592607
-15.52866173 0.81724113 1.42703271 -0.89501309 0.25808632 0.66100258
-15.49121761 1.38858509 1.30760515 -0.89285493 0.43851784 0.60568368
-15.60792446 0.59967548 1.97449577 -0.89958149 0.18937866 0.91458791
-15.50904942 1.16443253 1.85542142 -0.89388269 0.36773002 0.85943258
-15.71075535 -1.53117979 0.70306784 -0.90550828 -0.48354954 0.32566154
-15.71803570 -0.94442487 0.61262441 -0.90592790 -0.29825118 0.28376809
-15.60911083 -1.16532433 1.15214705 -0.89964986 -0.36801165 0.53367537
-15.71772289 -0.36975899 0.53841728 -0.90590984 -0.11677060 0.24939528
-15.75754547 0.20850959 0.43891931 -0.90820509 0.06584773 0.20330775
-15.61040020 -0.59489161 1.06219971 -0.89972419 -0.18786791 0.49201170
-15.60837746 -0.01558353 0.96426791 -0.89960760 -0.00492131 0.44664961
-16.57666206 0.84231699 0.38938293 -0.95541584 0.26600534 0.18036246
-15.61396313 0.56448025 0.88185412 -0.89992952 0.17826395 0.40847549
-15.58503723 -1.56495559 1.77280915 -0.89826238 -0.49421600 0.82116652
-15.86563015 -1.04665053 1.71206951 -0.91443467 -0.33053425 0.79303187
-15.55088902 0.16981387 1.50389910 -0.89629418 0.05362755 0.69660717
-15.53631592 0.74424046 1.42743337 -0.89545423 0.23503257 0.66118819
-15.49163723 1.31505620 1.30704963 -0.89287913 0.41529727 0.60542637
-15.60463428 0.52592593 1.97369111 -0.89939183 0.16608842 0.91421521
-15.51634312 1.09147692 1.85567582 -0.89430308 0.34469050 0.85955042
-15.73334789 -1.01975000 0.61357671 -0.90681040 -0.32203901 0.28420919
-15.61338234 -1.23964322 1.15296876 -0.89989609 -0.39148173 0.53405601
-15.71380806 -0.44376364 0.53833133 -0.90568423 -0.14014141 0.24935547
-15.74436283 0.13411462 0.43840715 -0.90744525 0.04235366 0.20307052
-15.60742378 -0.66844702 1.06219971 -0.89955264 -0.21109685 0.49201170
-15.60613632 -0.08912704 0.96412700 -0.89947844 -0.02814649 0.44658434
-16.56247520 0.76338589 0.38881138 -0.95459819 0.24107873 0.18009771
-15.62442875 0.49113560 0.88237530 -0.90053272 0.15510157 0.40871689
-15.79517174 1.07465529 0.80511773 -0.91037369 0.33937821 0.37293112
-15.60845089 -1.66647410 1.77692819 -0.89961183 -0.52627575 0.82307446
-15.59320641 -1.12746370 1.68108225 -0.89873320 -0.35605520 0.77867854
-15.54568291 0.07206658 1.50326884 -0.89599413 0.02275877 0.69631523
-15.53237724 -0.72342974 2.13143563 -0.89522725 -0.22846051 0.98728257
-15.54068565 0.64660889 1.42743337 -0.89570612 0.20420033 0.66118819
-15.61951828 0.42817977 1.97530031 -0.90024972 0.13521999 0.91496056
-15.51695633 0.99357593 1.85491264 -0.89433843 0.31377319 0.85919690
-15.72463703 -1.11844563 0.61348146 -0.90630835 -0.35320729 0.28416505
-15.61918831 -1.33889353 1.15411913 -0.90023071 -0.42282516 0.53458881
-15.71270657 -0.54255855 0.53841728 -0.90562075 -0.17134103 0.24939528
-15.75089073 0.03520902 0.43862665 -0.90782154 0.01111908 0.20317219
-15.61287403 -0.76699966 1.06296587 -0.89986676 -0.24221997 0.49236658
-15.59329891 -0.18705292 0.96328151 -0.89873850 -0.05907167 0.44619271
-16.46507263 0.65537739 0.38557261 -0.94898427 0.20696944 0.17859752
-15.60925007 0.39252722 0.88120270 -0.89965791 0.12396085 0.40817374
-15.48081875 0.95517528 0.78596783 -0.89225560 0.30164620 0.36406088
-15.82449722 -1.79046905 1.80479228 -0.91206390 -0.56543356 0.83598113
-15.57194996 -1.22434390 1.67946351 -0.89750803 -0.38665015 0.77792871
-15.55975151 -0.02561532 1.50473928 -0.89680499 -0.00808937 0.69699633
-15.65202045 -0.82775354 2.14964294 -0.90212303 -0.26140615 0.99571621
-15.54046440 0.54881650 1.42703271 -0.89569336 0.17331731 0.66100258
-15.59613991 0.32952097 1.97181380 -0.89890230 0.10406335 0.91334563
-15.53675461 0.89687943 1.85669339 -0.89547950 0.28323627 0.86002177
-15.74518681 -1.21934724 0.61481476 -0.90749276 -0.38507220 0.28478265
-15.63627338 -1.43934655 1.15625536 -0.90121543 -0.45454842 0.53557831
-15.71697330 -0.64160937 0.53876114 -0.90586662 -0.20262147 0.24955456
-15.74880219 -0.06375128 0.43855348 -0.90770113 -0.02013278 0.20313829
-15.60973740 -0.86519545 1.06311917 -0.89968598 -0.27323040 0.49243760
-15.61176300 -0.28536278 0.96469063 -0.89980274 -0.09011812 0.44684541
-16.39294243 0.54946154 0.38315940 -0.94482696 0.17352101 0.17747971
-15.63335800 0.29482970 0.88263589 -0.90104741 0.09310778 0.40883759
-15.60212326 0.86444455 0.79286653 -0.89924711 0.27299327 0.36725637
-15.77745819 -1.88557541 1.80043101 -0.90935278 -0.59546834 0.83396095
-15.59562492 -1.32480979 1.68316352 -0.89887261 -0.41837749 0.77964258
-15.78615475 -0.70592749 1.63848293 -0.90985399 -0.22293326 0.75894648
-15.60305119 -0.92345226 2.14328480 -0.89930063 -0.29162800 0.99277109
-15.54758358 0.45127293 1.42743337 -0.89610368 0.14251286 0.66118819
-15.46797276 1.01975632 1.30279124 -0.89151520 0.32204100 0.60345387
-15.62366581 0.23187049 1.97530031 -0.90048873 0.07322515 0.91496056
-15.52425385 0.79830188 1.85440385 -0.89475906 0.25210527 0.85896122
-15.73124123 -1.31775987 0.61452901 -0.90668899 -0.41615111 0.28465030
-15.61898518 -1.53679264 1.15559804 -0.90021896 -0.48532206 0.53527385
-15.72660255 -0.74102509 0.53936285 -0.90642166 -0.23401715 0.24983327
-15.76408005 -0.16284655 0.43913877 -0.90858167 -0.05142725 0.20340940
-15.60797310 -0.96350747 1.06342566 -0.89958429 -0.30427751 0.49257955
-16.38008499 0.44603598 0.38265136 -0.94408590 0.14085902 0.17724440
-15.62093258 0.19643977 0.88172382 -0.90033120 0.06203606 0.40841514
-15.59328938 0.76569349 0.79203391 -0.89873797 0.24180748 0.36687070
-15.57907867 -1.42206109 1.68223858 -0.89791894 -0.44908962 0.77921414
-15.62659645 -0.79700261 1.62104797 -0.90065765 -0.25169495 0.75087065
-15.55409145 0.35366160 1.42783403 -0.89647877 0.11168701 0.66137379
-15.48202515 0.92303324 1.30353189 -0.89232510 0.29149568 0.60379696
-15.60301304 0.13354200 1.97235024 -0.89929843 0.04217282 0.91359407
-15.53292656 0.70092905 1.85491264 -0.89525890 0.22135474 0.85919690
-15.73061085 -1.41728234 0.61490995 -0.90665269 -0.44758049 0.28482676
-15.75970364 -1.65048373 1.16808724 -0.90832949 -0.52122593 0.54105890
-15.72562599 -0.84004128 0.53953481 -0.90636533 -0.26528665 0.24991292
-15.75075531 -0.26170757 0.43869981 -0.90781373 -0.08264776 0.20320608
-15.62349415 -1.06307316 1.06511128 -0.90047884 -0.33572054 0.49336034
-16.34059334 0.34228185 0.38131773 -0.94180971 0.10809327 0.17662665
-15.63582802 0.09835703 0.88263589 -0.90118974 0.03106134 0.40883759
-15.60776520 0.66814345 0.79262865 -0.89957231 0.21100099 0.36714616
-15.61531639 -1.52429879 1.68755722 -0.90000755 -0.48137650 0.78167772
-15.65302563 -0.89703161 1.62462437 -0.90218097 -0.28328431 0.75252724
-15.54804802 0.25580549 1.42703271 -0.89613044 0.08078387 0.66100258
-15.46962357 0.82476151 1.30186546 -0.89161032 0.26046127 0.60302502
-15.59958076 0.03549953 1.97181380 -0.89910060 0.01121082 0.91334563
-15.51125622 0.60228521 1.85160565 -0.89400989 0.19020283 0.85766512
-15.76117039 -1.51987600 0.61681461 -0.90841401 -0.47997975 0.28570899
-15.72602081 -0.93919617 0.53979272 -0.90638810 -0.29659995 0.25003240
-15.75679207 -0.36083940 0.43899244 -0.90816164 -0.11395378 0.20334162
-15.62644863 -1.16196907 1.06587744 -0.90064913 -0.36695206 0.49371523
-15.60361099 -0.57956946 0.96469063 -0.89933288 -0.18302915 0.44684541
-16.33442688 0.23949753 0.38106373 -0.94145435 0.07563378 0.17650901
-15.63015079 0.00012067 0.88224500 -0.90086251 0.00003811 0.40865654
-15.58771515 0.56915903 0.79120135 -0.89841670 0.17974152 0.36648506
-15.62377262 -1.59946513 1.68940723 -0.90049493 -0.50511414 0.78253466
-15.86482525 -0.98447841 1.64898872 -0.91438830 -0.31090018 0.76381278
-15.61862659 -0.61468256 2.06427765 -0.90019834 -0.19411793 0.95617491
-15.55107021 0.18255521 1.42723298 -0.89630461 0.05765129 0.66109538
-15.47532654 0.75195301 1.30205071 -0.89193904 0.23746821 0.60311085
-15.59759235 -0.03800447 1.97154558 -0.89898598 -0.01200188 0.91322136
-15.53572941 0.52995616 1.85440385 -0.89542043 0.16736117 0.85896122
-15.72939587 -1.01381695 0.54013658 -0.90658265 -0.32016534 0.25019166
-15.75491714 -0.43508723 0.43899244 -0.90805358 -0.13740139 0.20334162
-15.63868904 -1.23703218 1.06725657 -0.90135467 -0.39065716 0.49435404
-15.60270023 -0.65317386 0.96483159 -0.89928037 -0.20627357 0.44691071
-16.33137512 0.16248618 0.38093671 -0.94127846 0.05131345 0.17645016
-15.62399006 -0.07349844 0.88185412 -0.90050745 -0.02321095 0.40847549
-15.60618687 0.49622595 0.79215288 -0.89948136 0.15670910 0.36692581
-15.47368908 -1.05735004 1.60562479 -0.89184469 -0.33391318 0.74372661
-15.61247826 -0.71271676 2.06399846 -0.89984393 -0.22507733 0.95604563
-15.54594040 0.08481724 1.42663193 -0.89600897 0.02678545 0.66081697
-15.49964142 0.65557212 1.30390215 -0.89334047 0.20703094 0.60396844
-15.59308243 -0.13596591 1.97100925 -0.89872605 -0.04293830 0.91297293
-15.51892376 0.43175483 1.85186005 -0.89445180 0.13634901 0.85778296
-15.74264526 -1.11406326 0.54099619 -0.90734631 -0.35182333 0.25058985
-15.77184868 -0.53472054 0.43972406 -0.90902948 -0.16886577 0.20368052
-15.63458061 -1.33561254 1.06756306 -0.90111786 -0.42178902 0.49449599
-15.63615227 -0.75296909 0.96750891 -0.90120846 -0.23778908 0.44815084
-16.31608200 0.05983188 0.38042867 -0.94039702 0.01889502 0.17621484
-15.64118004 -0.17188551 0.88302672 -0.90149820 -0.05428177 0.40901864
-15.60101414 0.39794621 0.79167712 -0.89918321 0.12567218 0.36670542
-15.58168221 -1.16328430 1.61858928 -0.89806896 -0.36736742 0.74973178
-15.65911674 -0.81340247 2.07125711 -0.90253204 -0.25687405 0.95940781
-15.55611610 -0.01288307 1.42763364 -0.89659548 -0.00406850 0.66128093
-15.51738453 0.55869251 1.30519819 -0.89436311 0.17643617 0.60456878
-15.54909515 0.33487296 1.85542142 -0.89619076 0.10575353 0.85943258
-15.73334312 -1.21279836 0.54091024 -0.90681016 -0.38300407 0.25055003
-15.75220013 -0.63318521 0.43913877 -0.90789700 -0.19996111 0.20340940
-15.63779354 -1.43492925 1.06848252 -0.90130305 -0.45315343 0.49492189
-15.61517429 -0.85035127 0.96638161 -0.89999932 -0.26854256 0.44762868
-16.32013512 -0.04270104 0.38055569 -0.94063061 -0.01348507 0.17627367
-15.64178753 -0.27019495 0.88315701 -0.90153325 -0.08532809 0.40907899
-15.61717796 0.30020171 0.79250968 -0.90011483 0.09480428 0.36709106
-15.60179615 -1.26344526 1.62171865 -0.89922827 -0.39899844 0.75118130
-15.51884079 -0.68420184 1.50200844 -0.89444703 -0.21607226 0.69573140
-15.64776516 -0.91143715 2.07041955 -0.90187776 -0.28783360 0.95901984
-15.55174828 -0.11059062 1.42723298 -0.89634371 -0.03492473 0.66109538
-15.51859856 0.46112174 1.30501306 -0.89443308 0.14562313 0.60448301
-15.52510738 0.23674217 1.85211444 -0.89480823 0.07476363 0.85790080
-15.73536682 -1.31247258 0.54134005 -0.90692681 -0.41448137 0.25074911
-15.77586365 -0.73340946 0.44016305 -0.90926087 -0.23161212 0.20388384
-15.66021824 -1.53631163 1.07093430 -0.90259552 -0.48517016 0.49605757
-15.62147236 -0.94915730 0.96722710 -0.90036231 -0.29974571 0.44802031
-16.29555702 -0.14499857 0.37979361 -0.93921399 -0.04579083 0.17592068
-15.60478210 0.20187183 0.79167712 -0.89940035 0.06375151 0.36670542
-15.61532688 -1.36337852 1.62417734 -0.90000814 -0.43055755 0.75232017
-15.57184505 -0.78452253 1.50810027 -0.89750201 -0.24775372 0.69855314
-15.64765930 -1.01011133 2.07125711 -0.90187168 -0.31899509 0.95940781
-15.52118874 0.36360705 1.30501306 -0.89458239 0.11482780 0.60448301
-15.54215717 0.13935407 1.85414946 -0.89579093 0.04400828 0.85884339
-15.74471951 -1.41294467 0.54211372 -0.90746582 -0.44621065 0.25110748
-15.76495552 -0.83220863 0.43994355 -0.90863216 -0.26281309 0.20378219
-15.63709831 -1.04873061 0.96877712 -0.90126294 -0.33119115 0.44873828
-16.28632927 -0.24725167 0.37953961 -0.93868214 -0.07808255 0.17580302
-15.61572456 0.10390017 0.79227179 -0.90003103 0.03281187 0.36698088
-15.63019562 -1.46371937 1.62685966 -0.90086514 -0.46224540 0.75356257
-15.55667877 -0.88179737 1.50705004 -0.89662790 -0.27847332 0.69806671
-15.53710461 0.26633519 1.30630910 -0.89549971 0.08410916 0.60508335
-15.53875923 0.04168187 1.85364068 -0.89559507 0.01316322 0.85860771
-15.79533195 -0.93332160 0.44126046 -0.91038293 -0.29474476 0.20439216
-15.64412975 -1.14796400 0.96976352 -0.90166825 -0.36252925 0.44919518
-16.28045845 -0.34948537 0.37941259 -0.93834376 -0.11036815 0.17574419
-15.61407280 0.00577893 0.79215288 -0.89993584 0.00182500 0.36692581
-15.64092350 -1.53913319 1.62887144 -0.90148342 -0.48606122 0.75449443
-15.55433655 -0.95521575 1.50726008 -0.89649290 -0.30165896 0.69816399
-15.80742931 -1.19486809 2.09554601 -0.91108018 -0.37734163 0.97065848
-15.53022289 0.19300619 1.30556846 -0.89510304 0.06095172 0.60474026
-15.58802223 -0.60145086 1.97181380 -0.89843440 -0.18993933 0.91334563
-15.53481483 -0.03154014 1.85313189 -0.89536774 -0.00996044 0.85837203
-15.77679539 -1.00687158 0.44074833 -0.90931457 -0.31797197 0.20415495
-15.66241646 -1.22350585 0.97145450 -0.90272218 -0.38638550 0.44997844
-16.31259918 -0.42713290 0.38049218 -0.94019628 -0.13488939 0.17624426
-15.65899563 -0.63981372 0.88498104 -0.90252501 -0.20205441 0.40992388
-15.63588810 -0.06786720 0.79346126 -0.90119320 -0.02143259 0.36753184
-15.67244816 -1.64177895 1.63356543 -0.90330040 -0.51847696 0.75666869
-15.56985760 -1.05437684 1.50957072 -0.89738744 -0.33297423 0.69923425
-15.52913761 0.09540891 1.30538332 -0.89504051 0.03013032 0.60465455
-15.53444004 -0.69709480 1.96510899 -0.89534611 -0.22014388 0.91023993
-15.81601810 -1.10913658 0.44243103 -0.91157520 -0.35026747 0.20493439
-15.65441990 -1.32189083 0.97145450 -0.90226132 -0.41745567 0.44997844
-16.34555626 -0.53083152 0.38163528 -0.94209576 -0.16763762 0.17677374
-15.68257427 -0.73954105 0.88680512 -0.90388399 -0.23354849 0.41076878
-15.63515282 -0.16610840 0.79346126 -0.90115082 -0.05245735 0.36753184
-15.57879543 -1.15333772 1.51125121 -0.89790261 -0.36422628 0.70001268
-15.61881733 -0.79936057 1.97717762 -0.90020931 -0.25243962 0.91583014
-15.78083420 -1.20639205 0.44140679 -0.90954733 -0.38098094 0.20445995
-15.63984394 -1.41969037 0.97103179 -0.90142119 -0.44834095 0.44978264
-16.32991409 -0.63304299 0.38125423 -0.94119424 -0.19991620 0.17659724
-15.67761803 -0.83806235 0.88680512 -0.90359837 -0.26466170 0.41076878
-15.62581539 -0.26421842 0.79298550 -0.90061265 -0.08344068 0.36731148
-15.59305191 -1.25292277 1.51356196 -0.89872432 -0.39567542 0.70108300
-15.55152130 -0.67287505 1.42863548 -0.89633060 -0.21249524 0.66174501
-15.44945431 -0.09933110 1.29797745 -0.89044785 -0.03136895 0.60122412
-15.61546516 -0.89759636 1.97744584 -0.90001613 -0.28346264 0.91595435
-15.79684734 -1.30746913 0.44228470 -0.91047031 -0.41290128 0.20486660
-15.65643215 -1.52040315 0.97286367 -0.90237731 -0.48014623 0.45063117
-16.34158897 -0.73637342 0.38176230 -0.94186711 -0.23254815 0.17683257
-15.68598747 -0.93740195 0.88771713 -0.90408075 -0.29603335 0.41119123
-15.65578270 -0.36309162 0.79488856 -0.90233988 -0.11466503 0.36819297
-15.59874344 -1.35205567 1.51503241 -0.89905232 -0.42698178 0.70176411
-15.56884766 -0.77168638 1.43083918 -0.89732927 -0.24370004 0.66276574
-15.84805107 -1.41194177 0.44447955 -0.91342145 -0.44589391 0.20588326
-16.35460472 -0.83998060 0.38233384 -0.94261730 -0.26526749 0.17709732
-15.68775272 -1.03647733 0.88823831 -0.90418249 -0.32732153 0.41143265
-15.64520931 -0.46122703 0.79441279 -0.90173042 -0.14565638 0.36797258
-15.60974693 -1.45185435 1.51713300 -0.89968652 -0.45849839 0.70273715
-15.57958508 -0.87040114 1.43244195 -0.89794809 -0.27487436 0.66350818
-16.38691902 -0.94495589 0.38354042 -0.94447976 -0.29841888 0.17765620
-15.69088268 -1.13575864 0.88888973 -0.90436286 -0.35867476 0.41173437
-15.63202667 -0.55917513 0.79381806 -0.90097064 -0.17658858 0.36769712
-15.62846851 -1.52787960 1.51986384 -0.90076560 -0.48250732 0.70400208
-15.58524132 -0.94442308 1.43344367 -0.89827412 -0.29825062 0.66397214
-15.54336262 -0.59337503 1.85567582 -0.89586037 -0.18738897 0.85955042
-16.40223503 -1.02343619 0.38417548 -0.94536251 -0.32320312 0.17795037
-15.69928360 -1.21077943 0.88980174 -0.90484709 -0.38236648 0.41215682
-15.65515232 -0.63384914 0.79536432 -0.90230352 -0.20017079 0.36841333
-15.65813065 -1.63011324 1.52406502 -0.90247518 -0.51479292 0.70594805
-15.58495617 -1.04273498 1.43404472 -0.89825767 -0.32929772 0.66425055
-15.66899300 -1.27175951 1.98817360 -0.90310127 -0.40162411 0.92092347
-15.53139973 -0.69068235 1.85465825 -0.89517087 -0.21811882 0.85907906
-16.42738533 -1.12870538 0.38519156 -0.94681209 -0.35644734 0.17842102
-15.69733238 -1.30990207 0.89019263 -0.90473461 -0.41366959 0.41233787
-15.65484905 -0.73238164 0.79560226 -0.90228605 -0.23128754 0.36852357
-15.58603477 -1.14122856 1.43484616 -0.89831984 -0.36040217 0.66462183
-15.50130653 -0.56246704 1.30371702 -0.89343643 -0.17762817 0.60388267
-15.56439877 -0.79011649 1.85949159 -0.89707285 -0.24952030 0.86131787
-15.67289162 -1.40705657 0.88915032 -0.90332597 -0.44435117 0.41185507
-15.66190147 -0.83134830 0.79631591 -0.90269250 -0.26254138 0.36885411
-15.59442425 -1.24041820 1.43644893 -0.89880341 -0.39172646 0.66536421
-15.57108593 -0.66289079 1.31056750 -0.89745826 -0.20934218 0.60705584
-15.57695389 -0.88888818 1.86178112 -0.89779645 -0.28071260 0.86237842
-16.45971870 -1.33899236 0.38671571 -0.94867569 -0.42285636 0.17912701
-15.68757725 -1.50782597 0.89071375 -0.90417236 -0.47617435 0.41257927
-15.66434097 -0.93020093 0.79679167 -0.90283310 -0.29375926 0.36907449
-15.60019970 -1.33958554 1.43785131 -0.89913625 -0.42304370 0.66601378
-15.55865669 -0.76033467 1.30982685 -0.89674187 -0.24011515 0.60671276
-15.72543621 -1.61130702 0.89384073 -0.90635443 -0.50885385 0.41402769
-15.66217232 -1.02886045 0.79702955 -0.90270811 -0.32491612 0.36918467
-15.61921310 -1.44017124 1.44065619 -0.90023214 -0.45480886 0.66731304
-15.56749249 -0.85882664 1.31112289 -0.89725113 -0.27121910 0.60731310
-15.92963314 -1.69720519 2.02867079 -0.91812354 -0.53598064 0.93968183
-15.66734695 -1.12809265 0.79774320 -0.90300637 -0.35625383 0.36951524
