-11.26127148 -19.78197289 0.27979496 -0.88658255 -0.82690257 0.17527078
-11.13786125 -19.32622528 1.05052412 -0.87686664 -0.80785191 0.65807539
-11.50507927 -20.73908424 0.29729655 -0.90577716 -0.86691058 0.18623422
-10.99454784 -19.35759926 1.04818296 -0.86558384 -0.80916339 0.65660882
-10.89120674 -19.45942688 1.05020487 -0.85744792 -0.81341988 0.65787542
-12.57432842 -23.35866165 0.34888405 -0.98995751 -0.97641104 0.21854997
-10.77931690 -19.54672050 1.05137551 -0.84863901 -0.81706882 0.65860873
-12.44602299 -23.47255325 0.34961784 -0.97985619 -0.98117185 0.21900962
-10.63820457 -19.58070374 1.04935348 -0.83752948 -0.81848937 0.65734208
-10.53920937 -19.61829567 1.04860854 -0.82973570 -0.82006073 0.65687543
-11.78332233 -20.89570427 0.16745687 -0.92768282 -0.87345743 0.10489929
-10.43252182 -19.71591759 1.05052412 -0.82133639 -0.82414138 0.65807539
-11.22945595 -19.40596771 0.93079281 -0.88407779 -0.81118524 0.58307260
-10.72313404 -21.09118843 0.29626921 -0.84421581 -0.88162881 0.18559067
-10.29369640 -19.75272751 1.04882145 -0.81040686 -0.82568008 0.65700883
-11.08153057 -19.43104553 0.92831677 -0.87243181 -0.81223351 0.58152157
-10.58861637 -21.15456963 0.29619581 -0.83362544 -0.88427824 0.18554468
-10.14753914 -19.77434921 1.04626739 -0.79890013 -0.82658386 0.65540886
-11.32652664 -21.00149155 0.16582792 -0.89172000 -0.87787944 0.10387889
-10.05096245 -19.89300156 1.04956639 -0.79129678 -0.83154362 0.65747547
-10.76019669 -20.25667572 0.15406895 -0.84713370 -0.84674555 0.09651276
-10.00567532 -20.11676979 1.05914402 -0.78773141 -0.84089732 0.66347510
-10.67881584 -19.57336044 0.92488843 -0.84072673 -0.81818241 0.57937396
-9.84833241 -20.03638268 1.05158830 -0.77534401 -0.83753711 0.65874201
-10.56840801 -19.59007645 0.92307901 -0.83203447 -0.81888115 0.57824051
-10.45262432 -19.67019844 0.92384088 -0.82291901 -0.82223028 0.57871777
-11.20755005 -19.38755798 0.82545096 -0.88235313 -0.81041569 0.51708376
-10.30934048 -19.69833374 0.92184103 -0.81163847 -0.82340640 0.57746500
-11.02527332 -19.35163307 0.82020718 -0.86800277 -0.80891401 0.51379895
-10.36526489 -20.67432022 0.15648691 -0.81604135 -0.86420339 0.09802744
-10.21745777 -19.82484245 0.92517412 -0.80440468 -0.82869452 0.57955295
-10.92885876 -19.46584892 0.82244223 -0.86041218 -0.81368834 0.51519901
-10.16245747 -20.59204865 0.15439983 -0.80007464 -0.86076438 0.09672003
-10.09450531 -19.89221001 0.92536461 -0.79472482 -0.83151054 0.57967228
-10.80247402 -19.52713394 0.82209837 -0.85046214 -0.81625009 0.51498359
-9.98720932 -19.99096870 0.92726922 -0.78627759 -0.83563876 0.58086532
-10.68147755 -19.59813309 0.82227027 -0.84093624 -0.81921792 0.51509130
-10.35719299 -19.68135452 1.57079768 -0.81540585 -0.82269663 0.98398817
-9.90175343 -20.05571556 0.92822152 -0.77954978 -0.83834523 0.58146191
-10.58143425 -19.63417244 0.82158256 -0.83306003 -0.82072437 0.51466048
-11.02531052 -19.36512566 1.43576527 -0.86800569 -0.80947798 0.89940041
-10.55186462 -20.39439392 0.06824866 -0.83073205 -0.85250229 0.04275272
-11.55750847 -20.44747925 -0.08394519 -0.90990484 -0.85472125 -0.05258543
-10.46908474 -19.72145844 0.82261413 -0.82421494 -0.82437301 0.51530671
-11.31998348 -19.51943779 0.68803346 -0.89120483 -0.81592840 0.43100190
-10.88581944 -19.40271378 1.43322885 -0.85702378 -0.81104922 0.89781153
-10.43257809 -20.47811890 0.06842816 -0.82134080 -0.85600203 0.04286516
-11.42100811 -20.50572205 -0.08398191 -0.89915836 -0.85715586 -0.05260843
-10.34404087 -19.78507614 0.82252818 -0.81437039 -0.82703227 0.51525289
-11.10473442 -19.42888451 0.68122941 -0.87425864 -0.81214321 0.42673966
-10.75209332 -19.44978714 1.43153787 -0.84649575 -0.81301695 0.89675224
-10.31892109 -20.57366753 0.06873332 -0.81239277 -0.85999602 0.04305632
-11.28134155 -20.55780029 -0.08403239 -0.88816261 -0.85933280 -0.05264006
-10.21952438 -19.84967804 0.82252818 -0.80456740 -0.82973272 0.51525289
-11.00307178 -19.53482628 0.68276584 -0.86625487 -0.81657165 0.42770213
-10.60482407 -19.47142982 1.42787409 -0.83490145 -0.81392163 0.89445716
-10.24689579 -20.75470924 0.06990009 -0.80672234 -0.86756372 0.04378722
-11.15480900 -20.63355255 -0.08401863 -0.87820095 -0.86249930 -0.05263143
-10.10813236 -19.94024277 0.82381761 -0.79579771 -0.83351839 0.51606059
-10.87428570 -19.59309387 0.68232685 -0.85611576 -0.81900728 0.42742714
-10.55974674 -19.68176270 1.43942904 -0.83135259 -0.82271367 0.90169549
-11.02306271 -20.69970322 -0.08402780 -0.86782873 -0.86526442 -0.05263718
-9.99244213 -20.02303696 0.82476324 -0.78668958 -0.83697921 0.51665294
-10.74712276 -19.65402031 0.68203419 -0.84610444 -0.82155406 0.42724380
-10.39292240 -19.66662216 1.43294704 -0.81821877 -0.82208079 0.89763498
-11.14026928 -19.34556198 1.31923389 -0.87705624 -0.80866021 0.82640213
-10.88999462 -20.76324272 -0.08404157 -0.85735250 -0.86792046 -0.05264581
-9.92179394 -20.11830902 0.82708424 -0.78112757 -0.84096169 0.51810688
-10.65914822 -19.71323395 0.68240005 -0.83917832 -0.82402921 0.42747298
-11.01446533 -19.33711815 1.31467378 -0.86715186 -0.80830729 0.82354558
-10.80309486 -20.83562660 -0.08398650 -0.85051101 -0.87094617 -0.05261131
-10.52660561 -19.76394844 0.68174160 -0.82874346 -0.82614911 0.42706051
-10.92005825 -19.45469666 1.31832182 -0.85971934 -0.81322217 0.82583076
-10.39139175 -20.35470390 -0.08540012 -0.81809825 -0.85084319 -0.05349684
-12.70188713 -22.68103218 -0.22428361 -1.00000000 -0.94808561 -0.14049703
-10.41244888 -19.84915733 0.68254632 -0.81975603 -0.82971090 0.42756462
-10.03802586 -19.81657219 1.43083334 -0.79027832 -0.82834882 0.89631093
-11.21845341 -19.59717178 0.57945442 -0.88321155 -0.81917775 0.36298519
-10.89692974 -19.70289803 1.33174157 -0.85789847 -0.82359719 0.83423728
-10.37666416 -20.64464951 -0.08482182 -0.81693876 -0.86296314 -0.05313458
-12.10370541 -21.93351936 -0.22114475 -0.95290607 -0.91683894 -0.13853078
-10.28201485 -19.90353966 0.68210739 -0.80948716 -0.83198416 0.42728966
-9.92045307 -19.89352608 1.43196058 -0.78102201 -0.83156556 0.89701700
-11.01861095 -19.53140068 0.57450104 -0.86747825 -0.81642842 0.35988227
-10.61848164 -19.48693466 1.31063485 -0.83597672 -0.81456971 0.82101548
-10.12057686 -20.45500565 -0.08547355 -0.79677743 -0.85503590 -0.05354284
-11.97137833 -22.01968384 -0.22118466 -0.94248819 -0.92044067 -0.13855577
-10.14586163 -19.94638252 0.68122941 -0.79876804 -0.83377504 0.42673966
-9.98021412 -20.33138847 1.46155250 -0.78572690 -0.84986860 0.91555417
-10.91215897 -19.62996483 0.57558060 -0.85909748 -0.82054847 0.36055854
-10.51185131 -19.58317566 1.31284976 -0.82758188 -0.81859267 0.82240295
-11.85258770 -22.13150787 -0.22132429 -0.93313599 -0.92511505 -0.13864325
-10.03557682 -20.04010391 0.68247318 -0.79008549 -0.83769262 0.42751878
-10.79819202 -19.71568108 0.57621568 -0.85012501 -0.82413149 0.36095637
-10.56366730 -19.98069000 1.33734405 -0.83166122 -0.83520907 0.83774680
-11.12734985 -19.27266884 1.18775928 -0.87603909 -0.80561322 0.74404305
-11.82759380 -22.33741760 -0.22188957 -0.93116826 -0.93372226 -0.13899735
-9.95967960 -20.12477303 0.68400955 -0.78411025 -0.84123188 0.42848122
-10.69851208 -19.75403595 0.57577115 -0.84227735 -0.82573479 0.36067790
-11.54986286 -19.57732964 0.43013400 -0.90930289 -0.81834829 0.26944703
-10.47031689 -20.03201866 1.33747435 -0.82431191 -0.83735466 0.83782840
-11.01260567 -19.28330612 1.18490458 -0.86700547 -0.80605787 0.74225479
-11.94739246 -22.91158485 -0.22376490 -0.94059980 -0.95772290 -0.14017209
-9.93124485 -20.38811111 0.69220364 -0.78187162 -0.85223961 0.43361419
-10.57794094 -19.82792473 0.57602513 -0.83278501 -0.82882339 0.36083698
-11.41152859 -19.62360191 0.42938456 -0.89841205 -0.82028252 0.26897755
-10.22207165 -19.85951805 1.32001567 -0.80476797 -0.83014399 0.82689184
-10.89220905 -19.35385704 1.18502355 -0.85752684 -0.80900699 0.74232930
-10.76970863 -20.96961975 -0.21623030 -0.84788257 -0.87654716 -0.13545224
-11.25713634 -19.64116669 0.42783570 -0.88625699 -0.82101673 0.26800731
-10.04125500 -19.81292915 1.31193769 -0.79053253 -0.82819659 0.82183158
-10.71123219 -19.31546402 1.17776799 -0.84327883 -0.80740213 0.73778427
-10.74675846 -21.25292587 -0.21703497 -0.84607571 -0.88838959 -0.13595630
-12.69555378 -22.91347122 -0.34641474 -0.99950141 -0.95780176 -0.21700312
-10.83325195 -20.93797874 0.61101663 -0.85288525 -0.87522453 0.38275656
-9.91834736 -19.87920189 1.31219828 -0.78085619 -0.83096683 0.82199484
-10.62034130 -19.43841934 1.18157423 -0.83612311 -0.81254172 0.74016857
-10.53293514 -21.15882301 -0.21643645 -0.82924175 -0.88445604 -0.13558137
-12.55133438 -22.99278641 -0.34641474 -0.98814720 -0.96111715 -0.21700312
-10.72322369 -21.04839897 0.61254072 -0.84422290 -0.87984020 0.38371131
-9.82222557 -20.00027084 1.31649780 -0.77328867 -0.83602762 0.82468820
-10.49136257 -19.49246407 1.18074155 -0.82596880 -0.81480086 0.73964697
-10.59523487 -21.12429619 0.61285824 -0.83414650 -0.88301277 0.38391021
-11.55834675 -23.92297935 1.59635830 -0.90997082 -1.00000000 1.00000000
-10.37430286 -19.56857681 1.18145525 -0.81675285 -0.81798244 0.74009401
-10.39188099 -20.96434975 0.60542816 -0.81813675 -0.87632686 0.37925580
-10.27361679 -19.60133934 1.18038476 -0.80882603 -0.81935191 0.73942345
-9.88546848 -20.25997353 0.57824785 -0.77826768 -0.84688336 0.36222935
-11.14818764 -20.86908722 0.45336705 -0.87767965 -0.87234485 0.28400081
-11.01684475 -20.93872070 0.45336705 -0.86733919 -0.87525558 0.28400081
-10.05005455 -19.77514458 1.18347728 -0.79122531 -0.82661712 0.74136066
-11.12056065 -21.90432549 -0.33343732 -0.87550461 -0.91561860 -0.20887373
-12.22748470 -23.59287262 0.52616394 -0.96265101 -0.98620129 0.32960266
-9.94529533 -19.87716103 1.18609405 -0.78297776 -0.83088148 0.74299991
-11.03018093 -22.06853867 -0.33428124 -0.86838913 -0.92248285 -0.20940238
-10.75740910 -21.08440590 0.45361686 -0.84691423 -0.88134533 0.28415731
-9.84848690 -19.99654388 1.18990028 -0.77535617 -0.83587182 0.74538422
-10.61573029 -21.13372231 0.45311722 -0.83576006 -0.88340676 0.28384432
-10.52225590 -21.19604301 0.45346698 -0.82840097 -0.88601184 0.28406340
-10.04770374 -20.56502724 0.43408114 -0.79104024 -0.85963488 0.27191961
