-23.39797592 2.45692539 0.29381090 -0.94608414 0.89838201 0.15004309
-23.22339058 2.67041445 1.10756445 -0.93902487 0.97644490 0.56560999
-23.08656502 2.27794814 0.28779358 -0.93349242 0.83293843 0.14697017
-23.10865784 2.51032519 1.10054076 -0.93438572 0.91790777 0.56202316
-23.79874039 2.24967122 1.95451367 -0.96228886 0.82259893 0.99812931
-22.91323471 2.11572957 0.28434464 -0.92648393 0.77362275 0.14520887
-22.90739250 2.34312057 1.08894122 -0.92624766 0.85676897 0.55609953
-23.75286102 2.09489536 1.94928062 -0.96043372 0.76600468 0.99545687
-22.74476051 1.95628858 0.28100574 -0.91967171 0.71532267 0.14350376
-22.72535324 2.21651244 1.07861865 -0.91888702 0.81047428 0.55082798
-23.86373711 1.99130344 1.95817685 -0.96491694 0.72812599 1.00000000
-22.59626198 1.83642983 0.27810717 -0.91366726 0.67149597 0.14202352
-22.57771683 2.05913377 1.06999874 -0.91291744 0.75292832 0.54642600
-22.50166130 1.68659174 0.27616253 -0.90984213 0.61670727 0.14103043
-22.43497658 1.90419972 1.06169808 -0.90714580 0.69627625 0.54218704
-22.56169128 1.54855561 0.27707982 -0.91226941 0.56623393 0.14149888
-22.32901764 1.75407851 1.05541933 -0.90286142 0.64138395 0.53898060
-23.40023613 2.73483372 0.98507470 -0.94617552 1.00000000 0.50305706
-22.45348358 1.44929004 1.83153749 -0.90789413 0.52993715 0.93532795
-23.55064964 2.40698576 1.81341422 -0.95225739 0.88012141 0.92607278
-22.67875481 1.41338682 0.27906114 -0.91700286 0.51680905 0.14251070
-22.29178810 1.61033738 1.05286539 -0.90135604 0.58882463 0.53767633
-23.30577087 2.57536864 0.97974175 -0.94235587 0.94169110 0.50033367
-22.63121986 1.31787646 1.84636438 -0.91508079 0.48188540 0.94289970
-23.64069939 2.26625848 1.81965876 -0.95589852 0.82866406 0.92926168
-22.79101181 1.27658772 0.28096905 -0.92154187 0.46678805 0.14348502
-22.37719917 1.47516668 1.05690920 -0.90480959 0.53939903 0.53974146
-23.00956535 2.39612412 0.96479040 -0.93037897 0.87614983 0.49269831
-22.75048256 1.18134153 1.85613275 -0.91990310 0.43196100 0.94788820
-23.12642288 2.06994629 1.77594686 -0.93510407 0.75688195 0.90693897
-22.89045906 1.13784862 0.28265685 -0.92556298 0.41605771 0.14434695
-22.48371887 1.34027338 1.06212378 -0.90911669 0.49007490 0.54240441
-22.83529854 2.23286772 0.95574343 -0.92333257 0.81645465 0.48807821
-22.84503365 1.04229128 1.86380780 -0.92372620 0.38111687 0.95180768
-23.03370285 1.91575003 1.76723731 -0.93135494 0.70049965 0.90249115
-23.01902580 0.99918425 0.28489500 -0.93076152 0.36535466 0.14548993
-22.58550835 1.23947382 1.06723177 -0.91323245 0.45321724 0.54501295
-22.66456985 2.10823536 0.94707733 -0.91642928 0.77088249 0.48365259
-22.39073944 1.75549376 1.71333683 -0.90535712 0.64190143 0.87496531
-23.29884911 2.66391420 1.66381323 -0.94207603 0.97406805 0.84967464
-23.11339951 0.89409822 0.28654608 -0.93457747 0.32692966 0.14633310
-22.70456505 1.10286772 1.07319129 -0.91804647 0.40326682 0.54805636
-22.51019859 1.95114732 0.93907791 -0.91018736 0.71344274 0.47956747
-23.37144661 1.68558788 1.79353023 -0.94501144 0.61634016 0.91591841
-23.07719231 2.49198914 1.64542472 -0.93311346 0.91120315 0.84028405
-23.24447632 0.75282359 0.28885761 -0.93987745 0.27527216 0.14751354
-22.81880188 0.96464896 1.07893789 -0.92266554 0.35272673 0.55099106
-22.36471176 1.79689193 0.93155462 -0.90430468 0.65703881 0.47572547
-22.53831482 1.48247957 1.72385395 -0.91132420 0.54207301 0.88033617
-22.68962669 2.30636477 1.61431730 -0.91744244 0.84332907 0.82439810
-23.34869957 0.60928148 0.29069218 -0.94409168 0.22278556 0.14845042
-22.93618393 0.82517821 1.08489728 -0.92741185 0.30172884 0.55403435
-22.29189110 1.65006590 0.92755491 -0.90136021 0.60335147 0.47368291
-22.63273811 1.34600377 1.73092020 -0.91514218 0.49217024 0.88394475
-23.19507599 2.55182195 0.86593997 -0.93787998 0.93308121 0.44221744
-22.55675888 2.14988804 1.60297763 -0.91206998 0.78611290 0.81860721
-23.46802711 0.46476215 0.29282025 -0.94891661 0.16994165 0.14953718
-23.04672241 0.68409783 1.09053743 -0.93188143 0.25014240 0.55691469
-22.37954712 1.51530397 0.93126893 -0.90490454 0.55407536 0.47557959
-22.79798508 1.21227396 1.74390233 -0.92182386 0.44327155 0.89057446
-22.42282486 1.99517238 1.59163809 -0.90665448 0.72954065 0.81281632
-23.58245468 0.31871673 0.29487494 -0.95354342 0.11653971 0.15058647
-23.18034935 0.54220021 1.09745467 -0.93728453 0.19825710 0.56044716
-22.49430084 1.38124478 0.93631619 -0.90954453 0.50505620 0.47815710
-22.85492706 1.07138467 1.74801052 -0.92412627 0.39175496 0.89267242
-22.35541916 1.84774876 1.58550847 -0.90392894 0.67563480 0.80968606
-23.68597412 0.17118795 0.29674616 -0.95772916 0.06259538 0.15154207
-23.29047585 0.43487900 1.10320127 -0.94173741 0.15901479 0.56338185
-22.58831406 1.28028083 0.94050640 -0.91334593 0.46813846 0.48029697
-22.94535065 0.96735787 1.75507677 -0.92778248 0.35371727 0.89628100
-22.26645470 1.73487973 1.57799983 -0.90033174 0.63436389 0.80585152
-23.32582283 2.71037245 1.52045441 -0.94316667 0.99105567 0.77646428
-23.83449173 0.05981402 0.29946131 -0.96373439 0.02187117 0.15292864
-23.41456795 0.28993562 1.10969281 -0.94675505 0.10601581 0.56669694
-22.70165443 1.14375222 0.94555366 -0.91792876 0.41821638 0.48287448
-22.39825439 1.60351849 1.58734739 -0.90566099 0.58633125 0.81062514
-23.20160675 2.54817295 1.51044953 -0.93814409 0.93174696 0.77135503
-23.95437622 -0.09049784 0.30166277 -0.96858186 -0.03309080 0.15405287
-23.53575706 0.14343955 1.11607790 -0.95165527 0.05244909 0.56995767
-22.81017303 1.00567019 0.95041049 -0.92231667 0.36772627 0.48535478
-22.38842392 1.78958380 0.82828778 -0.90526348 0.65436661 0.42298925
-22.43773651 1.46467686 1.58964598 -0.90725738 0.53556341 0.81179899
-22.84213448 2.36320853 1.48381686 -0.92360902 0.86411417 0.75775427
-24.08930397 -0.24248834 0.30415776 -0.97403759 -0.08866657 0.15532701
-23.66001701 -0.00457221 1.12267590 -0.95667964 -0.00167184 0.57332712
-22.92583466 0.86657828 0.95564818 -0.92699337 0.31686690 0.48802957
-22.42114830 1.65047252 0.82923335 -0.90658665 0.60350013 0.42347214
-23.31725693 2.59995294 0.72088283 -0.94282031 0.95068043 0.36813980
-22.83866310 2.21789002 1.48254859 -0.92346865 0.81097800 0.75710660
-24.21126556 -0.39597163 0.30643260 -0.97896904 -0.14478819 0.15648873
-23.79133034 -0.15419839 1.12969947 -0.96198922 -0.05638310 0.57691389
-23.03265953 0.72581375 0.96050501 -0.93131280 0.26539594 0.49050984
-22.39120102 1.50691736 0.82751411 -0.90537578 0.55100876 0.42259416
-22.77101326 1.19899714 1.61401081 -0.92073327 0.43841684 0.82424158
-22.67930412 2.05850387 1.47028911 -0.91702503 0.75269800 0.75084591
-24.33424377 -0.55104393 0.30874413 -0.98394161 -0.20149083 0.15766917
-23.91969681 -0.30544764 1.13661671 -0.96717966 -0.11168783 0.58044642
-23.15059662 0.58405375 0.96593320 -0.93608147 0.21356097 0.49328190
-22.84980965 1.05916011 1.61952746 -0.92391932 0.38728502 0.82705885
-22.46120453 1.89628911 1.45394313 -0.90820628 0.69338369 0.74249840
-24.47021484 -0.70809364 0.31131250 -0.98943955 -0.25891653 0.15898079
-24.04978180 -0.42057896 1.14364028 -0.97243953 -0.15378593 0.58403319
-23.27891922 0.47764480 0.97193277 -0.94127017 0.17465223 0.49634576
-22.92428398 0.95431274 1.62489080 -0.92693067 0.34894726 0.82979780
-22.35455322 1.78112757 1.44577014 -0.90389395 0.65127456 0.73832458
-23.38956451 2.72090030 1.39910102 -0.94574404 0.99490523 0.71449167
-24.17644119 -0.57487398 1.15055752 -0.97756094 -0.21020436 0.58756566
-23.37933922 0.33284917 0.97659910 -0.94533056 0.12170728 0.49872875
-23.22079659 0.82028085 1.64726353 -0.93892002 0.29993811 0.84122306
-22.28174210 1.63442957 1.43985176 -0.90094984 0.59763396 0.73530221
-23.13836098 2.54466772 1.38151193 -0.93558675 0.93046522 0.70550925
-24.31608009 -0.73120898 1.15821958 -0.98320717 -0.26736870 0.59147853
-23.50482368 0.18703961 0.98250347 -0.95040447 0.06839158 0.50174397
-22.86167717 0.99783117 0.84651214 -0.92439920 0.36485991 0.43229607
-23.12582588 0.67155850 1.63960159 -0.93507993 0.24555734 0.83731025
-22.28360939 1.49385691 1.43928814 -0.90102535 0.54623318 0.73501438
-23.04867172 2.38842559 1.37460661 -0.93196023 0.87333483 0.70198286
-24.45869255 -0.88946974 1.16609454 -0.98897362 -0.32523724 0.59550011
-23.63738441 0.03968655 0.98878872 -0.95576447 0.01451150 0.50495374
-22.96933365 0.85788155 0.85089630 -0.92875224 0.31368691 0.43453497
-22.34767532 1.67643201 0.68240005 -0.90361583 0.61299229 0.34848744
-23.26715088 0.52925116 1.65017509 -0.94079429 0.19352224 0.84270996
-22.48769951 1.36584556 1.45309770 -0.90927762 0.49942544 0.74206662
-23.52703094 2.63810921 0.61419189 -0.95130241 0.96463239 0.31365496
-22.87450218 2.22536898 1.36222923 -0.92491776 0.81371272 0.69566202
-24.59029579 -1.04911733 1.17343748 -0.99429494 -0.38361284 0.59925002
-23.76901627 -0.10932494 0.99507403 -0.96108693 -0.03997499 0.50816351
-24.13136864 -0.46057573 1.85153902 -0.97573847 -0.16841087 0.94554228
-22.97826385 0.71366549 0.85106820 -0.92911333 0.26095387 0.43462273
-22.33583450 1.53445852 0.68159527 -0.90313703 0.56107926 0.34807646
-23.36771584 0.38457268 1.65768373 -0.94486058 0.14062013 0.84654444
-22.71907806 2.06638598 1.35115469 -0.91863328 0.75558013 0.69000643
-23.88971519 -0.25988883 1.00088310 -0.96596736 -0.09502912 0.51113009
-24.21965981 -0.61443591 1.85909820 -0.97930849 -0.22467031 0.94940263
-23.17406273 0.57385606 0.85932076 -0.93703032 0.20983216 0.43883717
-23.48333168 0.23879972 1.66641831 -0.94953543 0.08731782 0.85100502
-22.76013565 1.09576178 1.47127557 -0.92029345 0.40066853 0.75134969
-22.48500252 1.90295064 1.33499885 -0.90916860 0.69581950 0.68175602
-24.02605438 -0.37449479 1.00745416 -0.97148013 -0.13693513 0.51448578
-23.27440071 0.46652150 0.86353296 -0.94108742 0.17058496 0.44098824
-23.61780167 0.12874816 1.67668533 -0.95497268 0.04707715 0.85624814
-22.87865257 0.99352992 1.47930765 -0.92508560 0.36328715 0.75545150
-24.16104126 -0.52834415 1.01402509 -0.97693825 -0.19319059 0.51784140
-23.40674210 0.32194930 0.86912066 -0.94643861 0.11772171 0.44384176
-23.79960823 -0.01995566 1.69062996 -0.96232390 -0.00729684 0.86336941
-23.02200127 0.85499066 1.48903072 -0.93088180 0.31262985 0.76041687
-22.29556274 1.64041865 1.32131851 -0.90150869 0.59982389 0.67476976
-23.25092506 2.58583283 1.25567603 -0.94013822 0.94551736 0.64124751
-24.28704834 -0.68368632 1.02021515 -0.98203331 -0.24999191 0.52100253
-23.53218651 0.17569287 0.87445039 -0.95151085 0.06424262 0.44656354
-23.92264557 -0.17047776 1.70013070 -0.96729887 -0.06233570 0.86822122
-23.03688812 0.71063960 1.48973525 -0.93148375 0.25984746 0.76077664
-22.43287849 1.50875592 1.32965696 -0.90706098 0.55168104 0.67902803
-22.99074364 2.41051292 1.23914289 -0.92961794 0.88141114 0.63280439
-24.43201828 -0.84130353 1.02735746 -0.98789507 -0.30762511 0.52464998
-23.67868996 0.02787975 0.88072580 -0.95743465 0.01019431 0.44976828
-23.20244408 0.56999165 1.50114930 -0.93817794 0.20841913 0.76660556
-22.43683052 1.69903529 0.57691425 -0.90722078 0.62125725 0.29461804
-22.50168037 1.37136543 1.33356571 -0.90984291 0.50144380 0.68102413
-22.84848785 2.25041270 1.22974634 -0.92386591 0.82287002 0.62800574
-24.56997299 -1.00053036 1.03421414 -0.99347317 -0.36584687 0.52815157
-23.80827522 -0.12167211 0.88631344 -0.96267438 -0.04448976 0.45262176
-23.15972328 0.75281769 0.71027446 -0.93645054 0.27527002 0.36272234
-24.05617905 -0.47390357 1.71070421 -0.97269821 -0.17328423 0.87362087
-23.30928993 0.42618304 1.50847673 -0.94249815 0.15583509 0.77034754
-22.38324547 1.55365634 0.57488203 -0.90505409 0.56809902 0.29358023
-22.62543869 1.23616827 1.34112239 -0.91484702 0.45200858 0.68488318
-22.66140175 2.08812642 1.21773303 -0.91630119 0.76352960 0.62187082
-24.71486664 -1.16189241 1.04145181 -0.99933189 -0.42484939 0.53184766
-23.90694046 -0.27248415 0.89061165 -0.96666384 -0.09963463 0.45481676
-24.28794861 -0.63135415 1.72878635 -0.98206967 -0.23085651 0.88285506
-23.43519020 0.28131101 1.51721346 -0.94758886 0.10286219 0.77480924
-23.11917686 1.11705899 1.37291288 -0.93481106 0.40845591 0.70111793
-22.52291107 1.93259275 1.20869339 -0.91070139 0.70665824 0.61725444
-24.04124641 -0.38744387 0.89645720 -0.97209442 -0.14166999 0.45780197
-24.42820930 -0.75032836 1.73981953 -0.98774105 -0.27435976 0.88848948
-23.53400803 0.17167012 1.52411819 -0.95158452 0.06277169 0.77833533
-23.15010452 1.00920761 1.37460661 -0.93606162 0.36901975 0.70198286
-22.34074783 1.81077778 1.19727480 -0.90333569 0.66211623 0.61142325
-24.16818237 -0.54150945 0.90204483 -0.97722703 -0.19800453 0.46065545
-23.68424988 0.02407979 1.53468668 -0.95765948 0.00880484 0.78373241
-22.88075638 0.85370785 1.35662675 -0.92517066 0.31216079 0.69280094
-22.31186867 1.66736007 1.19489586 -0.90216798 0.60967511 0.61020833
-24.30011749 -0.69736224 0.90789038 -0.98256171 -0.25499254 0.46364066
-23.80163765 -0.12525105 1.54300058 -0.96240598 -0.04579842 0.78797817
-23.07118988 0.71551794 1.36874366 -0.93287075 0.26163125 0.69898880
-22.30995560 1.52631009 1.19418228 -0.90209067 0.55809975 0.60984391
-24.44102859 -0.85525191 0.91416574 -0.98825938 -0.31272537 0.46684533
-23.94401550 -0.27633333 1.55314648 -0.96816295 -0.10104210 0.79315943
-22.46126938 1.71262336 0.42503774 -0.90820891 0.62622577 0.21705790
-23.17498970 0.57292289 1.37525809 -0.93706781 0.20949094 0.70231557
-22.45658875 1.39476705 1.20238936 -0.90801966 0.51000071 0.61403513
-24.57691574 -1.01477146 0.92026919 -0.99375391 -0.37105417 0.46996224
-23.90730667 -0.08624086 0.73719782 -0.96667862 -0.03153422 0.37647152
-23.18397903 0.76865476 0.59901410 -0.93743128 0.28106087 0.30590397
-22.42172623 1.56793022 0.42378864 -0.90661001 0.57331830 0.21641999
-23.31382179 0.42968220 1.38411772 -0.94268143 0.15711457 0.70683998
-22.57055092 1.25963259 1.20869339 -0.91262770 0.46058837 0.61725444
-24.72572708 -1.17670846 0.92697442 -0.99977100 -0.43026692 0.47338647
-23.87231827 -0.23614506 0.73595405 -0.96526390 -0.08634714 0.37583634
-24.22386551 -0.58382744 1.57329714 -0.97947854 -0.21347822 0.80344999
-23.42582130 0.28442696 1.39128363 -0.94721007 0.10400155 0.71049947
-22.67372894 1.12261844 1.21440268 -0.91679960 0.41048872 0.62017006
-24.42824554 -0.70377529 1.58795214 -0.98774254 -0.25733751 0.81093395
-23.55063438 0.17484438 1.39936149 -0.95225680 0.06393237 0.71462464
-22.79444122 1.02104366 1.22130132 -0.92168057 0.37334761 0.62369305
-24.17401123 -0.50474167 0.74714774 -0.97746271 -0.18456028 0.38155273
-23.68099213 0.02690488 1.40783036 -0.95752776 0.00983785 0.71894956
-22.90613747 0.88196772 1.22760534 -0.92619693 0.32249409 0.62691242
-24.30822372 -0.66024959 0.75219589 -0.98288953 -0.24142221 0.38413072
-24.63874054 -1.01966023 1.60359359 -0.99625379 -0.37284178 0.81892174
-23.80842018 -0.12265386 1.41616881 -0.96268022 -0.04484874 0.72320783
-23.03693390 0.74218881 1.23509884 -0.93148559 0.27138352 0.63073915
-24.45141792 -0.81778961 0.75760978 -0.98867947 -0.29902717 0.38689548
-23.93290329 -0.27378827 1.42437696 -0.96771365 -0.10011148 0.72739953
-23.15090942 0.60037279 1.24164069 -0.93609416 0.21952808 0.63407993
-24.73139000 -0.98251605 0.76807189 -1.00000000 -0.35925987 0.39223826
-23.74033546 -0.07136294 0.61628753 -0.95992726 -0.02609407 0.31472516
-23.19306564 0.78226322 0.44202533 -0.93779874 0.28603685 0.22573310
-23.27797890 0.45744053 1.24901521 -0.94123214 0.16726448 0.63784599
-24.69677544 -1.13662410 0.76704764 -0.99860036 -0.41560996 0.39171520
-23.90532684 -0.22220880 0.62155849 -0.96659857 -0.08125130 0.31741694
-23.39218330 0.31276450 1.25567603 -0.94584990 0.11436326 0.64124751
-24.28178215 -0.34047049 0.63356102 -0.98182034 -0.12449404 0.32354638
-24.38940620 -0.70100504 1.45473433 -0.98617208 -0.25632456 0.74290240
-23.51717186 0.20370756 1.26305056 -0.95090377 0.07448627 0.64501351
-23.46299934 0.38591880 0.44852060 -0.94871330 0.14111234 0.22905010
-24.47227669 -0.85738087 1.46046698 -0.98952287 -0.31350383 0.74582994
-23.62579727 0.05629143 1.26947355 -0.95529598 0.02058313 0.64829361
-24.70520782 -0.65735459 0.64721465 -0.99894136 -0.24036364 0.33051899
-24.55214882 -1.01474154 1.46606946 -0.99275249 -0.37104324 0.74869102
-23.75944519 -0.09256056 1.27744269 -0.96069998 -0.03384504 0.65236330
-23.89015579 -0.24307118 1.28529298 -0.96598518 -0.08887970 0.65637225
-23.93795586 -0.05711561 0.46031198 -0.96791792 -0.02088449 0.23507170
-23.98397636 -0.39466715 1.29100227 -0.96977872 -0.14431120 0.65928787
-23.94912148 -0.20761392 0.46061176 -0.96836942 -0.07591464 0.23522480
-24.12872505 -0.54858774 1.29980409 -0.97563159 -0.20059273 0.66378278
-24.59487343 -0.67476434 1.32775593 -0.99448001 -0.24672957 0.67805719
-24.34471703 -0.82121027 1.31312585 -0.98436511 -0.30027795 0.67058593
-24.57647324 -0.98345852 1.32728016 -0.99373603 -0.35960451 0.67781425
-24.47115326 -0.78854167 0.47395203 -0.98947746 -0.28833258 0.24203740
-24.67750740 -1.14275503 1.33370304 -0.99782127 -0.41785175 0.68109429
