2.78557944 -4.89143276 1.36629200 0.55033648 -0.72769451 0.49581200
2.46686745 -4.89615965 1.27025127 0.48736978 -0.72839773 0.46095988
2.94589043 -4.93331289 1.70962095 0.58200854 -0.73392498 0.62040222
2.57110453 -4.85879564 1.57606673 0.50796348 -0.72283912 0.57193685
4.66373253 -5.05093431 1.16396284 0.92139620 -0.75142342 0.42238900
4.20147467 -5.03098345 1.07389700 0.83006960 -0.74845535 0.38970512
4.83717442 -4.99354172 1.54434848 0.95566243 -0.74288517 0.56042665
4.34916973 -4.98403454 1.42948472 0.85924917 -0.74147081 0.51874393
3.68858552 -5.00684023 0.97251159 0.72874004 -0.74486357 0.35291350
3.29679346 -4.98385859 0.87865204 0.65133512 -0.74144465 0.31885293
3.80600715 -4.95190334 1.30149853 0.75193858 -0.73669064 0.47229916
3.44635034 -4.98011875 1.20649016 0.68088251 -0.74088824 0.43782169
4.36591005 -5.13436031 0.68368435 0.86255652 -0.76383466 0.24810135
4.08024073 -5.10770369 0.62219840 0.80611789 -0.75986898 0.22578880
4.12209368 -4.87825775 2.45387769 0.81438661 -0.72573447 0.89048457
2.96585822 -4.93575907 1.09047759 0.58595353 -0.73428887 0.39572203
2.64643812 -4.95458698 1.01126468 0.52284688 -0.73708993 0.36697656
3.72561312 -5.10724354 0.57226783 0.73605543 -0.75980049 0.20766956
3.59837222 -4.87244320 2.26905584 0.71091694 -0.72486943 0.82341480
3.46056390 -5.08655453 0.51114303 0.68369067 -0.75672263 0.18548805
3.20926452 -4.86482573 2.12851119 0.63404238 -0.72373617 0.77241272
3.81533313 -5.07452345 0.78784436 0.75378108 -0.75493276 0.28589985
3.73007870 -4.81761646 2.64395523 0.73693770 -0.71671289 0.95946157
3.59114456 -5.12193060 0.74262607 0.70948899 -0.76198548 0.26949063
3.18583202 -5.12240076 0.46878004 0.62941289 -0.76205540 0.17011499
2.74108887 -4.81053114 1.95868361 0.54154664 -0.71565884 0.71078426
3.57219243 -6.19322395 0.52627891 0.70574468 -0.92136091 0.19098069
2.44139791 -4.84835434 1.86144030 0.48233786 -0.72128576 0.67549574
3.25624418 -5.07386923 0.67671126 0.64332396 -0.75483543 0.24557090
2.87793112 -4.83315754 2.31563187 0.56858206 -0.71902496 0.84031671
2.98493648 -4.99905014 0.60765553 0.58972275 -0.74370468 0.22051135
2.53655005 -4.81055021 2.18166947 0.50113672 -0.71566164 0.79170328
4.64565229 -4.95257282 1.89412236 0.91782415 -0.73679024 0.68735570
4.17139864 -4.92981672 1.74825037 0.82412761 -0.73340487 0.63442039
4.92931175 -5.61236382 0.51560485 0.97386569 -0.83494681 0.18710719
4.33341074 -4.88720846 2.13198328 0.85613573 -0.72706604 0.77367270
3.64874506 -4.92472029 1.60772562 0.72086889 -0.73264664 0.58342552
3.23821592 -4.88188076 1.48091996 0.63976222 -0.72627348 0.53740919
3.99080157 -5.13720560 2.07193851 0.78844774 -0.76425791 0.75188315
3.39407158 -4.86505270 1.82865751 0.67055404 -0.72376996 0.66359919
2.82309771 -4.88557243 1.36967289 0.55774885 -0.72682267 0.49703887
2.50726128 -4.89965200 1.27534461 0.49535024 -0.72891730 0.46280819
2.98181534 -4.92287302 1.71252632 0.58910608 -0.73237187 0.62145650
2.61060286 -4.85948563 1.58169138 0.51576704 -0.72294176 0.57397801
4.72237492 -5.05023527 1.17082977 0.93298197 -0.75131941 0.42488095
4.25584173 -5.03165817 1.07989693 0.84081072 -0.74855572 0.39188245
4.87256336 -4.96721506 1.54567719 0.96265411 -0.73896855 0.56090885
4.40488291 -4.98448658 1.43769526 0.87025625 -0.74153805 0.52172345
3.73420525 -5.00250483 0.97634590 0.73775297 -0.74421859 0.35430494
3.36419487 -5.01735735 0.88861579 0.66465139 -0.74642819 0.32246867
3.86962295 -4.96945095 1.31279254 0.76450694 -0.73930120 0.47639763
3.51452160 -5.01142645 1.21973610 0.69435090 -0.74554586 0.44262850
4.42928505 -5.14283657 0.68949944 0.87507725 -0.76509565 0.25021160
4.14835310 -5.12686396 0.62890458 0.81957459 -0.76271939 0.22822239
3.01530647 -4.94713211 1.09737825 0.59572279 -0.73598087 0.39822620
2.68775725 -4.95691156 1.01528990 0.53101015 -0.73743576 0.36843726
3.77186704 -5.10286760 0.57495010 0.74519366 -0.75914949 0.20864291
3.63229012 -4.85421658 2.27118969 0.71761799 -0.72215790 0.82418919
3.50931001 -5.08932734 0.51429397 0.69332123 -0.75713509 0.18663149
3.26568747 -4.88361883 2.14591765 0.64518964 -0.72653204 0.77872938
3.86640954 -5.07557821 0.79246843 0.76387209 -0.75508970 0.28757787
3.77956343 -4.81850767 2.65764713 0.74671417 -0.71684551 0.96443021
3.61412072 -5.08632088 0.74039257 0.71402830 -0.75668788 0.26868013
3.21795392 -5.10228252 0.46878004 0.63575912 -0.75906247 0.17011499
2.77410340 -4.79808998 1.96071684 0.54806924 -0.71380800 0.71152204
3.56199026 -6.08629894 0.51720667 0.70372909 -0.90545380 0.18768847
2.46327853 -4.81607723 1.85484242 0.48666072 -0.71648395 0.67310143
3.30544400 -5.07983112 0.68100232 0.65304422 -0.75572240 0.24712807
2.92839527 -4.84807539 2.33183384 0.57855207 -0.72124428 0.84619623
3.03570056 -5.01250410 0.61248887 0.59975201 -0.74570620 0.22226532
2.56932902 -4.79942560 2.18393517 0.50761271 -0.71400666 0.79252547
4.70592022 -4.95388556 1.90614581 0.92973107 -0.73698556 0.69171888
4.24353743 -4.95194721 1.76581597 0.83837980 -0.73669720 0.64079475
4.43607235 -4.94061422 2.16788530 0.87641823 -0.73501116 0.78670114
3.67146158 -4.89090967 1.60410178 0.72535694 -0.72761667 0.58211046
3.29354644 -4.89848042 1.49244118 0.65069366 -0.72874296 0.54159009
4.10214996 -5.21196032 2.11323214 0.81044644 -0.77537912 0.76686817
3.44211125 -4.86861897 1.83824956 0.68004507 -0.72430050 0.66708004
2.86953998 -4.89446974 1.37740088 0.56692427 -0.72814631 0.49984327
2.55135918 -4.90974808 1.28228998 0.50406247 -0.73041928 0.46532860
3.01873255 -4.91380262 1.71601284 0.59639966 -0.73102248 0.62272173
2.64290953 -4.84636402 1.58281636 0.52214974 -0.72098964 0.57438624
4.77711535 -5.04471779 1.17666662 0.94379681 -0.75049859 0.42699906
4.31166077 -5.03334904 1.08623004 0.85183871 -0.74880725 0.39418066
4.44390154 -4.96546602 1.44028807 0.87796497 -0.73870838 0.52266431
3.78111172 -4.99936390 0.98049980 0.74702007 -0.74375135 0.35581234
3.41445231 -5.02398205 0.89374864 0.67458057 -0.74741375 0.32433131
3.90685153 -4.95269728 1.31488407 0.77186203 -0.73680878 0.47715661
3.50413966 -4.93001556 1.20488465 0.69229978 -0.73343444 0.43723908
4.47569180 -5.14730930 0.69361854 0.88424569 -0.76576108 0.25170636
4.17371845 -5.10880041 0.62913585 0.82458591 -0.76003212 0.22830631
3.04479766 -4.94287395 1.09967852 0.60154927 -0.73534739 0.39906096
2.71859932 -4.95801067 1.01821733 0.53710347 -0.73759925 0.36949959
3.81019950 -5.10410261 0.57763243 0.75276685 -0.75933325 0.20961630
3.67663121 -4.86530924 2.28470469 0.72637826 -0.72380811 0.82909364
3.53891087 -5.08091307 0.51534426 0.69916940 -0.75588334 0.18701263
3.30015039 -4.88530493 2.15357661 0.65199834 -0.72678286 0.78150868
3.91451716 -5.08859682 0.79824859 0.77337652 -0.75702643 0.28967541
3.81135893 -4.81209421 2.66409039 0.75299591 -0.71589136 0.96676838
3.64839435 -5.08374786 0.74290526 0.72079962 -0.75630504 0.26959196
3.26561451 -5.12390089 0.47318766 0.64517522 -0.76227862 0.17171447
2.80432653 -4.79793262 1.96613908 0.55404031 -0.71378458 0.71348971
3.64108205 -6.15528870 0.52646405 0.71935493 -0.91571730 0.19104788
2.50834131 -4.84809875 1.87199688 0.49556360 -0.72124773 0.67932659
3.33372283 -5.07080793 0.68207508 0.65863115 -0.75437999 0.24751736
2.96378112 -4.85465097 2.34186363 0.58554316 -0.72222251 0.84983593
3.07061481 -5.01679420 0.61528707 0.60664988 -0.74634445 0.22328074
2.60855436 -4.81826925 2.19828510 0.51536232 -0.71681005 0.79773289
4.76527691 -4.96903896 1.92090189 0.94145793 -0.73923993 0.69707370
4.28065062 -4.94797611 1.77167118 0.84571213 -0.73610640 0.64291954
4.37418032 -4.82516241 2.12568450 0.86419046 -0.71783555 0.77138698
3.72025585 -4.90733719 1.61549079 0.73499703 -0.73006058 0.58624345
3.32633495 -4.89735460 1.49694943 0.65717155 -0.72857547 0.54322612
4.13973713 -5.20891666 2.12001157 0.81787235 -0.77492630 0.76932836
3.48487926 -4.88036251 1.84904051 0.68849456 -0.72604758 0.67099601
2.90551376 -4.90255213 1.38367975 0.57403147 -0.72934872 0.50212181
2.57986093 -4.90802383 1.28506815 0.50969344 -0.73016274 0.46633676
3.04997563 -4.91250134 1.72066140 0.60257226 -0.73082888 0.62440866
2.68413067 -4.86753702 1.59406579 0.53029364 -0.72413957 0.57846850
4.81858826 -5.04061365 1.18113017 0.95199043 -0.74988800 0.42861885
4.36361027 -5.04587746 1.09356320 0.86210215 -0.75067109 0.39684176
4.50900078 -4.99096394 1.45411646 0.89082640 -0.74250168 0.52768248
3.83110404 -5.01592350 0.98752940 0.75689691 -0.74621487 0.35836330
3.47706342 -5.06501389 0.90431631 0.68695039 -0.75351804 0.32816622
3.95216870 -4.96169758 1.32241333 0.78081518 -0.73814774 0.47988892
3.56031346 -4.95971632 1.21652496 0.70339781 -0.73785299 0.44146320
4.53032494 -5.14434814 0.69773757 0.89503932 -0.76532054 0.25320110
4.23980379 -5.12390518 0.63537955 0.83764219 -0.76227921 0.23057209
4.47840977 -5.11989450 2.61587811 0.88478267 -0.76168257 0.94927269
3.08834410 -4.94357872 1.10427904 0.61015260 -0.73545223 0.40073043
2.75539732 -4.95116043 1.02041292 0.54437351 -0.73658013 0.37029636
3.86506915 -5.11010647 0.58187938 0.76360726 -0.76022643 0.21115747
3.74821329 -4.89540720 2.31031156 0.74052048 -0.72828579 0.83838606
3.60273123 -5.10417938 0.52122605 0.71177810 -0.75934464 0.18914707
3.31602550 -4.84276438 2.14382887 0.65513474 -0.72045416 0.77797139
3.96106958 -5.08258629 0.80171669 0.78257370 -0.75613225 0.29093397
3.87142777 -4.82507801 2.68503118 0.76486349 -0.71782297 0.97436756
3.68838120 -5.07196236 0.74485952 0.72869968 -0.75455177 0.27030113
3.30751491 -5.11829090 0.47499076 0.65345335 -0.76144403 0.17236879
2.84407353 -4.79636765 1.97291684 0.56189299 -0.71355176 0.71594930
3.64399266 -6.07242298 0.51998389 0.71992999 -0.90338945 0.18869630
2.52829051 -4.81214666 1.86407948 0.49950489 -0.71589917 0.67645347
3.38982058 -5.08596325 0.68797535 0.66971415 -0.75663465 0.24965851
3.01278734 -4.86567497 2.35652232 0.59522510 -0.72386253 0.85515541
3.11456013 -5.01767063 0.61833972 0.61533201 -0.74647480 0.22438852
2.64054847 -4.80503654 2.19979548 0.52168328 -0.71484143 0.79828101
4.83135796 -4.97478151 1.93511152 0.95451331 -0.74009424 0.70223016
4.35216570 -4.96750927 1.78870463 0.85984111 -0.73901236 0.64910078
4.54002285 -4.94622993 2.19244981 0.89695531 -0.73584664 0.79561538
3.76519704 -4.90220404 1.62170303 0.74387586 -0.72929692 0.58849776
4.20232534 -5.21976376 2.13541961 0.83023769 -0.77654004 0.77491975
3.53440022 -4.88471270 1.85923195 0.69827825 -0.72669476 0.67469436
2.94430709 -4.89747763 1.38754380 0.58169574 -0.72859377 0.50352401
2.61974573 -4.90891600 1.28969848 0.51757336 -0.73029548 0.46801707
3.08590817 -4.90132046 1.72356677 0.60967135 -0.72916549 0.62546295
2.72304177 -4.86568022 1.59912801 0.53798115 -0.72386330 0.58030558
4.88865137 -5.04976416 1.19074392 0.96583253 -0.75124931 0.43210757
4.42112350 -5.04810953 1.10022974 0.87346482 -0.75100321 0.39926100
4.56391907 -4.98853970 1.46189487 0.90167642 -0.74214101 0.53050518
3.87103701 -5.00265551 0.98976612 0.76478630 -0.74424100 0.35917500
3.51443791 -5.05120039 0.90582597 0.69433433 -0.75146300 0.32871404
4.00792551 -4.96713018 1.33077931 0.79183084 -0.73895597 0.48292482
3.59943676 -4.94836664 1.21933472 0.71112728 -0.73616451 0.44248283
4.59702873 -5.15420198 0.70403725 0.90821779 -0.76678646 0.25548720
4.29607058 -5.12616730 0.63977325 0.84875858 -0.76261580 0.23216651
4.43167830 -5.00215054 2.56938481 0.87555009 -0.74416590 0.93240082
3.13518763 -4.94889450 1.11002958 0.61940730 -0.73624301 0.40281725
2.79509878 -4.94918966 1.02370632 0.55221719 -0.73628694 0.37149149
3.91288066 -5.10617924 0.58478522 0.77305317 -0.75964218 0.21221197
3.74553251 -4.82903671 2.28968382 0.73999083 -0.71841192 0.83090049
3.64279342 -5.09279251 0.52269650 0.71969306 -0.75765061 0.18968068
3.39318776 -4.88976908 2.17446423 0.67037940 -0.72744697 0.78908861
4.01878119 -5.09013510 0.80778581 0.79397553 -0.75725532 0.29313639
3.73187232 -5.06466866 0.74765134 0.73729205 -0.75346667 0.27131426
3.59299350 -4.94046640 2.59577394 0.70985430 -0.73498923 0.94197714
3.36043382 -5.12896490 0.47879732 0.66390836 -0.76303196 0.17375016
2.88781404 -4.80092812 1.98240578 0.57053459 -0.71423018 0.71939272
3.63879347 -5.97783709 0.51220763 0.71890283 -0.88931799 0.18587439
2.58671236 -4.84957933 1.88519251 0.51104707 -0.72146803 0.68411511
3.43397427 -5.08258820 0.69092548 0.67843747 -0.75613254 0.25072908
3.06007481 -4.87315512 2.36963820 0.60456753 -0.72497535 0.85991502
3.17019773 -5.03669930 0.62419063 0.62632412 -0.74930567 0.22651175
2.69040060 -4.82400608 2.21641135 0.53153241 -0.71766347 0.80431074
4.40369272 -4.96320152 1.79722130 0.87002110 -0.73837149 0.65219140
4.60063839 -4.94967508 2.20693660 0.90893090 -0.73635918 0.80087245
3.82570791 -4.91646862 1.63464510 0.75583082 -0.73141909 0.59319431
3.37217784 -4.83288527 1.48993659 0.66622853 -0.71898443 0.54068124
4.24952221 -5.21090746 2.14281559 0.83956218 -0.77522248 0.77760363
3.59534264 -4.90405846 1.87541842 0.71031839 -0.72957283 0.68056822
2.98721623 -4.89872265 1.39333963 0.59017313 -0.72877902 0.50562727
2.66618705 -4.92149878 1.29756999 0.52674860 -0.73216742 0.47087353
3.12492633 -4.89470959 1.72821534 0.61738002 -0.72818202 0.62714988
2.76391864 -4.86687088 1.60531521 0.54605705 -0.72404045 0.58255082
4.95071745 -5.04981422 1.19829750 0.97809470 -0.75125676 0.43484867
4.47883558 -5.04981709 1.10689616 0.88486677 -0.75125718 0.40168014
4.63618088 -5.00429535 1.47529113 0.91595292 -0.74448496 0.53536654
3.93052220 -5.01388216 0.99711531 0.77653855 -0.74591118 0.36184192
3.54270411 -5.02416039 0.90492016 0.69991881 -0.74744028 0.32838535
4.06266308 -4.97054720 1.33872688 0.80264515 -0.73946428 0.48580891
3.65591598 -4.96043634 1.22816527 0.72228563 -0.73796010 0.44568735
4.66002846 -5.15901089 0.70961010 0.92066437 -0.76750189 0.25750953
4.36278009 -5.14007139 0.64601696 0.86193812 -0.76468426 0.23443228
4.42333364 -4.92970324 2.54613805 0.87390149 -0.73338795 0.92396486
3.18755245 -4.96205473 1.11769712 0.62975281 -0.73820090 0.40559971
2.84362769 -4.96230030 1.03029299 0.56180489 -0.73823738 0.37388173
3.97915053 -5.12534285 0.59104395 0.78614587 -0.76249313 0.21448320
3.70028472 -5.10531569 0.52731788 0.73105139 -0.75951368 0.19135772
3.43243027 -4.88065100 2.18003440 0.67813241 -0.72609049 0.79110992
4.06805658 -5.08636713 0.81183189 0.80371070 -0.75669473 0.29460466
3.78367472 -5.06816387 0.75239748 0.74752647 -0.75398666 0.27303657
3.60010123 -4.88518381 2.57836223 0.71125853 -0.72676486 0.93565863
3.40255189 -5.12263536 0.48060042 0.67222947 -0.76209033 0.17440449
2.92580843 -4.79551029 1.98782802 0.57804102 -0.71342421 0.72136039
3.66586947 -5.93788052 0.51035613 0.72425210 -0.88337368 0.18520249
2.60909629 -4.81825876 1.87925446 0.51546937 -0.71680844 0.68196028
3.48609591 -5.09027863 0.69575292 0.68873495 -0.75727665 0.25248089
3.10458493 -4.87557316 2.38043952 0.61336124 -0.72533506 0.86383468
3.20921230 -5.02841187 0.62597132 0.63403207 -0.74807280 0.22715795
2.72428226 -4.81346703 2.21943235 0.53822625 -0.71609563 0.80540699
4.99560833 -5.01561737 1.97610080 0.98696363 -0.74616933 0.71710473
4.45662022 -4.95987940 1.80627024 0.88047779 -0.73787725 0.65547514
4.66795969 -4.95948267 2.22457266 0.92223132 -0.73781824 0.80727237
3.85292053 -4.88779449 1.63309205 0.76120710 -0.72715324 0.59263074
3.48034978 -4.92253542 1.52500105 0.68759966 -0.73232162 0.55340570
4.29920530 -5.20458984 2.15144396 0.84937793 -0.77428263 0.78073478
3.63854384 -4.89826155 1.88201296 0.71885347 -0.72871041 0.68296134
3.02101660 -4.88479805 1.39478862 0.59685093 -0.72670746 0.50615311
2.69053769 -4.89269161 1.29432881 0.53155947 -0.72788179 0.46969736
3.15980101 -4.88139009 1.73053968 0.62427008 -0.72620046 0.62799335
2.80301332 -4.86440659 1.61037743 0.55378085 -0.72367382 0.58438784
4.53411627 -5.04805517 1.11289597 0.89578837 -0.75099510 0.40385741
4.68351412 -4.99220371 1.48047674 0.92530435 -0.74268609 0.53724831
3.97674012 -5.00759315 1.00094962 0.78566968 -0.74497557 0.36323336
3.58221078 -5.01308870 0.90703368 0.70772398 -0.74579316 0.32915232
3.69634795 -4.94995737 1.23137641 0.73027360 -0.73640114 0.44685262
4.71117067 -5.15008259 0.71300226 0.93076837 -0.76617360 0.25874048
4.42338037 -5.14578581 0.65110439 0.87391073 -0.76553440 0.23627846
3.22297454 -4.94849348 1.11923063 0.63675100 -0.73618340 0.40615618
2.87573266 -4.94603872 1.03065896 0.56814772 -0.73581821 0.37401453
4.01620960 -5.10647345 0.59193802 0.79346752 -0.75968593 0.21480764
3.87956238 -4.87348270 2.33449602 0.76647061 -0.72502410 0.84716231
3.75807619 -5.11731625 0.53193921 0.74246907 -0.76129901 0.19303475
3.46952605 -4.86817122 2.18421197 0.68546128 -0.72423393 0.79262590
4.12494564 -5.09138250 0.81761199 0.81495005 -0.75744087 0.29670218
3.84280515 -5.08070660 0.75881863 0.75920862 -0.75585264 0.27536672
3.61322069 -4.83886099 2.56569886 0.71385050 -0.71987343 0.93106323
3.45365763 -5.12915373 0.48400632 0.68232620 -0.76306003 0.17564045
2.97081995 -4.80098009 1.99799466 0.58693379 -0.71423793 0.72504979
3.73466063 -5.96545935 0.51591063 0.73784292 -0.88747656 0.18721816
2.67093372 -4.85979795 1.90234697 0.52768636 -0.72298825 0.69034028
3.53163600 -5.08776760 0.69897121 0.69773209 -0.75690305 0.25364879
3.15729594 -4.88999653 2.39741302 0.62377512 -0.72748083 0.86999416
3.25039148 -5.02317095 0.62826079 0.64216769 -0.74729311 0.22798876
2.77921414 -4.83970594 2.23982430 0.54907894 -0.71999913 0.81280702
4.98592043 -4.94361162 1.95970511 0.98504966 -0.73545712 0.71115494
4.51743841 -4.96466637 1.81851304 0.89249343 -0.73858941 0.65991789
4.73950100 -4.97277212 2.24409842 0.93636549 -0.73979527 0.81435806
3.92349744 -4.91317654 1.65017557 0.77515072 -0.73092932 0.59883016
3.52580142 -4.92108154 1.53151298 0.69657940 -0.73210531 0.55576879
4.33059597 -5.17601919 2.15082765 0.85557961 -0.77003217 0.78051114
3.68409824 -4.89517164 1.88980639 0.72785348 -0.72825074 0.68578947
3.06098199 -4.88048506 1.39913559 0.60474676 -0.72606581 0.50773054
2.73441458 -4.89952374 1.30081117 0.54022807 -0.72889817 0.47204974
3.20307612 -4.88059568 1.73751259 0.63281977 -0.72608227 0.63052374
2.84699893 -4.86994410 1.61825204 0.56247091 -0.72449768 0.58724546
4.61203384 -5.07066441 1.12456238 0.91118228 -0.75435865 0.40809104
4.75233030 -5.00242996 1.49257648 0.93890011 -0.74420744 0.54163921
4.03173065 -5.01166153 1.00702071 0.79653394 -0.74558085 0.36543646
3.63095164 -5.01455927 0.91156268 0.71735352 -0.74601191 0.33079582
3.76150942 -4.97206020 1.24301672 0.74314731 -0.73968941 0.45107678
4.77456474 -5.15378618 0.71857512 0.94329292 -0.76672459 0.26076281
4.48422337 -5.15094042 0.65619183 0.88593125 -0.76630127 0.23812462
3.27357292 -4.95756292 1.12613130 0.64674753 -0.73753262 0.40866038
2.92462540 -4.95842028 1.03724563 0.57780731 -0.73766017 0.37640476
4.07183743 -5.11059904 0.59618503 0.80445766 -0.76029968 0.21634884
3.93131232 -4.87513351 2.34729934 0.77669466 -0.72526968 0.85180849
3.80670571 -5.11599493 0.53488010 0.75207663 -0.76110244 0.19410197
3.52735877 -4.88436747 2.20161843 0.69688708 -0.72664338 0.79894257
4.17575693 -5.08825302 0.82194710 0.82498866 -0.75697529 0.29827535
3.89264512 -5.08009863 0.76300639 0.76905531 -0.75576216 0.27688643
3.65458488 -4.83074808 2.57361341 0.72202265 -0.71866649 0.93393534
3.49934268 -5.12703180 0.48641044 0.69135201 -0.76274437 0.17651287
3.00495005 -4.78858042 2.00070572 0.59367675 -0.71239322 0.72603357
3.68494868 -5.80376148 0.50072843 0.72802150 -0.86342090 0.18170871
2.68679690 -4.81648445 1.89179039 0.53082043 -0.71654451 0.68650943
3.57842755 -5.08650160 0.70245773 0.70697653 -0.75671476 0.25491399
3.29704356 -5.02592230 0.63182223 0.65138453 -0.74770242 0.22928117
2.80586195 -4.81573439 2.23680329 0.55434364 -0.71643293 0.81171072
4.58109522 -4.97172689 1.83182025 0.90506983 -0.73963982 0.66474694
4.79693604 -4.97028971 2.25669551 0.94771272 -0.73942596 0.81892937
3.97014761 -4.90790176 1.65690541 0.78436720 -0.73014456 0.60127234
3.55891633 -4.90197277 1.53251481 0.70312178 -0.72926253 0.55613238
4.34451580 -5.12698936 2.14158297 0.85832971 -0.76273805 0.77715635
3.73321247 -4.89626551 1.89939833 0.73755682 -0.72841346 0.68927026
3.10939026 -4.88893366 1.40734649 0.61431062 -0.72732270 0.51071018
2.77753019 -4.90430021 1.30683053 0.54874623 -0.72960877 0.47423407
3.24113774 -4.87150097 1.74158013 0.64033943 -0.72472924 0.63199985
2.88532591 -4.86519432 1.62275183 0.57004303 -0.72379100 0.58887839
4.66777372 -5.06776619 1.13056219 0.92219460 -0.75392747 0.41026828
4.80796146 -4.99787378 1.50035501 0.94989097 -0.74352968 0.54446197
4.09068394 -5.01981497 1.01405036 0.80818111 -0.74679381 0.36798745
3.67403030 -5.00762558 0.91458201 0.72586441 -0.74498039 0.33189151
4.20899963 -4.95552969 1.35629535 0.83155632 -0.73723012 0.49218431
3.80810380 -4.96859455 1.24823487 0.75235283 -0.73917383 0.45297039
4.82056189 -5.15436602 0.72245187 0.95238036 -0.76681089 0.26216966
4.53981495 -5.16565800 0.66174179 0.89691424 -0.76849079 0.24013865
3.30894256 -4.96000242 1.13034844 0.65373540 -0.73789555 0.41019073
2.95396447 -4.95473766 1.03944123 0.58360368 -0.73711234 0.37720153
4.11838627 -5.11915827 0.60020846 0.81365418 -0.76157302 0.21780889
4.00163889 -4.91438103 2.37575173 0.79058880 -0.73110849 0.86213356
3.85456657 -5.12987661 0.53908139 0.76153231 -0.76316762 0.19562657
3.56793189 -4.89198685 2.21275854 0.70490295 -0.72777694 0.80298519
4.22503567 -5.09891796 0.82772726 0.83472449 -0.75856191 0.30037290
3.93947339 -5.09153128 0.76831084 0.77830702 -0.75746298 0.27881137
3.69507074 -4.83688545 2.58627653 0.73002130 -0.71957952 0.93853062
3.54389262 -5.13990688 0.49001667 0.70015359 -0.76465982 0.17782153
3.04572296 -4.80290508 2.01290584 0.60173208 -0.71452433 0.73046088
3.67372417 -5.72587776 0.49406311 0.72580391 -0.85183424 0.17928994
2.74171543 -4.86144638 1.91488290 0.54167044 -0.72323346 0.69488943
3.62196302 -5.09698343 0.70701700 0.71557766 -0.75827414 0.25656852
3.33595562 -5.03353119 0.63538361 0.65907228 -0.74883437 0.23057355
2.85374236 -4.84563494 2.25719523 0.56380320 -0.72088122 0.81911075
4.63719273 -4.98547220 1.84512758 0.91615283 -0.74168468 0.66957605
4.02635622 -4.92942953 1.67088282 0.79547215 -0.73334724 0.60634458
3.61502767 -4.93054152 1.54704154 0.71420747 -0.73351270 0.56140393
4.37979889 -5.11943769 2.14712977 0.86530048 -0.76161462 0.77916920
3.76667523 -4.89225960 1.90479386 0.74416792 -0.72781754 0.69122827
3.14821887 -4.89866209 1.41459143 0.62198180 -0.72877002 0.51333928
2.81598139 -4.91822815 1.31423891 0.55634290 -0.73168081 0.47692251
3.30805421 -4.92114067 1.76540411 0.65355986 -0.73211414 0.64064527
2.92195249 -4.87463951 1.63062644 0.57727921 -0.72519618 0.59173596
4.72506714 -5.08191729 1.13889527 0.93351382 -0.75603271 0.41329226
4.88164377 -5.02714205 1.51634395 0.96444809 -0.74788386 0.55026412
4.13192225 -5.02177143 1.01852369 0.81632841 -0.74708486 0.36961079
3.73157048 -5.03643513 0.92333806 0.73723245 -0.74926639 0.33506897
4.25913763 -4.96673489 1.36507964 0.84146190 -0.73889714 0.49537203
3.85058188 -4.97544765 1.25465715 0.76074505 -0.74019331 0.45530096
4.88160753 -5.15416288 0.72754008 0.96444094 -0.76678067 0.26401609
4.59587669 -5.16381264 0.66590422 0.90799016 -0.76821625 0.24164915
3.34998775 -4.95371437 1.13379872 0.66184455 -0.73696011 0.41144279
3.00324512 -4.96642923 1.04602790 0.59333992 -0.73885167 0.37959173
4.17693520 -5.12545347 0.60490251 0.82522148 -0.76250958 0.21951231
4.06586885 -4.92941093 2.39566827 0.80327851 -0.73334450 0.86936104
3.90471816 -5.12935209 0.54223233 0.77144057 -0.76308960 0.19677001
3.62189245 -4.90121555 2.22737980 0.71556371 -0.72914988 0.80829108
4.28380394 -5.10402250 0.83379638 0.84633511 -0.75932133 0.30257532
3.98477101 -5.08386612 0.77138186 0.78725630 -0.75632268 0.27992579
3.74553633 -4.83978653 2.60052276 0.73999161 -0.72001112 0.94370043
3.59329462 -5.14195013 0.49302185 0.70991379 -0.76496375 0.17891207
3.09323668 -4.81051731 2.02442813 0.61111921 -0.71565676 0.73464215
3.81555581 -5.86659098 0.51220763 0.75382507 -0.87276798 0.18587439
2.76847935 -4.83755541 1.91224372 0.54695809 -0.71967924 0.69393170
3.67253089 -5.09979820 0.71130812 0.72556818 -0.75869286 0.25812572
3.43355894 -5.11149359 0.65064681 0.67835540 -0.76043278 0.23611240
2.88979602 -4.83716822 2.26172662 0.57092619 -0.71962160 0.82075512
4.69346094 -4.98297596 1.85524118 0.92726952 -0.74131334 0.67324615
4.05477667 -4.90106487 1.66984749 0.80108708 -0.72912747 0.60596883
3.65053344 -4.91396284 1.54904521 0.72122222 -0.73104626 0.56213105
4.25059223 -4.90680552 2.06762433 0.83977360 -0.72998148 0.75031757
3.81253052 -4.88810539 1.91258740 0.75322741 -0.72719949 0.69405645
3.18745732 -4.89176369 1.41845536 0.62973404 -0.72774374 0.51474148
2.85751200 -4.91898203 1.31933224 0.56454796 -0.73179299 0.47877082
3.38222957 -4.96337032 1.78864717 0.66821444 -0.73839658 0.64907992
2.95054054 -4.85289717 1.62950158 0.58292723 -0.72196162 0.59132779
4.78385735 -5.08092260 1.14556181 0.94512880 -0.75588477 0.41571149
4.19511127 -5.03352833 1.02651191 0.82881242 -0.74883395 0.37250963
3.76786852 -5.01922989 0.92454576 0.74440366 -0.74670678 0.33550724
4.31213951 -4.96491051 1.37219059 0.85193324 -0.73862571 0.49795252
3.89500999 -4.96815968 1.25907242 0.76952255 -0.73910910 0.45690322
4.95937967 -5.17054129 0.73553586 0.97980607 -0.76921725 0.26691768
4.65076780 -5.15998650 0.66983545 0.91883481 -0.76764703 0.24307574
3.40335226 -4.96487379 1.14146626 0.67238760 -0.73862028 0.41422525
3.03234649 -4.94410181 1.04529607 0.59908932 -0.73553002 0.37932616
4.22937536 -5.12356949 0.60847890 0.83558184 -0.76222932 0.22081015
4.12442970 -4.93667316 2.41202831 0.81484812 -0.73442489 0.87529790
3.95743394 -5.13155651 0.54580337 0.78185540 -0.76341754 0.19806589
3.63583541 -4.85579348 2.21693611 0.71831840 -0.72239250 0.80450118
4.34022951 -5.10558033 0.83928752 0.85748291 -0.75955307 0.30456799
4.04607296 -5.09604502 0.77808225 0.79936749 -0.75813448 0.28235728
3.80182528 -4.84948921 2.61872602 0.75111240 -0.72145462 0.95030618
3.63939548 -5.13871384 0.49542600 0.71902174 -0.76448232 0.17978452
3.13166642 -4.80356789 2.02985024 0.61871159 -0.71462291 0.73660982
3.88399124 -5.89080715 0.51757693 0.76734561 -0.87637061 0.18782285
2.83367753 -4.88060427 1.93665588 0.55983907 -0.72608358 0.70279062
3.72210312 -5.10058069 0.71533102 0.73536199 -0.75880927 0.25958556
3.41116548 -5.00929165 0.63818187 0.67393118 -0.74522829 0.23158902
2.94112039 -4.85383558 2.27834249 0.58106613 -0.72210121 0.82678485
4.76314449 -4.99395847 1.87067771 0.94103664 -0.74294716 0.67884791
4.10666418 -4.90059566 1.67864799 0.81133825 -0.72905767 0.60916245
3.70799971 -4.92659903 1.56056643 0.73257565 -0.73292613 0.56631202
4.31659794 -4.91993856 2.08488131 0.85281408 -0.73193526 0.75657994
3.87379527 -4.90307999 1.92817426 0.76533121 -0.72942728 0.69971275
3.23103452 -4.89102745 1.42425132 0.63834339 -0.72763419 0.51684475
2.90112662 -4.92276764 1.32535160 0.57316470 -0.73235619 0.48095518
3.42427731 -4.95773125 1.79445791 0.67652166 -0.73755765 0.65118855
2.96595120 -4.80970430 1.62106442 0.58597189 -0.71553582 0.58826602
4.82925367 -5.06507683 1.14889503 0.95409757 -0.75352740 0.41692108
4.24582767 -5.02964115 1.03130484 0.83883226 -0.74825567 0.37424892
3.82912445 -5.03489494 0.93209410 0.75650579 -0.74903727 0.33824646
4.37176704 -4.96993780 1.38139319 0.86371368 -0.73937362 0.50129205
3.94677973 -4.96973848 1.26589608 0.77975053 -0.73934400 0.45937943
4.70579147 -5.15567350 0.67376667 0.92970562 -0.76700538 0.24450234
3.45248699 -4.96912384 1.14760017 0.68209493 -0.73925257 0.41645119
3.06335115 -4.92495155 1.04529607 0.60521483 -0.73268110 0.37932616
4.29347134 -5.13491535 0.61406702 0.84824508 -0.76391721 0.22283801
4.14324665 -4.89643002 2.40491509 0.81856573 -0.72843796 0.87271661
3.99691558 -5.11601686 0.54706377 0.78965563 -0.76110572 0.19852328
3.71252704 -4.89425087 2.24548268 0.73347008 -0.72811377 0.81486040
4.40072966 -5.11111689 0.84564567 0.86943567 -0.76037675 0.30687529
4.09532118 -5.09218168 0.78199083 0.80909729 -0.75755978 0.28377566
3.85383320 -4.85290623 2.63376355 0.76138741 -0.72196293 0.95576316
3.68443131 -5.13348722 0.49762979 0.72791928 -0.76370478 0.18058425
3.17743230 -4.80728769 2.04001689 0.62775344 -0.71517628 0.74029917
3.92313099 -5.86960459 0.51794726 0.77507830 -0.87321633 0.18795723
2.84904933 -4.83661985 1.92609930 0.56287599 -0.71954006 0.69895977
3.77182937 -5.10094070 0.71935385 0.74518621 -0.75886285 0.26104543
3.46499944 -5.02048826 0.64326960 0.68456697 -0.74689400 0.23343529
2.97155952 -4.83526039 2.27834249 0.58707988 -0.71933776 0.82678485
4.82647419 -4.99730730 1.88345265 0.95354843 -0.74344540 0.68348378
4.17376232 -4.91729355 1.69366086 0.82459462 -0.73154181 0.61461043
3.74940181 -4.91709566 1.56507468 0.74075526 -0.73151237 0.56794798
4.35123014 -4.89697456 2.08673024 0.85965627 -0.72851896 0.75725091
3.91758680 -4.89507246 1.93476880 0.77398294 -0.72823596 0.70210582
3.27906990 -4.89637136 1.43197930 0.64783359 -0.72842920 0.51964915
2.93894672 -4.91615677 1.32859278 0.58063668 -0.73137265 0.48213136
3.45977092 -4.94237423 1.79678214 0.68353397 -0.73527300 0.65203202
3.01331282 -4.81869936 1.63062644 0.59532893 -0.71687400 0.59173596
4.90331745 -5.07873631 1.15922809 0.96873009 -0.75555950 0.42067081
4.30696106 -5.03728724 1.03865409 0.85091019 -0.74939317 0.37691587
3.87750673 -5.03271627 0.93632114 0.76606452 -0.74871314 0.33978039
4.42509985 -4.96712875 1.38850415 0.87425041 -0.73895574 0.50387251
4.01095438 -4.98616743 1.27673364 0.79242927 -0.74178809 0.46331227
4.76766443 -5.15818501 0.67885411 0.94192964 -0.76737905 0.24634852
3.49613118 -4.96494579 1.15181732 0.69071758 -0.73863095 0.41798154
3.12031341 -4.94727516 1.05444431 0.61646867 -0.73600215 0.38264596
4.34369612 -5.12901640 0.61719638 0.85816777 -0.76303965 0.22397362
4.18247604 -4.88020897 2.40989423 0.82631612 -0.72602475 0.87452346
4.04865217 -5.11581802 0.55042475 0.79987705 -0.76107609 0.19974294
3.73410463 -4.85890484 2.23991251 0.73773307 -0.72285533 0.81283903
4.45624971 -5.11014318 0.85084778 0.88040459 -0.76023185 0.30876309
4.15340185 -5.09867525 0.78785366 0.82057208 -0.75852579 0.28590322
3.89686084 -4.84438038 2.64246964 0.76988822 -0.72069454 0.95892251
3.74012542 -5.14234734 0.50163668 0.73892260 -0.76502287 0.18203831
3.22652674 -4.81529951 2.05221701 0.63745284 -0.71636820 0.74472642
3.92656636 -5.79528332 0.51239282 0.77575701 -0.86215961 0.18594159
2.91499805 -4.87871933 1.95051134 0.57590526 -0.72580314 0.70781863
3.81812596 -5.09612894 0.72257221 0.75433284 -0.75814700 0.26221332
3.51458144 -5.02468729 0.64733982 0.69436270 -0.74751866 0.23491234
3.01551604 -4.83854628 2.28891611 0.59576422 -0.71982664 0.83062190
4.89003229 -5.00005579 1.89622772 0.96610540 -0.74385428 0.68811971
4.21468782 -4.90265989 1.69780231 0.83268011 -0.72936475 0.61611336
3.80379581 -4.92416430 1.57509315 0.75150168 -0.73256397 0.57158357
4.41639423 -4.90761900 2.10337090 0.87253046 -0.73010254 0.76328963
4.09785938 -5.05611992 2.00970602 0.80959874 -0.75219488 0.72929966
3.31415200 -4.88208008 1.43391120 0.65476459 -0.72630310 0.52035022
2.96275735 -4.88592339 1.32535160 0.58534086 -0.72687489 0.48095518
3.50188184 -4.93610954 1.80259299 0.69185370 -0.73434103 0.65414071
3.06601405 -4.83541107 1.64300084 0.60574090 -0.71936017 0.59622651
4.96124697 -5.07469511 1.16556132 0.98017502 -0.75495827 0.42296907
4.36187220 -5.03692007 1.04440558 0.86175877 -0.74933851 0.37900302
3.91995478 -5.02231598 0.93903857 0.77445078 -0.74716592 0.34076652
4.49171448 -4.97832584 1.39979815 0.88741124 -0.74062151 0.50797099
4.06562710 -4.98980141 1.28436005 0.80323070 -0.74232870 0.46607980
4.82704687 -5.15721321 0.68347907 0.95366156 -0.76723444 0.24802686
3.54558635 -4.96838474 1.15795124 0.70048821 -0.73914260 0.42020747
3.16292572 -4.94583368 1.05846953 0.62488741 -0.73578769 0.38410667
4.40700102 -5.13773441 0.62256098 0.87067473 -0.76433659 0.22592036
4.27208424 -4.92140579 2.44403696 0.84401971 -0.73215359 0.88691348
4.09806442 -5.11205864 0.55336565 0.80963928 -0.76051682 0.20081016
3.82993174 -4.91988993 2.27959919 0.75666529 -0.73192805 0.82724088
4.51587343 -5.11311054 0.85691690 0.89218420 -0.76067334 0.31096551
4.19665670 -5.08626127 0.79036629 0.82911777 -0.75667900 0.28681502
3.93531060 -4.82979393 2.64800978 0.77748460 -0.71852452 0.96093291
3.78303289 -5.13312912 0.50343984 0.74739963 -0.76365149 0.18269265
3.25990629 -4.79959011 2.05425024 0.64404750 -0.71403116 0.74546427
3.91687560 -5.70305872 0.50480169 0.77384245 -0.84843946 0.18318684
2.92516589 -4.82632685 1.93665588 0.57791406 -0.71800876 0.70279062
3.86812043 -5.09566069 0.72659510 0.76421010 -0.75807732 0.26367319
3.55179214 -5.01061630 0.64861172 0.70171428 -0.74542534 0.23537390
3.05077672 -4.82734919 2.29269242 0.60273051 -0.71816087 0.83199227
4.28869486 -4.92548323 1.71540344 0.84730142 -0.73276019 0.62250060
3.86199069 -4.93532801 1.58661437 0.76299906 -0.73422474 0.57576448
4.46643114 -4.90080833 2.11261582 0.88241607 -0.72908932 0.76664448
4.22241306 -5.14411879 2.05586743 0.83420634 -0.76528639 0.74605113
3.36687422 -4.89306211 1.44357109 0.66518074 -0.72793692 0.52385569
3.01366520 -4.90043020 1.33461213 0.59539855 -0.72903305 0.48431572
3.54629493 -4.93261003 1.80956578 0.70062822 -0.73382044 0.65667105
3.11285019 -4.84194088 1.65200043 0.61499417 -0.72033161 0.59949237
4.42609215 -5.04642296 1.05239379 0.87444645 -0.75075227 0.38190186
3.97585869 -5.02868271 0.94507718 0.78549552 -0.74811310 0.34295785
4.56129026 -4.99176025 1.41192877 0.90115702 -0.74262017 0.51237303
4.12671518 -5.00051975 1.29399347 0.81529969 -0.74392331 0.46957567
4.89482212 -5.18074179 0.69087899 0.96705168 -0.77073479 0.25071222
3.59086752 -4.98180437 1.16523540 0.70943427 -0.74113899 0.42285082
3.21060944 -4.96894217 1.06688595 0.63430810 -0.73922551 0.38716090
4.45205212 -5.14088583 0.62613738 0.87957525 -0.76480544 0.22721821
4.37559175 -4.99234629 2.49027181 0.86446929 -0.74270731 0.90369159
4.15202570 -5.12988663 0.55840713 0.82030016 -0.76316911 0.20263965
3.85999656 -4.91065407 2.28377676 0.76260507 -0.73055404 0.82875687
4.56898975 -5.12418318 0.86327505 0.90267819 -0.76232058 0.31327280
4.25846481 -5.11219406 0.79874182 0.84132898 -0.76053697 0.28985441
3.99638152 -4.85812950 2.67412758 0.78955013 -0.72273999 0.97041076
3.83223724 -5.14868832 0.50764710 0.75712079 -0.76596618 0.18421942
3.30923700 -4.82287073 2.07119489 0.65379357 -0.71749461 0.75161332
2.96552396 -4.84153223 1.94853199 0.58588749 -0.72027081 0.70710033
3.91630530 -5.10875845 0.73195893 0.77372980 -0.76002586 0.26561967
3.56093884 -4.98143435 2.52394199 0.70352137 -0.74108398 0.91591012
3.60295200 -5.03262615 0.65471703 0.71182173 -0.74869972 0.23758943
3.11710191 -4.88175058 2.32592368 0.61583418 -0.72625411 0.84405154
5.06159306 -5.06357718 1.94200492 1.00000000 -0.75330430 0.70473170
4.32977724 -4.92547655 1.72265100 0.85541791 -0.73275918 0.62513065
3.89955068 -4.93535185 1.59262538 0.77041966 -0.73422831 0.57794583
4.52178907 -4.91461277 2.12802386 0.89335293 -0.73114300 0.77223593
4.24660730 -5.12416410 2.05586743 0.83898634 -0.76231778 0.74605113
3.39991283 -4.89145041 1.44791806 0.67170805 -0.72769713 0.52543318
3.04387259 -4.89776707 1.33785343 0.60136652 -0.72863686 0.48549196
3.61242509 -4.97454548 1.83164668 0.71369332 -0.74005914 0.66468394
3.18554354 -4.90465212 1.67899907 0.62935591 -0.72966111 0.60928988
4.47608900 -5.05499268 1.05878437 0.88432413 -0.75202715 0.38422093
4.01671171 -5.03157711 0.94930428 0.79356670 -0.74854368 0.34449184
4.60471869 -4.99171400 1.41820323 0.90973705 -0.74261326 0.51464999
4.16897583 -5.00365543 1.30001438 0.82364893 -0.74438977 0.47176057
4.96698570 -5.19162512 0.69758523 0.98130876 -0.77235389 0.25314581
3.63256502 -4.97337532 1.16868567 0.71767229 -0.73988503 0.42410287
3.26963305 -4.99153090 1.07640004 0.64596915 -0.74258602 0.39061347
4.50924969 -5.14112663 0.63038439 0.89087558 -0.76484126 0.22875939
4.44796276 -5.01076221 2.51374483 0.87876737 -0.74544704 0.91220969
4.21432543 -5.14070559 0.56344861 0.83260852 -0.76477861 0.20446916
3.88379622 -4.87748098 2.27959919 0.76730710 -0.72561890 0.82724088
4.62504721 -5.12174225 0.86847717 0.91375327 -0.76195747 0.31516057
4.30449820 -5.10202980 0.80181283 0.85042357 -0.75902486 0.29096884
3.87774658 -5.14194298 0.50985086 0.76611191 -0.76496273 0.18501914
3.35351038 -4.82201672 2.08000588 0.66254050 -0.71736753 0.75481069
3.94170594 -5.60577726 0.49869180 0.77874810 -0.83396697 0.18096964
2.99984741 -4.82923365 1.95117116 0.59266865 -0.71844119 0.70805806
3.97151828 -5.11371899 0.73705459 0.78463799 -0.76076382 0.26746881
3.54975820 -4.90082359 2.49385285 0.70131242 -0.72909158 0.90499115
3.65305519 -5.03564167 0.65878719 0.72172046 -0.74914837 0.23906645
3.17173648 -4.89946318 2.34404993 0.62662810 -0.72888917 0.85062933
4.37481833 -4.91400242 1.72834551 0.86431646 -0.73105216 0.62719715
3.94855857 -4.93348646 1.60013914 0.78010195 -0.73395079 0.58067250
4.59161711 -4.92774773 2.14651346 0.90714860 -0.73309708 0.77894557
4.15527296 -4.94939852 1.99531817 0.82094175 -0.73631799 0.72407848
3.45416451 -4.90323114 1.45806098 0.68242633 -0.72944975 0.52911389
3.10346961 -4.92473650 1.35081816 0.61314088 -0.73264909 0.49019670
3.65728116 -4.97020149 1.83861959 0.72255534 -0.73941284 0.66721433
3.21104765 -4.87650681 1.67618668 0.63439465 -0.72547400 0.60826927
4.53553534 -5.05755281 1.06549442 0.89606875 -0.75240803 0.38665593
4.07548904 -5.04014826 0.95594680 0.80517912 -0.74981880 0.34690234
4.66143942 -4.98976135 1.42615092 0.92094314 -0.74232274 0.51753414
4.21921635 -4.99988222 1.30603516 0.83357477 -0.74382842 0.47394547
3.68720007 -4.98193216 1.17635322 0.72846633 -0.74115801 0.42688534
3.32149124 -5.00208092 1.08335280 0.65621459 -0.74415553 0.39313653
4.56927347 -5.14381456 0.63507837 0.90273428 -0.76524115 0.23046279
4.42669535 -4.92449141 2.48387003 0.87456566 -0.73261261 0.90136844
4.27059412 -5.14327192 0.56743979 0.84372532 -0.76516038 0.20591751
3.94836283 -4.89541435 2.29979062 0.78006327 -0.72828686 0.83456814
4.68393326 -5.12171078 0.87425727 0.92538714 -0.76195276 0.31725812
4.37364626 -5.11865950 0.80990911 0.86408490 -0.76149887 0.29390690
3.93181372 -5.14587021 0.51345712 0.77679372 -0.76554698 0.18632782
3.40552855 -4.83153629 2.09356141 0.67281753 -0.71878374 0.75972986
3.93887258 -5.52726841 0.49258190 0.77818829 -0.82228726 0.17875242
3.05914807 -4.85672140 1.97030485 0.60438442 -0.72253054 0.71500146
4.01956511 -5.10886383 0.74054110 0.79413044 -0.76004153 0.26873404
3.56073880 -4.85171366 2.47996545 0.70348185 -0.72178555 0.89995152
3.71503496 -5.05424738 0.66540122 0.73396558 -0.75191629 0.24146661
4.46401882 -4.95080280 1.75164115 0.88193947 -0.73652691 0.63565087
3.99162364 -4.92365980 1.60514843 0.78861016 -0.73248887 0.58249032
4.57663965 -4.85050392 2.12494230 0.90418959 -0.72160554 0.77111763
4.19367695 -4.93193769 1.99891520 0.82852906 -0.73372036 0.72538382
3.50529861 -4.90979481 1.46675491 0.69252872 -0.73042619 0.53226882
3.12601590 -4.89199448 1.34711397 0.61759526 -0.72777808 0.48885250
3.69762897 -4.95936775 1.84326816 0.73052675 -0.73780113 0.66890126
3.22254419 -4.82743502 1.66606224 0.63666600 -0.71817362 0.60459524
4.58853006 -5.05227613 1.07060695 0.90653872 -0.75162303 0.38851121
4.12829161 -5.04051018 0.96107966 0.81561112 -0.74987262 0.34876499
4.71561956 -4.98445892 1.43326187 0.93164730 -0.74153394 0.52011460
4.26957321 -4.99567461 1.31205606 0.84352362 -0.74320251 0.47613037
3.72552609 -4.96806574 1.17865336 0.73603827 -0.73909515 0.42772004
3.35940886 -4.99092197 1.08554828 0.66370583 -0.74249542 0.39393324
4.63350868 -5.15037060 0.64044303 0.91542494 -0.76621646 0.23240957
4.31430578 -5.13007212 0.56933039 0.85236126 -0.76319671 0.20660359
4.01094389 -4.90981579 2.31858969 0.79242718 -0.73042935 0.84139007
4.75918818 -5.13851643 0.88350552 0.94025499 -0.76445293 0.32061422
4.42767525 -5.11660290 0.81465524 0.87475926 -0.76119286 0.29562920
3.98363638 -5.14618063 0.51666260 0.78703213 -0.76559311 0.18749104
3.44790721 -4.82684469 2.10101700 0.68119013 -0.71808577 0.76243544
3.95843005 -5.48137760 0.49017498 0.78205222 -0.81546015 0.17787898
3.08050752 -4.82305145 1.96436679 0.60860437 -0.71752149 0.71284658
4.07886791 -5.11751986 0.74644136 0.80584669 -0.76132929 0.27087516
3.58894038 -4.82629156 2.47842240 0.70905352 -0.71800351 0.89939159
3.77385211 -5.06748629 0.67125213 0.74558586 -0.75388587 0.24358985
3.23917556 -4.86849260 2.34858131 0.63995177 -0.72428173 0.85227370
4.51464224 -4.94399595 1.75940645 0.89194095 -0.73551428 0.63846880
4.04940844 -4.93148947 1.61616862 0.80002648 -0.73365372 0.58648938
4.73756838 -4.95744562 2.18595815 0.93598366 -0.73751521 0.79325962
3.55093622 -4.90806532 1.47303379 0.70154518 -0.73016894 0.53454739
3.18299675 -4.91317177 1.35868967 0.62885278 -0.73092860 0.49305317
3.73798442 -4.94822311 1.84791672 0.73849958 -0.73614317 0.67058820
3.32236385 -4.91065741 1.70262289 0.65638697 -0.73055452 0.61786270
4.65102339 -5.05667639 1.07795608 0.91888529 -0.75227767 0.39117813
4.18251657 -5.04193258 0.96651441 0.82632416 -0.75008422 0.35073718
4.78484535 -4.99416208 1.44497418 0.94532400 -0.74297744 0.52436489
4.33793068 -5.01182556 1.32369649 0.85702872 -0.74560523 0.48035455
3.78648257 -4.98353672 1.18823779 0.74808121 -0.74139673 0.43119812
3.40834379 -4.99576283 1.09140325 0.67337376 -0.74321562 0.39605796
4.69666243 -5.15485573 0.64558411 0.92790204 -0.76688373 0.23427521
4.37729549 -5.13929653 0.57437187 0.86480588 -0.76456898 0.20843309
4.10600710 -4.96272707 2.35618758 0.81120849 -0.73830092 0.85503393
4.80360270 -5.12146807 0.88610655 0.94902980 -0.76191670 0.32155809
4.49095583 -5.12452126 0.82135558 0.88726133 -0.76237088 0.29806069
4.04301453 -5.15541410 0.52107024 0.79876328 -0.76696682 0.18909052
3.49036098 -4.82181072 2.10847259 0.68957758 -0.71733689 0.76514095
4.00567532 -5.47411489 0.49221161 0.79138631 -0.81437963 0.17861806
3.14749336 -4.86078310 1.98811913 0.62183851 -0.72313476 0.72146606
4.12968874 -5.11486387 0.75046426 0.81588715 -0.76093417 0.27233502
3.62588596 -4.81246614 2.48305154 0.71635270 -0.71594667 0.90107143
3.80561757 -5.04367495 0.67125213 0.75186163 -0.75034344 0.24358985
3.29751539 -4.88959599 2.36897326 0.65147775 -0.72742122 0.85967374
4.56535530 -4.93674755 1.76717162 0.90196013 -0.73443598 0.64128667
4.09758091 -4.92684555 1.62318158 0.80954373 -0.73296285 0.58903432
4.79516697 -4.95484734 2.19828439 0.94736320 -0.73712862 0.79773265
3.59899521 -4.90907812 1.48027873 0.71104002 -0.73031956 0.53717649
3.24142838 -4.93545437 1.37072837 0.64039689 -0.73424357 0.49742189
3.76082468 -4.91402769 1.84384930 0.74301207 -0.73105592 0.66911215
3.37151289 -4.91665745 1.71218491 0.66609716 -0.73144716 0.62133265
4.70565176 -5.05184555 1.08338809 0.92967802 -0.75155896 0.39314935
4.23311996 -5.03831816 0.97104341 0.83632165 -0.74954653 0.35238072
4.83798599 -4.98639441 1.45166695 0.95582277 -0.74182189 0.52679360
4.38349247 -5.00072145 1.32811177 0.86603022 -0.74395329 0.48195681
3.82974386 -4.97516298 1.19207144 0.75662816 -0.74015099 0.43258929
3.44523001 -4.98235416 1.09323287 0.68066120 -0.74122083 0.39672190
4.75464678 -5.15292263 0.64983106 0.93935776 -0.76659614 0.23581637
4.43409729 -5.14038038 0.57836306 0.87602800 -0.76473022 0.20988144
4.13470840 -4.93394899 2.35479498 0.81687886 -0.73401964 0.85452861
4.86439466 -5.12123537 0.89217567 0.96104026 -0.76188207 0.32376051
4.55057859 -5.12738943 0.82721847 0.89904076 -0.76279759 0.30018827
4.09023857 -5.14856052 0.52347440 0.80809313 -0.76594716 0.18996297
3.57090139 -4.86789036 2.13897252 0.70548964 -0.72419214 0.77620906
4.06361580 -5.48090315 0.49591458 0.80283338 -0.81538951 0.17996182
3.19755340 -4.87096834 2.00065494 0.63172865 -0.72465003 0.72601515
4.18945265 -5.12248230 0.75636446 0.82769448 -0.76206756 0.27447614
3.67741799 -4.81738520 2.49771047 0.72653371 -0.71667850 0.90639102
3.86242604 -5.05284166 0.67659426 0.76308507 -0.75170720 0.24552844
3.34064984 -4.88716984 2.37803650 0.65999967 -0.72706032 0.86296266
4.63205242 -4.94592857 1.78114903 0.91513729 -0.73580182 0.64635891
4.16201019 -4.94109297 1.63670635 0.82227278 -0.73508239 0.59394228
3.64604402 -4.90812588 1.48704064 0.72033525 -0.73017794 0.53963029
3.26486588 -4.90362787 1.36748719 0.64502734 -0.72950876 0.49624571
3.86345816 -4.98232126 1.87929475 0.76328897 -0.74121588 0.68197489
3.40669847 -4.90169525 1.71443474 0.67304868 -0.72922122 0.62214905
4.77263308 -5.05941677 1.09169579 0.94291127 -0.75268537 0.39616412
4.31575823 -5.07200766 0.98312074 0.85264820 -0.75455850 0.35676345
4.91183853 -4.99902105 1.46463418 0.97041357 -0.74370033 0.53149927
4.44852924 -5.01128006 1.33854795 0.87887925 -0.74552411 0.48574397
3.88217831 -4.99416161 1.20127249 0.76698744 -0.74297738 0.43592826
3.48883939 -4.99514675 1.09981954 0.68927693 -0.74312395 0.39911214
4.80605316 -5.15946722 0.65430158 0.94951391 -0.76756978 0.23743868
4.48300362 -5.14800072 0.58235425 0.88569027 -0.76586390 0.21132980
4.15308714 -4.90866947 2.35201001 0.82050991 -0.73025882 0.85351795
4.90358543 -5.11392498 0.89535475 0.96878302 -0.76079446 0.32491416
4.59971619 -5.13398790 0.83252293 0.90874869 -0.76377922 0.30211321
4.14070368 -5.16174507 0.52768165 0.81806332 -0.76790863 0.19148973
3.63205743 -4.90228653 2.16201711 0.71757197 -0.72930920 0.78457165
4.10009813 -5.47607183 0.49758092 0.81004107 -0.81467080 0.18056652
3.20074916 -4.82588148 1.98811913 0.63236004 -0.71794248 0.72146606
4.22621155 -5.11792660 0.75904638 0.83495682 -0.76138979 0.27544940
3.66161013 -4.75044298 2.47147870 0.72341061 -0.70671958 0.89687181
3.90430069 -5.05819750 0.68041003 0.77135807 -0.75250393 0.24691314
3.38877130 -4.90803385 2.39616275 0.66950685 -0.73016423 0.86954051
4.70456934 -4.97583818 1.80030322 0.92946416 -0.74025142 0.65330976
4.20774317 -4.94804621 1.64572299 0.83130807 -0.73611683 0.59721434
3.67498159 -4.89863300 1.48945558 0.72605234 -0.72876567 0.54050666
3.30198169 -4.90922403 1.37350655 0.65236014 -0.73034132 0.49843007
3.88926315 -4.96706581 1.88045692 0.76838714 -0.73894638 0.68239665
3.43634367 -4.89503479 1.71780956 0.67890555 -0.72823036 0.62337375
4.81827259 -5.05968237 1.09680831 0.95192808 -0.75272489 0.39801940
4.34602976 -5.05913210 0.98463041 0.85862881 -0.75264299 0.35731128
4.48903608 -5.00928116 1.34376597 0.88688207 -0.74522674 0.48763755
3.92567420 -4.98505306 1.20510614 0.77558076 -0.74162233 0.43731946
3.52806997 -4.98438787 1.10238111 0.69702756 -0.74152339 0.40004170
4.87257481 -5.16521311 0.65988970 0.96265638 -0.76842457 0.23946655
4.54935026 -5.15861750 0.58781588 0.89879811 -0.76744336 0.21331176
4.21666431 -4.92102146 2.37080884 0.83307058 -0.73209637 0.86033982
4.97433615 -5.12265778 0.90344697 0.98276097 -0.76209366 0.32785073
4.67167568 -5.14910364 0.84089839 0.92296547 -0.76602799 0.30515257
4.18691015 -5.15257215 0.52988541 0.82719219 -0.76654398 0.19228946
3.65484500 -4.86886120 2.15727258 0.72207403 -0.72433656 0.78284991
4.16079807 -5.48518515 0.50165421 0.82203329 -0.81602657 0.18204467
3.24567866 -4.82766294 1.99735606 0.64123660 -0.71820754 0.72481805
4.28763723 -5.12614870 0.76521486 0.84709245 -0.76261300 0.27768785
3.82254958 -4.89414787 2.56020355 0.75520682 -0.72809845 0.92906904
3.97129774 -5.07899761 0.68778723 0.78459442 -0.75559837 0.24959025
3.92247987 -5.61060333 2.75566554 0.77494967 -0.83468491 1.00000000
4.76656342 -4.97818279 1.81220996 0.94171208 -0.74060023 0.65763062
4.26392889 -4.95093203 1.65574133 0.84240848 -0.73654616 0.60084987
3.73399687 -4.91243505 1.50104749 0.73771179 -0.73081899 0.54471326
3.35893321 -4.92705297 1.38461924 0.66361189 -0.73299372 0.50246274
3.93472433 -4.96047688 1.88742983 0.77736878 -0.73796612 0.68492705
3.47478294 -4.88432074 1.72174692 0.68649989 -0.72663647 0.62480259
4.87333679 -5.05340004 1.10224032 0.96280694 -0.75179023 0.39999062
4.42557812 -5.08705950 0.99580187 0.87434489 -0.75679773 0.36136529
3.97166657 -4.97865582 1.20970666 0.78466731 -0.74067062 0.43898892
3.57186580 -4.97973871 1.10640633 0.70568013 -0.74083173 0.40150240
4.93660259 -5.16745901 0.66503078 0.97530609 -0.76875871 0.24133219
