-4.45693922 -10.97146130 1.53020084 -0.86094260 -0.87613416 0.62419319
-5.12703609 -10.95525074 1.07923281 -0.99038452 -0.87483966 0.44023618
-4.91342068 -10.89846706 1.47860742 -0.94912064 -0.87030518 0.60314745
-3.13220668 -11.14005947 0.87476516 -0.60504526 -0.88959771 0.35683060
-4.01866770 -11.11263657 0.76982099 -0.77628207 -0.88740784 0.31402221
-4.46774292 -11.08071613 0.70569122 -0.86302954 -0.88485879 0.28786266
-4.95455122 -11.06064129 0.65306687 -0.95706582 -0.88325572 0.26639634
-2.73483539 -11.04939461 1.94954050 -0.52828544 -0.88235760 0.79524851
-3.34081388 -10.99834442 1.90887463 -0.64534175 -0.87828094 0.77866024
-3.21480417 -11.02735996 1.26301634 -0.62100059 -0.88059801 0.51520443
-3.61162329 -11.01210308 1.21026170 -0.69765371 -0.87937963 0.49368495
-4.11943960 -11.01639462 1.18405628 -0.79574811 -0.87972236 0.48299536
-4.55473757 -10.96382809 1.11528313 -0.87983418 -0.87552464 0.45494169
-3.93650222 -11.00953674 1.56816196 -0.76041025 -0.87917471 0.63967818
-4.37759829 -10.97351360 1.52629220 -0.84561634 -0.87629807 0.62259883
-5.03820276 -10.94383240 1.07442451 -0.97322470 -0.87392783 0.43827480
-4.82644415 -10.88741875 1.47243905 -0.93231946 -0.86942291 0.60063124
-3.05586410 -11.13645172 0.87267190 -0.59029830 -0.88930959 0.35597673
-3.93815589 -11.10757732 0.76736921 -0.76072973 -0.88700384 0.31302208
-4.39065742 -11.09003258 0.70428205 -0.84813899 -0.88560277 0.28728783
-4.87293768 -11.06413555 0.65111256 -0.94130057 -0.88353473 0.26559916
-2.66031909 -11.04527950 1.94576371 -0.51389122 -0.88202900 0.79370791
-3.26373887 -10.99266624 1.90420806 -0.63045323 -0.87782753 0.77675670
-3.14005160 -11.02823830 1.26059341 -0.60656071 -0.88066816 0.51421607
-3.53808761 -11.02134418 1.20864296 -0.68344891 -0.88011760 0.49302465
-4.04060459 -11.01592064 1.18092692 -0.78051960 -0.87968451 0.48171884
-4.47217655 -10.95910645 1.11150205 -0.86388594 -0.87514758 0.45339933
-3.86464477 -11.02657795 1.56700587 -0.74652964 -0.88053554 0.63920659
-4.29985905 -10.97868824 1.52294207 -0.83059955 -0.87671131 0.62123227
-4.96361780 -10.96257305 1.07302213 -0.95881718 -0.87542439 0.43770275
-4.75084352 -10.90116501 1.47002530 -0.91771579 -0.87052059 0.59964663
-2.98532009 -11.15350723 0.87249750 -0.57667136 -0.89067161 0.35590559
-3.86307740 -11.11702347 0.76614332 -0.74622685 -0.88775814 0.31252202
-4.30927610 -11.08766842 0.70202744 -0.83241862 -0.88541400 0.28636813
-4.79463577 -11.07437420 0.64967936 -0.92617506 -0.88435239 0.26501453
-3.19128942 -11.00159740 1.90220809 -0.61645824 -0.87854069 0.77594090
-3.06964111 -11.04392242 1.26010883 -0.59295958 -0.88192064 0.51401842
-3.46697307 -11.03767490 1.20794916 -0.66971177 -0.88142169 0.49274164
-3.96394634 -11.02050686 1.17846811 -0.76571161 -0.88005072 0.48071584
-4.39877224 -10.97591972 1.11024165 -0.84970653 -0.87649024 0.45288518
-3.78057671 -11.00756741 1.56035876 -0.73029029 -0.87901747 0.63649511
-4.22222757 -10.98332119 1.51959181 -0.81560355 -0.87708127 0.61986560
-4.88254547 -10.96625519 1.07001698 -0.94315654 -0.87571841 0.43647692
-4.68070126 -10.92715359 1.46948886 -0.90416646 -0.87259597 0.59942782
-5.10663939 -10.83485889 1.39701688 -0.98644453 -0.86522567 0.56986535
-2.91118503 -11.15661430 0.87110204 -0.56235075 -0.89091969 0.35533634
-3.78547788 -11.11841106 0.76430446 -0.73123705 -0.88786894 0.31177193
-4.22809839 -11.08471966 0.69977283 -0.81673759 -0.88517851 0.28544846
-4.71250582 -11.07487679 0.64759475 -0.91031015 -0.88439250 0.26416418
-3.11669350 -11.00246811 1.89887488 -0.60204864 -0.87861025 0.77458119
-2.99760866 -11.05340672 1.25889730 -0.57904512 -0.88267797 0.51352417
-3.39109921 -11.03836250 1.20540547 -0.65505528 -0.88147664 0.49170402
-3.88870573 -11.02831554 1.17645645 -0.75117749 -0.88067430 0.47989526
-4.32533360 -10.99224377 1.10898125 -0.83552045 -0.87779379 0.45237106
-3.71008444 -11.02735043 1.55978072 -0.71667337 -0.88059723 0.63625932
-4.14751720 -10.99481869 1.51735842 -0.80117184 -0.87799942 0.61895460
-4.80559826 -10.97847366 1.06801343 -0.92829269 -0.87669414 0.43565962
-4.59816790 -10.92344379 1.46466136 -0.88822359 -0.87229973 0.59745860
-5.01249886 -10.81098366 1.38913095 -0.96825945 -0.86331910 0.56664854
-2.83810377 -11.16309452 0.87005544 -0.54823375 -0.89143717 0.35490942
-3.71491718 -11.14008331 0.76415122 -0.71760690 -0.88959962 0.31170940
-4.15555811 -11.10359764 0.69920915 -0.80272508 -0.88668603 0.28521851
-4.63516045 -11.08584213 0.64629185 -0.89536941 -0.88526815 0.26363271
-2.45039511 -11.08768654 1.94473362 -0.47334042 -0.88541543 0.79328769
-3.04379940 -11.00853443 1.89654160 -0.58796775 -0.87909466 0.77362943
-4.37135458 -10.89873886 1.75938964 -0.84441030 -0.87032688 0.71768296
-2.94143033 -11.05205441 1.25695896 -0.56819320 -0.88257003 0.51273352
-3.33615589 -11.04471684 1.20424926 -0.64444196 -0.88198406 0.49123240
-3.83020496 -11.02773190 1.17422116 -0.73987693 -0.88062769 0.47898346
-4.25686312 -10.96988583 1.10414982 -0.82229406 -0.87600839 0.45040023
-3.65436459 -11.03343296 1.55804670 -0.70591003 -0.88108295 0.63555199
-4.08872461 -10.99569130 1.51456654 -0.78981489 -0.87806910 0.61781573
-4.74358892 -10.97723293 1.06540895 -0.91631442 -0.87659508 0.43459722
-4.54285526 -10.93583202 1.46332049 -0.87753892 -0.87328899 0.59691167
-4.97642040 -10.86692429 1.39370990 -0.96129024 -0.86778629 0.56851637
-2.78259730 -11.16474056 0.86900878 -0.53751159 -0.89156866 0.35448247
-3.65062571 -11.12144661 0.76123965 -0.70518780 -0.88811135 0.31052172
-4.09347630 -11.09686947 0.69723636 -0.79073280 -0.88614875 0.28441378
-4.56998158 -11.07617664 0.64407694 -0.88277882 -0.88449627 0.26272920
-2.39192867 -11.07021141 1.93958342 -0.46204650 -0.88401997 0.79118687
-2.98876953 -11.01134300 1.89454162 -0.57733768 -0.87931895 0.77281362
-4.33455753 -10.95596027 1.76542830 -0.83730221 -0.87489635 0.72014624
-2.86995006 -11.06262779 1.25598979 -0.55438542 -0.88341433 0.51233816
-3.25877285 -11.03880024 1.20101178 -0.62949395 -0.88151157 0.48991176
-3.75765538 -11.04216671 1.17310357 -0.72586262 -0.88178039 0.47852758
-4.18785334 -10.99641609 1.10414982 -0.80896354 -0.87812698 0.45040023
-3.57525420 -11.02603912 1.55342257 -0.69062835 -0.88049251 0.63366574
-4.01546574 -11.01000786 1.51289141 -0.77566355 -0.87921232 0.61713243
-4.66600132 -10.98665905 1.06320524 -0.90132689 -0.87734783 0.43369830
-5.11894464 -10.93993473 0.98452115 -0.98882151 -0.87361658 0.40160179
-4.46585226 -10.94396019 1.46037030 -0.86266428 -0.87393808 0.59570825
-4.89005470 -10.85821438 1.38811338 -0.94460708 -0.86709076 0.56623346
-2.71052766 -11.17425537 0.86831105 -0.52358997 -0.89232844 0.35419786
-3.57885575 -11.13846588 0.76077998 -0.69132406 -0.88947046 0.31033424
-4.01753521 -11.10549641 0.69596815 -0.77606332 -0.88683766 0.28389645
-4.49208689 -11.08431149 0.64264375 -0.86773199 -0.88514590 0.26214460
-5.02814960 -11.23620224 0.59530121 -0.97128272 -0.89727527 0.24283281
-2.32432842 -11.09466743 1.94130015 -0.44898823 -0.88597292 0.79188716
-3.98857880 -10.94607162 2.35246253 -0.77046984 -0.87410665 0.95960683
-2.79652119 -11.06503677 1.25405133 -0.54020125 -0.88360673 0.51154745
-3.18658090 -11.04951859 1.19985557 -0.61554873 -0.88236749 0.48944014
-3.68007469 -11.04103374 1.17019773 -0.71087641 -0.88168997 0.47734222
-4.11238432 -11.00575447 1.10225928 -0.79438525 -0.87887269 0.44962907
-3.50650072 -11.05017185 1.55371165 -0.67734730 -0.88241965 0.63378364
-3.93615770 -11.00706577 1.50870371 -0.76034373 -0.87897742 0.61542422
-4.58390379 -10.98451710 1.05979931 -0.88546818 -0.87717676 0.43230897
-5.01417208 -10.89415550 0.97655982 -0.96858269 -0.86996084 0.39835426
-4.38819218 -10.94971275 1.45715201 -0.84766275 -0.87439746 0.59439546
-4.81286478 -10.86878777 1.38531506 -0.92969638 -0.86793512 0.56509203
-2.63617826 -11.17360592 0.86674118 -0.50922799 -0.89227659 0.35355750
-3.50344777 -11.14360237 0.75940078 -0.67675757 -0.88988066 0.30977163
-3.94231749 -11.11548710 0.69484085 -0.76153362 -0.88763547 0.28343663
-4.41574097 -11.09561729 0.64147115 -0.85298437 -0.88604873 0.26166627
-4.95260906 -11.25661659 0.59458756 -0.95669061 -0.89890546 0.24254170
-2.25146580 -11.09359932 1.93855345 -0.43491343 -0.88588762 0.79076672
-2.72694278 -11.08238888 1.25405133 -0.52676088 -0.88499236 0.51154745
-3.11275744 -11.05403233 1.19800556 -0.60128832 -0.88272792 0.48868549
-3.60817647 -11.05637550 1.16930366 -0.69698793 -0.88291508 0.47697753
-4.03008652 -10.99591637 1.09826815 -0.77848786 -0.87808704 0.44800100
-3.42708397 -11.03983784 1.54879844 -0.66200644 -0.88159442 0.63177949
-3.86626267 -11.02971268 1.50842452 -0.74684215 -0.88078588 0.61531031
-4.51178932 -11.00573158 1.05899799 -0.87153792 -0.87887084 0.43198210
-4.95551538 -10.94719887 0.97878158 -0.95725203 -0.87419671 0.39926055
-4.30991411 -10.95307541 1.45366549 -0.83254188 -0.87466598 0.59297323
-4.73891544 -10.88609028 1.38353443 -0.91541165 -0.86931682 0.56436568
-3.42869949 -11.15013885 0.75817490 -0.66231853 -0.89040262 0.30927157
-3.86713290 -11.12497139 0.69371355 -0.74701029 -0.88839287 0.28297678
-4.33943033 -11.10640144 0.64029855 -0.83824348 -0.88690990 0.26118794
-4.83723402 -11.18497086 0.58792675 -0.93440372 -0.89318413 0.23982465
-2.17532206 -11.07464790 1.93271649 -0.42020482 -0.88437420 0.78838575
-2.65404534 -11.08578300 1.25235522 -0.51267934 -0.88526344 0.51085556
-3.04112267 -11.06571293 1.19708049 -0.58745068 -0.88366073 0.48830813
-3.53021693 -11.05230808 1.16617429 -0.68192852 -0.88259023 0.47570100
-3.95889020 -11.01540947 1.09763789 -0.76473492 -0.87964368 0.44774392
-3.35479379 -11.05167961 1.54735351 -0.64804220 -0.88254005 0.63119006
-3.77877975 -11.00137424 1.50060737 -0.72994316 -0.87852287 0.61212158
-4.42848825 -10.99876595 1.05519140 -0.85544676 -0.87831461 0.43042931
-4.86956358 -10.93994236 0.97489345 -0.94064879 -0.87361723 0.39767450
-4.22821283 -10.94663906 1.44883800 -0.81675971 -0.87415200 0.59100401
-4.65161991 -10.87191105 1.37742913 -0.89854884 -0.86818451 0.56187522
-2.48610973 -11.16304874 0.86290359 -0.48023936 -0.89143354 0.35199207
-3.35400748 -11.15617561 0.75694901 -0.64789033 -0.89088470 0.30877152
-3.78746009 -11.12073898 0.69159985 -0.73161995 -0.88805485 0.28211457
-4.26742697 -11.12785435 0.63990766 -0.82433468 -0.88862306 0.26102850
-4.82174349 -11.34366798 0.59625274 -0.93141145 -0.90585703 0.24322096
-2.10715199 -11.09584236 1.93408990 -0.40703648 -0.88606673 0.78894597
-2.96739268 -11.06925964 1.19523060 -0.57320833 -0.88394392 0.48755354
-3.45657754 -11.06098461 1.16460955 -0.66770369 -0.88328314 0.47506273
-3.87963796 -11.01194477 1.09448695 -0.74942583 -0.87936699 0.44645861
-3.28416920 -11.06874371 1.54677546 -0.63439971 -0.88390273 0.63095427
-3.70069408 -10.99863720 1.49669886 -0.71485943 -0.87830430 0.61052722
-4.35492325 -11.01526260 1.05398929 -0.84123623 -0.87963194 0.42993897
-4.78710556 -10.93933105 0.97174597 -0.92472047 -0.87356842 0.39639062
-4.15795183 -10.96928024 1.44830167 -0.80318749 -0.87595999 0.59078526
-4.58013010 -10.89361382 1.37641156 -0.88473922 -0.86991763 0.56146014
-2.42093062 -11.20182705 0.86499679 -0.46764880 -0.89453018 0.35284591
-3.27937508 -11.16171551 0.75572312 -0.63347363 -0.89132708 0.30827147
-3.70989728 -11.12161922 0.68990886 -0.71663719 -0.88812512 0.28142479
-4.18832874 -11.13014889 0.63821393 -0.80905533 -0.88880628 0.26033759
-4.73955965 -11.34796619 0.59458756 -0.91553611 -0.90620023 0.24254170
-2.03422594 -11.09141541 1.93099976 -0.39294943 -0.88571322 0.78768545
-2.91010976 -11.06391621 1.19291806 -0.56214303 -0.88351721 0.48661020
-3.39919090 -11.06004333 1.16259789 -0.65661836 -0.88320798 0.47424212
-3.82639170 -11.02634907 1.09406686 -0.73914033 -0.88051730 0.44628724
-3.22206116 -11.04988098 1.54157329 -0.62240237 -0.88239646 0.62883222
-3.64381528 -11.00092316 1.49446535 -0.70387220 -0.87848687 0.60961616
-4.29289103 -11.00968933 1.05118442 -0.82925355 -0.87918693 0.42879480
-4.73788071 -10.96724892 0.97230136 -0.91521174 -0.87579781 0.39661717
-4.09930897 -10.97017479 1.44561970 -0.79185951 -0.87603146 0.58969122
-4.51729345 -10.88761139 1.37259579 -0.87260115 -0.86943829 0.55990362
-2.36485076 -11.19750977 0.86360133 -0.45681590 -0.89418542 0.35227668
-3.22454166 -11.16937828 0.75511014 -0.62288153 -0.89193898 0.30802143
-3.65556979 -11.13329506 0.68948615 -0.70614284 -0.88905752 0.28125235
-4.13168764 -11.13852882 0.63743222 -0.79811406 -0.88947546 0.26001871
-4.68297625 -11.36279678 0.59411180 -0.90460593 -0.90738457 0.24234763
-1.98296499 -11.10669899 1.93202984 -0.38304740 -0.88693368 0.78810567
-2.44467092 -11.05047894 1.24242115 -0.47223467 -0.88244420 0.50680333
-2.83954287 -11.07813549 1.19245553 -0.54851168 -0.88465273 0.48642153
-3.32735777 -11.07356548 1.16170371 -0.64274246 -0.88428777 0.47387737
-3.75253153 -11.03699970 1.09259641 -0.72487283 -0.88136780 0.44568741
-3.15310836 -11.07181168 1.54186237 -0.60908282 -0.88414770 0.62895012
-3.57830811 -11.03489685 1.49614048 -0.69121826 -0.88119990 0.61029947
-4.21796656 -11.02156639 1.04958165 -0.81478047 -0.88013536 0.42814103
-4.65168810 -10.95650387 0.96822810 -0.89856201 -0.87493974 0.39495561
-4.02283382 -10.97523212 1.44266963 -0.77708685 -0.87643528 0.58848786
-4.44654036 -10.91027164 1.37183261 -0.85893381 -0.87124783 0.55959231
-2.29286456 -11.20433712 0.86290359 -0.44291040 -0.89473063 0.35199207
-3.14677143 -11.16253376 0.75296479 -0.60785872 -0.89139241 0.30714628
-3.58124948 -11.14275551 0.68849975 -0.69178647 -0.88981301 0.28084996
-4.05279303 -11.13987160 0.63573843 -0.78287405 -0.88958269 0.25932780
-4.60020685 -11.36425591 0.59232765 -0.88861746 -0.90750110 0.24161986
-1.91545510 -11.13253593 1.93443322 -0.37000659 -0.88899690 0.78908604
-2.37808299 -11.07921410 1.24411714 -0.45937195 -0.88473886 0.50749511
-2.76406622 -11.07263947 1.18968058 -0.53393197 -0.88421386 0.48528960
-3.24992275 -11.06754208 1.15857434 -0.62778437 -0.88380677 0.47260088
-3.66794991 -11.01509666 1.08755493 -0.70853430 -0.87961870 0.44363093
-3.07452631 -11.05897522 1.53694928 -0.59390324 -0.88312268 0.62694603
-3.50227785 -11.03641033 1.49306953 -0.67653155 -0.88132071 0.60904676
-4.13958073 -11.02361774 1.04697716 -0.79963875 -0.88029915 0.42707860
-4.56581831 -10.94510937 0.96415484 -0.88197464 -0.87402982 0.39329407
-3.94845819 -10.98536110 1.44052410 -0.76271981 -0.87724417 0.58761263
-4.36013412 -10.89382458 1.36572731 -0.84224284 -0.86993444 0.55710185
-2.21935129 -11.20288181 0.86150813 -0.42870992 -0.89461446 0.35142285
-3.07657337 -11.18208504 0.75296479 -0.59429866 -0.89295369 0.30714628
-3.50695443 -11.15172291 0.68751335 -0.67743492 -0.89052910 0.28044760
-3.97671366 -11.14818859 0.63456583 -0.76817787 -0.89024687 0.25884947
-4.52352905 -11.37995720 0.59149504 -0.87380564 -0.90875494 0.24128021
-1.90246224 -11.49240112 1.99589241 -0.36749676 -0.91773421 0.81415617
-2.30922556 -11.09782600 1.24460173 -0.44607082 -0.88622510 0.50769281
-2.69396830 -11.08785820 1.18944931 -0.52039123 -0.88542914 0.48519525
-4.19902039 -10.88480282 2.24443078 -0.81112063 -0.86921400 0.91553897
-3.17868590 -11.08200836 1.15790379 -0.61402363 -0.88496202 0.47232732
-3.60176730 -11.04737473 1.08860517 -0.69574988 -0.88219631 0.44405931
-3.00858355 -11.09145069 1.53897226 -0.58116513 -0.88571602 0.62777120
-3.42577982 -11.03551292 1.48971927 -0.66175455 -0.88124907 0.60768014
-4.06407452 -11.03259373 1.04517412 -0.78505331 -0.88101596 0.42634311
-4.49999189 -10.98094654 0.96489543 -0.86925900 -0.87689161 0.39359617
-3.87411451 -10.99498940 1.43837857 -0.74835891 -0.87801301 0.58673745
-4.28795719 -10.91177940 1.36445546 -0.82830048 -0.87136823 0.55658305
-2.14891815 -11.21660519 0.86150813 -0.41510442 -0.89571035 0.35142285
-3.00419998 -11.19348717 0.75235182 -0.58031833 -0.89386421 0.30689624
-3.43209863 -11.15829086 0.68638599 -0.66297513 -0.89105362 0.27998775
-3.90200138 -11.15975952 0.63365382 -0.75374579 -0.89117086 0.25847745
-4.45849800 -11.42488194 0.59256554 -0.86124367 -0.91234243 0.24171689
-2.23595238 -11.09459400 1.24242115 -0.43191671 -0.88596702 0.50680333
-3.10419989 -11.08452892 1.15589213 -0.59963524 -0.88516325 0.47150674
-3.52559662 -11.04895592 1.08629453 -0.68103606 -0.88232255 0.44311678
-2.93079185 -11.07950974 1.53434813 -0.56613821 -0.88476247 0.62588495
-3.35232425 -11.04356194 1.48776495 -0.64756519 -0.88189185 0.60688293
-3.98929191 -11.04292870 1.04357135 -0.77060759 -0.88184124 0.42568931
-4.41597414 -10.97208118 0.96119249 -0.85302937 -0.87618369 0.39208567
-3.79401350 -10.98724747 1.43381929 -0.73288584 -0.87739480 0.58487767
-4.20640373 -10.90521336 1.35987651 -0.81254685 -0.87084389 0.55471522
-2.07588649 -11.21616745 0.86028707 -0.40099695 -0.89567536 0.35092476
-2.92829490 -11.19091225 0.75066620 -0.56565583 -0.89365858 0.30620867
-3.35845470 -11.16817760 0.68554056 -0.64874941 -0.89184308 0.27964288
-3.82665706 -11.16894245 0.63261151 -0.73919159 -0.89190418 0.25805229
-4.39092875 -11.46384907 0.59327918 -0.84819138 -0.91545415 0.24200800
-3.57920551 -10.96785450 1.72798860 -0.69139159 -0.87584615 0.70487398
-2.16544628 -11.10452557 1.24193656 -0.41829714 -0.88676012 0.50660563
-3.03084922 -11.09038734 1.15432739 -0.58546615 -0.88563108 0.47086847
-3.45372057 -11.06329918 1.08545423 -0.66715181 -0.88346797 0.44277400
-2.86062908 -11.09578800 1.53405917 -0.55258489 -0.88606238 0.62576711
-3.27890325 -11.05112362 1.48581076 -0.63338250 -0.88249570 0.60608578
-3.91387892 -11.05088425 1.04176819 -0.75604016 -0.88247657 0.42495379
-4.33739138 -10.97555161 0.95878553 -0.83784962 -0.87646079 0.39110383
-3.72174501 -11.00147629 1.43247831 -0.71892583 -0.87853104 0.58433062
-4.13497972 -10.92401123 1.35885894 -0.79874998 -0.87234503 0.55430013
-2.04178429 -11.43499565 0.87860268 -0.39440948 -0.91315007 0.35839599
-2.85694456 -11.20522404 0.75035977 -0.55187315 -0.89480150 0.30608365
-3.28255868 -11.16992760 0.68413138 -0.63408864 -0.89198285 0.27906805
-3.74692941 -11.16436863 0.63065720 -0.72379065 -0.89153892 0.25725508
-4.32657337 -11.51175594 0.59458756 -0.83575994 -0.91927981 0.24254170
-3.50054455 -10.96001053 1.72315776 -0.67619675 -0.87521976 0.70290339
-2.09636068 -11.12181568 1.24242115 -0.40495193 -0.88814086 0.50680333
-2.47883272 -11.11146927 1.18644309 -0.47883368 -0.88731462 0.48396897
-2.95856452 -11.09960556 1.15320981 -0.57150298 -0.88636726 0.47041258
-3.37888336 -11.06766987 1.08356369 -0.65269560 -0.88381696 0.44200283
-2.78367734 -11.08473873 1.52972400 -0.53772020 -0.88518006 0.62399870
-3.20773840 -11.06580448 1.48497319 -0.61963570 -0.88366801 0.60574412
-3.83852386 -11.05832767 1.03996515 -0.74148387 -0.88307095 0.42421830
-4.26545095 -10.99516582 0.95804495 -0.82395297 -0.87802714 0.39080173
-3.64634752 -11.00581837 1.42979634 -0.70436138 -0.87887776 0.58323663
-4.06487322 -10.94605923 1.35835016 -0.78520757 -0.87410569 0.55409259
-2.13611436 -12.42376041 0.96529657 -0.41263112 -0.99210858 0.39375979
-2.78314424 -11.20939922 0.74928707 -0.53761727 -0.89513487 0.30564609
-3.20843482 -11.17691612 0.68314499 -0.61977023 -0.89254093 0.27866569
-3.67670822 -11.18769073 0.63065720 -0.71022612 -0.89340132 0.25725508
-4.25068903 -11.52935314 0.59399283 -0.82110143 -0.92068505 0.24229911
-3.42864704 -10.97235870 1.72164810 -0.66230839 -0.87620586 0.70228761
-2.03966713 -11.10813141 1.23951352 -0.39400050 -0.88704807 0.50561726
-2.42388248 -11.11138630 1.18505561 -0.46821901 -0.88730800 0.48340300
-2.90173125 -11.09611130 1.15119803 -0.56052458 -0.88608819 0.46959195
-3.31978941 -11.06062222 1.08104300 -0.64128047 -0.88325417 0.44097459
-2.73892355 -11.12849426 1.53434813 -0.52907515 -0.88867414 0.62588495
-3.14955306 -11.05985641 1.48190212 -0.60839605 -0.88319302 0.60449141
-3.78060675 -11.05933666 1.03816199 -0.73029608 -0.88315153 0.42348275
-4.19929647 -10.97796917 0.95434201 -0.81117398 -0.87665385 0.38929126
-3.59077668 -11.01156712 1.42818725 -0.69362682 -0.87933683 0.58258027
-4.00365496 -10.93902874 1.35478878 -0.77338207 -0.87354428 0.55263984
-2.72373867 -11.19525242 0.74714172 -0.52614194 -0.89400518 0.30477098
-3.14919233 -11.16888046 0.68145406 -0.60832638 -0.89189923 0.27797592
-3.61722732 -11.18399334 0.62922400 -0.69873625 -0.89310610 0.25667045
-4.19220209 -11.53800392 0.59327918 -0.80980355 -0.92137587 0.24200800
-3.37281418 -10.97517204 1.71953452 -0.65152323 -0.87643051 0.70142543
-1.97051823 -11.12463856 1.23999810 -0.38064307 -0.88836628 0.50581491
-2.34862947 -11.10114002 1.18204939 -0.45368245 -0.88648975 0.48217672
-3.85418820 -10.95337963 2.23369646 -0.74450976 -0.87469023 0.91116023
-2.83146834 -11.11219692 1.15097451 -0.54695195 -0.88737273 0.46950078
-3.25135469 -11.08507729 1.08146310 -0.62806100 -0.88520706 0.44114596
-2.65979862 -11.10697460 1.52856803 -0.51379067 -0.88695568 0.62352717
-3.08160162 -11.08514881 1.48273969 -0.59526998 -0.88521278 0.60483307
-3.70601630 -11.06776810 1.03655922 -0.71588755 -0.88382483 0.42282897
-4.12391043 -10.98736858 0.95267564 -0.79661173 -0.87740445 0.38861153
-3.51372790 -11.00935173 1.42470074 -0.67874336 -0.87915993 0.58115804
-3.92609096 -10.93971062 1.35148168 -0.75839913 -0.87359869 0.55129081
-1.83546054 -11.41543961 0.87389296 -0.35455412 -0.91158837 0.35647482
-2.65607834 -11.22379303 0.74806118 -0.51307207 -0.89628434 0.30514604
-3.07842159 -11.18652439 0.68131310 -0.59465569 -0.89330822 0.27791843
-3.54089594 -11.18746185 0.62792110 -0.68399137 -0.89338309 0.25613898
-4.12097073 -11.56787586 0.59351707 -0.79604387 -0.92376131 0.24210504
-3.29978347 -10.98289967 1.71742105 -0.63741595 -0.87704760 0.70056331
-1.89992070 -11.13288498 1.23951352 -0.36700583 -0.88902479 0.50561726
-2.28004050 -11.12151337 1.18274319 -0.44043317 -0.88811672 0.48245972
-3.85213733 -11.17234421 2.27395058 -0.74411356 -0.89217585 0.92758054
-2.75779128 -11.11432934 1.14918637 -0.53271985 -0.88754302 0.46877137
-3.17392516 -11.07853317 1.07852221 -0.61310399 -0.88468450 0.43994632
-3.00719500 -11.08709812 1.48022711 -0.58089691 -0.88536847 0.60380816
-3.63270259 -11.07948303 1.03535712 -0.70172560 -0.88476032 0.42233860
-4.05686760 -11.01866531 0.95323110 -0.78366113 -0.87990367 0.38883808
-3.44037342 -11.01796150 1.42282331 -0.66457355 -0.87984747 0.58039224
-3.85330796 -10.95294189 1.34995544 -0.74433970 -0.87465531 0.55066824
-1.77782094 -11.51931763 0.88209140 -0.34341994 -0.91988367 0.35981908
-2.99766207 -11.16712761 0.67849487 -0.57905543 -0.89175928 0.27676883
-3.46583796 -11.19422913 0.62687880 -0.66949254 -0.89392346 0.25571382
-4.05019045 -11.59919071 0.59387392 -0.78237128 -0.92626196 0.24225059
-3.22734904 -10.99203968 1.71560943 -0.62342387 -0.87777746 0.69982433
-1.82897925 -11.13872337 1.23878670 -0.35330212 -0.88949102 0.50532073
-2.20582485 -11.11419296 1.18019950 -0.42609704 -0.88753211 0.48142210
-3.71374345 -10.99350357 2.23216295 -0.71738017 -0.87789440 0.91053468
-4.38598537 -10.98307037 2.16686964 -0.84723651 -0.87706125 0.88390052
-2.68605161 -11.12370682 1.14829218 -0.51886195 -0.88829184 0.46840662
-3.10263705 -11.09251308 1.07789207 -0.59933335 -0.88580084 0.43968928
-2.93594456 -11.10003281 1.47938955 -0.56713355 -0.88640136 0.60346645
-3.55636430 -11.08123589 1.03315341 -0.68697941 -0.88490033 0.42143968
-3.96988773 -10.99526882 0.94841725 -0.76685929 -0.87803537 0.38687444
-3.36417198 -11.01660252 1.41960502 -0.64985383 -0.87973899 0.57907945
-3.77336550 -10.94507313 1.34563076 -0.72889733 -0.87402695 0.54890412
-2.50706530 -11.22123909 0.74530292 -0.48428735 -0.89608037 0.30402088
-2.92591262 -11.17995453 0.67807209 -0.56519568 -0.89278358 0.27659637
-3.39083505 -11.20049572 0.62583649 -0.65500426 -0.89442390 0.25528863
-3.98567367 -11.64895248 0.59542018 -0.76990867 -0.93023574 0.24288134
-3.15547872 -11.00260353 1.71409976 -0.60954070 -0.87862104 0.69920850
-1.75712204 -11.13822651 1.23733282 -0.33942154 -0.88945132 0.50472772
-2.13292527 -11.11223125 1.17834949 -0.41201508 -0.88737547 0.48066747
-3.64520955 -11.01848507 2.23254633 -0.70414156 -0.87988931 0.91069108
-3.01917553 -11.06192493 1.07243037 -0.58321118 -0.88335824 0.43746138
-2.42597508 -11.04491425 1.51209462 -0.46862322 -0.88199979 0.61680740
-2.85817933 -11.08759117 1.47492266 -0.55211169 -0.88540781 0.60164434
-3.47777629 -11.07486820 1.03014815 -0.67179865 -0.88439178 0.42021379
-3.90206027 -11.02374744 0.94878757 -0.75375718 -0.88030952 0.38702551
-3.28868747 -11.01662064 1.41665494 -0.63527250 -0.87974042 0.57787603
-3.70005488 -10.95541763 1.34385014 -0.71473598 -0.87485301 0.54817778
-2.43609214 -11.23482037 0.74514967 -0.47057754 -0.89716494 0.30395839
-2.85412049 -11.19232082 0.67764938 -0.55132765 -0.89377105 0.27642393
-3.31476450 -11.20243263 0.62453359 -0.64030981 -0.89457858 0.25475717
-3.92196608 -11.70214367 0.59720433 -0.75760233 -0.93448335 0.24360913
-1.56006300 -11.10252953 2.44673252 -0.30135584 -0.88660073 0.99806106
-3.08199382 -11.00698948 1.71168423 -0.59534574 -0.87897128 0.69822317
-1.68739784 -11.15101051 1.23757517 -0.32595298 -0.89047223 0.50482655
-2.06489205 -11.13517666 1.17950571 -0.39887318 -0.88920778 0.48113909
-3.56628251 -11.01127529 2.22641230 -0.68889529 -0.87931353 0.90818894
-2.95527768 -11.10180855 1.07474113 -0.57086807 -0.88654315 0.43840396
-2.37370539 -11.14126396 1.52423298 -0.45852634 -0.88969392 0.62175882
-2.78748655 -11.10149097 1.47436428 -0.53845602 -0.88651782 0.60141659
-3.40812254 -11.09650135 1.03014815 -0.65834367 -0.88611937 0.42021379
-3.82288003 -11.01984310 0.94601029 -0.73846197 -0.87999773 0.38589260
-3.21995521 -11.03896999 1.41692317 -0.62199557 -0.88152516 0.57798547
-3.62864256 -10.97092056 1.34283257 -0.70094132 -0.87609100 0.54776269
-2.36301279 -11.23819160 0.74423021 -0.45646086 -0.89743412 0.30358332
-2.77889895 -11.19067955 0.67624021 -0.53679717 -0.89364004 0.27584910
-3.24541426 -11.22687531 0.62479419 -0.62691349 -0.89653045 0.25486347
-3.86275220 -11.77016068 0.59994000 -0.74616402 -0.93991488 0.24472505
-1.15157139 -11.15606022 1.92035604 -0.22244792 -0.89087546 0.78334373
-1.48790574 -11.09469700 2.44284320 -0.28741729 -0.88597524 0.99647450
-3.00805378 -11.00898075 1.70896685 -0.58106279 -0.87913030 0.69711471
-1.63198900 -11.13918972 1.23515224 -0.31524971 -0.88952827 0.50383818
-2.01096988 -11.13696575 1.17858076 -0.38845709 -0.88935065 0.48076180
-3.50368476 -10.99427605 2.21951151 -0.67680335 -0.87795609 0.90537399
-2.48615289 -11.13546753 1.14449227 -0.48024771 -0.88923103 0.46685657
-2.89382148 -11.08098888 1.07095993 -0.55899668 -0.88488060 0.43686154
-2.31717920 -11.13294411 1.52134287 -0.44760722 -0.88902950 0.62057990
-2.73371124 -11.10873604 1.47352672 -0.52806830 -0.88709635 0.60107493
-3.35007453 -11.09337902 1.02814472 -0.64713061 -0.88586998 0.41939655
-3.76831961 -11.03020191 0.94526970 -0.72792262 -0.88082492 0.38559052
-3.16301584 -11.03686523 1.41450942 -0.61099666 -0.88135707 0.57700086
-3.56825995 -10.96150494 1.33927119 -0.68927729 -0.87533909 0.54630995
-2.30923271 -11.24529362 0.74392372 -0.44607222 -0.89800125 0.30345830
-2.72565842 -11.20171261 0.67609930 -0.52651274 -0.89452106 0.27579165
-3.18922186 -11.23051929 0.62401247 -0.61605883 -0.89682144 0.25454459
-3.80786085 -11.79013157 0.60005897 -0.73556072 -0.94150972 0.24477358
-1.09860814 -11.15744019 1.91966939 -0.21221705 -0.89098567 0.78306359
-1.44068599 -11.14030933 2.45148587 -0.27829590 -0.88961768 1.00000000
-2.95459557 -11.01730728 1.70806110 -0.57073635 -0.87979525 0.69674522
-1.56332707 -11.15905666 1.23636365 -0.30198637 -0.89111477 0.50433236
-1.93992245 -11.14351177 1.17788696 -0.37473291 -0.88987339 0.48047879
-4.06329679 -10.91577721 2.13357019 -0.78490305 -0.87168747 0.87031716
-2.41488576 -11.14503860 1.14382172 -0.46648112 -0.88999534 0.46658304
-2.82661033 -11.10858536 1.07201028 -0.54601353 -0.88708431 0.43729001
-2.24795890 -11.15116501 1.52192092 -0.43423602 -0.89048457 0.62081569
-2.66200113 -11.11799240 1.47240996 -0.51421613 -0.88783550 0.60061938
-3.27470779 -11.09511280 1.02614129 -0.63257211 -0.88600844 0.41857931
-3.69639993 -11.04611111 0.94452912 -0.71402997 -0.88209540 0.38528842
-3.09042335 -11.04506397 1.41290021 -0.59697402 -0.88201177 0.57634443
-3.49689460 -10.97615147 1.33825362 -0.67549169 -0.87650871 0.54589492
-1.39536142 -11.25674343 0.85470521 -0.26954061 -0.89891559 0.34864783
-2.23467755 -11.24001598 0.74239135 -0.43167046 -0.89757979 0.30283323
-2.65429688 -11.21473598 0.67581749 -0.51272792 -0.89556104 0.27567667
-3.11276865 -11.22916985 0.62257928 -0.60129046 -0.89671367 0.25395998
-3.74277806 -11.84236431 0.60184312 -0.72298878 -0.94568080 0.24550135
-1.02865982 -11.16608524 1.92001271 -0.19870521 -0.89167601 0.78320366
-2.88078213 -11.01844692 1.70534372 -0.55647784 -0.87988627 0.69563675
-1.49188459 -11.15881824 1.23515224 -0.28818589 -0.89109570 0.50383818
-1.86621666 -11.13393497 1.17534328 -0.36049524 -0.88910866 0.47944117
-3.34988642 -10.98671341 2.20916057 -0.64709425 -0.87735212 0.90115166
-3.98921084 -10.92632580 2.13064265 -0.77059191 -0.87252986 0.86912298
-2.33913970 -11.13275146 1.14069235 -0.45184931 -0.88901412 0.46530652
-2.74712229 -11.08753204 1.06780899 -0.53065890 -0.88540310 0.43557623
-2.17296982 -11.13980865 1.51816380 -0.41975045 -0.88957769 0.61928314
-3.19999933 -11.09825230 1.02433813 -0.61814076 -0.88625914 0.41784379
-3.61258483 -11.02561760 0.94027072 -0.69783944 -0.88045889 0.38355136
-3.01214767 -11.03174496 1.40834093 -0.58185363 -0.88094819 0.57448465
-3.41301990 -10.95058537 1.33189392 -0.65928972 -0.87446713 0.54330069
-1.32987595 -11.31080914 0.85871720 -0.25689083 -0.90323305 0.35028437
-2.16326475 -11.24991703 0.74208486 -0.41787574 -0.89837044 0.30270821
-3.04008198 -11.24079704 0.62205809 -0.58724964 -0.89764220 0.25374737
-3.68252397 -11.91140079 0.60469776 -0.71134955 -0.95119375 0.24666582
-0.95881110 -11.17625523 1.92069936 -0.18521260 -0.89248812 0.78348374
-2.81444383 -11.04782009 1.70715535 -0.54366332 -0.88223189 0.69637579
-1.42223704 -11.17191124 1.23563683 -0.27473214 -0.89214128 0.50403589
-3.28413320 -11.01883698 2.21146083 -0.63439280 -0.87991738 0.90208995
-3.91648459 -10.94007492 2.12844706 -0.75654346 -0.87362778 0.86822736
-2.26875186 -11.14528084 1.14046884 -0.43825257 -0.89001465 0.46521536
-2.68303919 -11.12776661 1.07032979 -0.51828003 -0.88861603 0.43660450
-2.10438657 -11.16102314 1.51931977 -0.40650228 -0.89127177 0.61975467
-2.50622964 -11.08105564 1.46235943 -0.48412591 -0.88488591 0.59651965
-3.12966847 -11.11622334 1.02413785 -0.60455501 -0.88769424 0.41776210
-3.55241036 -11.07652664 0.94304794 -0.68621564 -0.88452423 0.38468423
-2.94480062 -11.05811691 1.40941370 -0.56884426 -0.88305414 0.57492220
-3.34880233 -10.98698616 1.33392906 -0.64688486 -0.87737393 0.54413086
-1.25596535 -11.29319382 0.85644954 -0.24261360 -0.90182638 0.34935936
-2.08892941 -11.24367523 0.74055248 -0.40351644 -0.89787203 0.30208310
-2.48948383 -11.14210701 0.66820812 -0.48089114 -0.88976121 0.27257270
-2.96484447 -11.24230003 0.62088549 -0.57271612 -0.89776218 0.25326905
-3.61457992 -11.95722485 0.60612512 -0.69822484 -0.95485306 0.24724805
-0.88994277 -11.19973850 1.92378950 -0.17190938 -0.89436340 0.78474426
-2.73682261 -11.03267860 1.70202243 -0.52866936 -0.88102275 0.69428200
-1.34849262 -11.15105629 1.23200238 -0.26048699 -0.89047587 0.50255334
-1.74521184 -11.27819347 1.18968058 -0.33712086 -0.90062851 0.48528960
-3.20447087 -11.00342846 2.20417666 -0.61900449 -0.87868696 0.89911866
-2.19639540 -11.14761162 1.13912773 -0.42427555 -0.89020079 0.46466827
-2.03141093 -11.15844440 1.51700783 -0.39240566 -0.89106584 0.61881155
-2.44426394 -11.13138771 1.46738470 -0.47215608 -0.88890523 0.59856951
-3.05557084 -11.12030983 1.02253509 -0.59024161 -0.88802058 0.41710830
-3.46535754 -11.04355717 0.93767864 -0.66939974 -0.88189143 0.38249400
-2.86982250 -11.05528927 1.40646362 -0.55436081 -0.88282830 0.57371885
-3.27400541 -10.98880863 1.33138514 -0.63243639 -0.87751949 0.54309314
-2.02103019 -11.27228546 0.74177843 -0.39040041 -0.90015674 0.30258319
-2.43733001 -11.23938560 0.67412651 -0.47081664 -0.89752948 0.27498689
-2.89365554 -11.25877285 0.62075520 -0.55896461 -0.89907765 0.25321591
-3.53881073 -11.97778606 0.60600615 -0.68358856 -0.95649499 0.24719952
-2.66931820 -11.05734062 1.70323014 -0.51562959 -0.88299215 0.69477463
-1.66369653 -11.21821117 1.18135571 -0.32137462 -0.89583856 0.48189375
-3.13847351 -11.03467941 2.20647693 -0.60625583 -0.88118249 0.90005696
-3.79733896 -11.04231453 2.13905907 -0.73352826 -0.88179219 0.87255615
-2.12557292 -11.15728569 1.13868070 -0.41059482 -0.89097333 0.46448594
-1.96261573 -11.17878723 1.51816380 -0.37911656 -0.89269036 0.61928314
-2.37136316 -11.13297272 1.46543038 -0.45807388 -0.88903177 0.59777230
-2.98001051 -11.11813641 1.02033126 -0.57564569 -0.88784701 0.41620931
-3.39648843 -11.06701469 0.93786377 -0.65609634 -0.88376468 0.38256952
-2.79789138 -11.06349182 1.40512264 -0.54046595 -0.88348335 0.57317185
-3.20154929 -10.99774075 1.32985890 -0.61844015 -0.87823272 0.54247057
-1.94646788 -11.26313972 0.74009281 -0.37599728 -0.89942640 0.30189562
-2.36500716 -11.24667168 0.67356288 -0.45684612 -0.89811128 0.27475700
-2.81612039 -11.24961567 0.61893117 -0.54398721 -0.89834642 0.25247186
-3.46515298 -12.00553608 0.60636300 -0.66936022 -0.95871097 0.24734509
-1.23048913 -11.20863342 1.23733282 -0.23769237 -0.89507371 0.50472772
-1.62224138 -11.30456448 1.19060564 -0.31336677 -0.90273440 0.48566693
-3.07751846 -11.01719093 2.19995952 -0.59448123 -0.87978595 0.89739841
-3.71039748 -10.95771790 2.11893296 -0.71673381 -0.87503672 0.86434639
-2.07117605 -11.15740490 1.13756299 -0.40008706 -0.89098287 0.46403000
-2.46682096 -11.06767368 1.05898643 -0.47651339 -0.88381732 0.43197736
-1.90760863 -11.17425156 1.51614070 -0.36849087 -0.89232814 0.61845785
-2.31602573 -11.13045597 1.46347606 -0.44738442 -0.88883084 0.59697509
-2.92607641 -11.12627888 1.01973021 -0.56522733 -0.88849723 0.41596413
-3.33735514 -11.06003189 0.93564200 -0.64467359 -0.88320702 0.38166323
-2.74383140 -11.06885529 1.40404987 -0.53002322 -0.88391167 0.57273424
-3.14584613 -10.99936104 1.32807815 -0.60768002 -0.87836212 0.54174417
-1.89271641 -11.26825333 0.73978633 -0.36561418 -0.89983475 0.30177060
-2.31279206 -11.26159859 0.67384470 -0.44675976 -0.89930332 0.27487195
-2.76118851 -11.25500584 0.61841005 -0.53337610 -0.89877683 0.25225928
-3.39265609 -11.96605682 0.60291362 -0.65535605 -0.95555836 0.24593803
-1.55282116 -11.32633972 1.19199312 -0.29995695 -0.90447325 0.48623291
-3.01285076 -11.05336285 2.20340991 -0.58198941 -0.88267452 0.89880586
-3.64085317 -10.97894859 2.11856699 -0.70330006 -0.87673211 0.86419708
-2.00033760 -11.16628456 1.13711596 -0.38640326 -0.89169192 0.46384764
-2.40910363 -11.13736534 1.06486809 -0.46536419 -0.88938254 0.43437660
-1.83609247 -11.17820358 1.51498473 -0.35467619 -0.89264375 0.61798632
-2.24446702 -11.13702583 1.46235943 -0.43356150 -0.88935548 0.59651965
-2.85022330 -11.12130260 1.01732612 -0.55057484 -0.88809985 0.41498348
-3.26439762 -11.06932831 0.93453109 -0.63058048 -0.88394940 0.38121006
-2.67007804 -11.06852913 1.40163612 -0.51577634 -0.88388562 0.57174963
-3.06915712 -10.99217319 1.32451677 -0.59286606 -0.87778813 0.54029143
-1.82156456 -11.27795410 0.73963308 -0.35186982 -0.90060937 0.30170807
-2.24081063 -11.27003956 0.67342198 -0.43285519 -0.89997739 0.27469951
-2.68765759 -11.26047993 0.61762828 -0.51917219 -0.89921397 0.25194037
-2.46701884 -11.05358982 1.69568181 -0.47655162 -0.88269264 0.69169551
-1.48710585 -11.37722969 1.19684935 -0.28726277 -0.90853709 0.48821384
-3.55897927 -10.96235752 2.11088252 -0.68748450 -0.87540716 0.86106247
-1.96326888 -11.37258244 1.15924501 -0.37924272 -0.90816599 0.47287443
-2.33743143 -11.14449883 1.06402791 -0.45151934 -0.88995224 0.43403387
-1.76490700 -11.18365288 1.51411772 -0.34092537 -0.89307892 0.61763263
-2.17597723 -11.15868092 1.46347606 -0.42033139 -0.89108473 0.59697509
-2.78029037 -11.13899136 1.01732612 -0.53706598 -0.88951242 0.41498348
-3.20032954 -11.10874653 0.93638259 -0.61820453 -0.88709718 0.38196531
-3.00423002 -11.02654552 1.32655180 -0.58032417 -0.88053298 0.54112154
-1.74915719 -11.27932072 0.73886687 -0.33788297 -0.90071851 0.30139554
-2.16653299 -11.26626968 0.67215371 -0.41850704 -0.89967632 0.27418217
-2.61774874 -11.28103447 0.61788887 -0.50566792 -0.90085536 0.25204667
-2.39667487 -11.06500912 1.69507802 -0.46296334 -0.88360453 0.69144922
-1.56032157 -11.12385654 2.36815429 -0.30140579 -0.88830382 0.96600771
-3.48524141 -10.96951962 2.10795498 -0.67324066 -0.87597913 0.85986829
-1.87920356 -11.30820847 1.15052748 -0.36300391 -0.90302539 0.46931842
-2.26296806 -11.13753319 1.06171715 -0.43713531 -0.88939595 0.43309128
-1.69372559 -11.18864918 1.51325071 -0.32717532 -0.89347786 0.61727899
-2.09989762 -11.14100456 1.45900917 -0.40563515 -0.88967317 0.59515297
-2.70698333 -11.14269829 1.01592362 -0.52290529 -0.88980842 0.41441137
-3.11310458 -11.06732178 0.93045783 -0.60135537 -0.88378918 0.37954852
-2.92668390 -11.01454258 1.32248163 -0.56534463 -0.87957448 0.53946126
-1.67738402 -11.28416920 0.73840714 -0.32401863 -0.90110570 0.30120799
-2.09349537 -11.26789570 0.67130822 -0.40439844 -0.89980614 0.27383727
-2.54986501 -11.31089306 0.61880088 -0.49255493 -0.90323973 0.25241870
-2.32628489 -11.07598114 1.69447410 -0.44936615 -0.88448071 0.69120288
-0.93257540 -11.04409790 1.21383011 -0.18014468 -0.88193464 0.49514058
-1.35276103 -11.46800041 1.20540547 -0.26131153 -0.91578567 0.49170402
-2.78346419 -11.02631187 2.18692493 -0.53767902 -0.88051432 0.89208138
-3.41331506 -10.98181915 2.10612535 -0.65934670 -0.87696129 0.85912198
-1.80873537 -11.32371902 1.15097451 -0.34939164 -0.90426397 0.46950078
-2.19217014 -11.14762974 1.06129706 -0.42345935 -0.89020222 0.43291992
-1.62227082 -11.19123459 1.51209462 -0.31337246 -0.89368433 0.61680740
-2.02913952 -11.15008354 1.45845079 -0.39196688 -0.89039820 0.59492522
-2.63555598 -11.15367508 1.01532257 -0.50910777 -0.89068502 0.41416618
-3.05199456 -11.11737347 0.93342024 -0.58955079 -0.88778609 0.38075694
-2.45460534 -11.08785152 1.39761329 -0.47415370 -0.88542861 0.57010865
-2.85691929 -11.03079414 1.32222724 -0.55186832 -0.88087225 0.53935748
-1.60700548 -11.29843521 0.73871362 -0.31042367 -0.90224493 0.30133301
-2.02301168 -11.28279018 0.67144918 -0.39078319 -0.90099555 0.27389479
-2.48467207 -11.35399628 0.62062496 -0.47996166 -0.90668178 0.25316277
-2.25426078 -11.07875919 1.69266248 -0.43545336 -0.88470250 0.69046390
-1.41529584 -11.10183430 2.35936999 -0.27339131 -0.88654518 0.96242446
-2.05566764 -11.31202698 2.32115388 -0.39709130 -0.90333033 0.94683552
-0.87660247 -11.22591686 1.23539448 -0.16933244 -0.89645392 0.50393701
-2.71273422 -11.03786182 2.18577480 -0.52401620 -0.88143665 0.89161223
-3.33619571 -10.97672462 2.10100245 -0.64444965 -0.87655449 0.85703224
-1.73606277 -11.32503510 1.14985693 -0.33535355 -0.90436906 0.46904489
-2.12170982 -11.15923023 1.06108701 -0.40984860 -0.89112860 0.43283424
-1.55299485 -11.20904922 1.51325071 -0.29999048 -0.89510691 0.61727899
-1.96042526 -11.17041206 1.45956755 -0.37869343 -0.89202154 0.59538078
-2.96808267 -11.08441734 0.92842120 -0.57334161 -0.88515437 0.37871775
-2.38489032 -11.10305595 1.39761329 -0.46068692 -0.88664275 0.57010865
-2.77778029 -11.01007462 1.31713951 -0.53658110 -0.87921768 0.53728211
-1.53545427 -11.30435658 0.73840714 -0.29660219 -0.90271777 0.30120799
-1.95002103 -11.28348637 0.67060369 -0.37668365 -0.90105116 0.27354988
-2.42725730 -11.43578434 0.62505478 -0.46887091 -0.91321301 0.25496978
-2.18229389 -11.08106899 1.69085097 -0.42155156 -0.88488698 0.68972492
-1.34852433 -11.13575363 2.36480784 -0.26049313 -0.88925385 0.96464264
-0.82652497 -11.26952744 1.24024045 -0.15965901 -0.89993650 0.50591379
-1.19441020 -11.18593597 1.17071831 -0.23072305 -0.89326119 0.47755459
-2.65840936 -11.04097652 2.18385792 -0.51352233 -0.88168538 0.89083034
-3.28329968 -10.98855877 2.10027051 -0.63423175 -0.87749952 0.85673368
-1.68267572 -11.33308983 1.14985693 -0.32504082 -0.90501231 0.46904489
-2.06873393 -11.16714954 1.06087697 -0.39961529 -0.89176100 0.43274856
-1.49756813 -11.19662285 1.51036060 -0.28928375 -0.89411461 0.61610007
-1.90540791 -11.16586494 1.45761323 -0.36806577 -0.89165843 0.59458357
-2.50107145 -11.12953758 1.00991333 -0.48312953 -0.88875747 0.41195968
-2.91989136 -11.11368179 0.92990243 -0.56403255 -0.88749129 0.37932196
-2.33092785 -11.10640907 1.39654040 -0.45026305 -0.88691056 0.56967098
-2.72826433 -11.03266716 1.31841147 -0.52701616 -0.88102180 0.53780097
-1.48267806 -11.31542206 0.73871362 -0.28640747 -0.90360141 0.30133301
-1.89749527 -11.29648399 0.67088550 -0.36653730 -0.90208912 0.27366483
-2.38258123 -11.49205875 0.62805140 -0.46024087 -0.91770685 0.25619215
-2.12892222 -11.08540726 1.68994510 -0.41124183 -0.88523340 0.68935543
-1.29870284 -11.16530132 2.36982751 -0.25086915 -0.89161342 0.96669024
-0.76048118 -11.34779739 1.24920547 -0.14690140 -0.90618676 0.50957072
-3.20809388 -10.98822021 2.09624529 -0.61970437 -0.87747246 0.85509175
-1.99888182 -11.18188477 1.06108701 -0.38612205 -0.89293772 0.43283424
-1.42916059 -11.22152042 1.51267266 -0.27606955 -0.89610285 0.61704320
-1.83359170 -11.16784859 1.45621729 -0.35419312 -0.89181685 0.59401417
-2.43614125 -11.16837215 1.01231742 -0.47058702 -0.89185864 0.41294035
-2.83558226 -11.07588768 0.92453313 -0.54774666 -0.88447320 0.37713173
-2.25875020 -11.10917759 1.39493132 -0.43632054 -0.88713163 0.56901461
-2.65047455 -11.01488972 1.31383252 -0.51198959 -0.87960219 0.53593314
-1.41228175 -11.33045197 0.73917335 -0.27280909 -0.90480167 0.30152056
-1.82551563 -11.30227661 0.67046279 -0.35263306 -0.90255165 0.27349243
-2.31422257 -11.52637577 0.62935430 -0.44703609 -0.92044729 0.25672361
-2.05922914 -11.09856510 1.68994510 -0.39777926 -0.88628417 0.68935543
-1.82435095 -11.13129997 2.27659941 -0.35240808 -0.88889819 0.92866105
-0.69687212 -11.48315239 1.26519704 -0.13461410 -0.91699564 0.51609397
-3.13681984 -11.00059986 2.09478164 -0.60593641 -0.87846106 0.85449469
-1.54065824 -11.35727978 1.15030396 -0.29760745 -0.90694398 0.46922725
-1.95315111 -11.33530426 1.07621157 -0.37728828 -0.90518916 0.43900380
-1.35628438 -11.21062756 1.50978255 -0.26199213 -0.89523298 0.61586428
-1.76307428 -11.17719269 1.45593822 -0.34057131 -0.89256299 0.59390032
-2.36510372 -11.17956352 1.01191676 -0.45686477 -0.89275235 0.41277692
-2.77660942 -11.13597584 0.92860639 -0.53635490 -0.88927162 0.37879330
-2.18890500 -11.12315083 1.39493132 -0.42282861 -0.88824743 0.56901461
-1.75261033 -11.30169773 0.66961730 -0.33855000 -0.90250546 0.27314752
-2.24477243 -11.55636692 0.63039660 -0.43362048 -0.92284226 0.25714877
-1.98875058 -11.10739326 1.68934131 -0.38416499 -0.88698912 0.68910915
-1.72910094 -10.98388004 2.24368548 -0.33400872 -0.87712586 0.91523492
-2.44059157 -11.04693890 2.17542362 -0.47144666 -0.88216150 0.88738984
-3.06498623 -11.01062584 2.09295201 -0.59206039 -0.87926167 0.85374832
-1.47127867 -11.38250732 1.15209222 -0.28420547 -0.90895855 0.46995670
-1.87202489 -11.28850555 1.06990969 -0.36161721 -0.90145200 0.43643314
-1.28648508 -11.22482777 1.51064968 -0.24850906 -0.89636695 0.61621797
-1.69071293 -11.17434692 1.45398390 -0.32659337 -0.89233577 0.59310311
-2.28966427 -11.16885090 1.00931227 -0.44229218 -0.89189684 0.41171449
-2.69144773 -11.09130096 0.92268163 -0.51990432 -0.88570404 0.37637648
-2.11603761 -11.12110329 1.39278579 -0.40875292 -0.88808393 0.56813943
-1.68334663 -11.32432365 0.67046279 -0.32517043 -0.90431225 0.27349243
-2.17175293 -11.56828117 0.63026631 -0.41951537 -0.92379367 0.25709563
-1.91586447 -11.10214043 1.68662381 -0.37008566 -0.88656968 0.68800062
-1.67692900 -11.10492611 2.26656461 -0.32393074 -0.88679212 0.92456770
-0.91523653 -11.24013519 1.17395580 -0.17679535 -0.89758933 0.47887519
-2.37602949 -11.08509541 2.18002415 -0.45897529 -0.88520849 0.88926643
-2.99159431 -11.01449394 2.09002447 -0.57788336 -0.87957060 0.85255414
-1.40594280 -11.44282722 1.15790379 -0.27158460 -0.91377544 0.47232732
-1.80232680 -11.30789852 1.07074988 -0.34815371 -0.90300059 0.43677586
-1.21320975 -11.20710659 1.50689256 -0.23435454 -0.89495182 0.61468542
-1.62190700 -11.19454670 1.45537984 -0.31330219 -0.89394885 0.59367251
-2.21675634 -11.16934967 1.00790977 -0.42820865 -0.89193672 0.41114241
-2.04541111 -11.13027859 1.39224935 -0.39511004 -0.88881665 0.56792063
-2.41609073 -10.94477367 1.29831493 -0.46671388 -0.87400299 0.52960324
-1.61358321 -11.34455013 0.67116731 -0.31169429 -0.90592748 0.27377981
-2.09937739 -11.58366203 0.63039660 -0.40553465 -0.92502195 0.25714877
-1.84574282 -11.11200905 1.68632197 -0.35654032 -0.88735771 0.68787748
-1.61109650 -11.14238358 2.27218413 -0.31121394 -0.88978332 0.92685997
-2.29841566 -11.06135464 2.17235661 -0.44398269 -0.88331270 0.88613874
-1.14454353 -11.23223114 1.50949359 -0.22109035 -0.89695817 0.61574638
-1.54961181 -11.19078827 1.45342553 -0.29933700 -0.89364868 0.59287536
-2.14653397 -11.18305683 1.00790977 -0.41464385 -0.89303130 0.41114241
-1.97475255 -11.13900661 1.39171302 -0.38146102 -0.88951361 0.56770182
-2.37115645 -11.07026196 1.31281495 -0.45803395 -0.88402396 0.53551805
-1.56430614 -11.51455307 0.68258137 -0.30217549 -0.91950315 0.27843577
-2.04254174 -11.68905163 0.63652015 -0.39455578 -0.93343788 0.25964668
-1.77525759 -11.11948299 1.68571806 -0.34292477 -0.88795453 0.68763113
-1.53915358 -11.13870430 2.26937437 -0.29731679 -0.88948947 0.92571384
-2.24278355 -11.05474281 2.16890645 -0.43323630 -0.88278466 0.88473135
-2.86283731 -11.01818943 2.08453560 -0.55301148 -0.87986571 0.85031515
-1.84658754 -12.45212746 1.19090569 -0.35670349 -0.99437386 0.48578933
-1.09009814 -11.22173882 1.50718153 -0.21057318 -0.89612025 0.61480325
-1.49632764 -11.19404125 1.45286715 -0.28904414 -0.89390844 0.59264755
-2.09199929 -11.18326473 1.00690806 -0.40410945 -0.89304787 0.41073379
-2.49281812 -11.10701370 0.91990441 -0.48153523 -0.88695884 0.37524360
-1.92523885 -11.16577244 1.39412677 -0.37189651 -0.89165103 0.56868643
-2.31486464 -11.06190300 1.31027114 -0.44716012 -0.88335645 0.53448039
-1.52946842 -11.66814327 0.69300896 -0.29544592 -0.93176824 0.28268936
-1.99537730 -11.74578285 0.63964713 -0.38544509 -0.93796819 0.26092222
-1.72345078 -11.13163185 1.68632197 -0.33291730 -0.88892472 0.68787748
-2.17740273 -11.08981133 2.17312336 -0.42060676 -0.88558513 0.88645154
-2.79015064 -11.02262211 2.08197403 -0.53897065 -0.88021964 0.84927022
-1.24283493 -11.80148220 1.19590306 -0.24007720 -0.94241613 0.48782784
-1.02149820 -11.25004959 1.51036060 -0.19732180 -0.89838105 0.61610007
-1.42520356 -11.19732952 1.45202959 -0.27530518 -0.89417106 0.59230590
-2.02134180 -11.19422913 1.00670779 -0.39046061 -0.89392346 0.41065207
-2.43110180 -11.15941238 0.92342222 -0.46961355 -0.89114314 0.37667859
-1.85247684 -11.16200256 1.39198124 -0.35784113 -0.89134997 0.56781125
-2.24611068 -11.08011627 1.31077981 -0.43387899 -0.88481092 0.53468788
-1.49667084 -11.99816418 0.71583700 -0.28911042 -0.95812231 0.29200128
-1.92663383 -11.78961086 0.64173174 -0.37216598 -0.94146812 0.26177257
-1.65259385 -11.13637543 1.68541610 -0.31922993 -0.88930351 0.68750799
-1.41708720 -11.15884113 2.27017713 -0.27373734 -0.89109755 0.92604131
-2.10514259 -11.08976936 2.17043972 -0.40664834 -0.88558173 0.88535678
-2.71657348 -11.02276134 2.07868075 -0.52475780 -0.88023078 0.84792686
-0.94899923 -11.23455143 1.50718153 -0.18331724 -0.89714342 0.61480325
-1.35530341 -11.20999432 1.45258796 -0.26180261 -0.89518243 0.59253371
-2.17762280 -12.52258110 1.14113963 -0.42064926 -1.00000000 0.46548897
-2.35678625 -11.15499020 0.92157072 -0.45525807 -0.89078999 0.37592334
-1.77829504 -11.14797020 1.38849473 -0.34351149 -0.89022940 0.56638902
-2.17375064 -11.08038807 1.30899918 -0.41990128 -0.88483262 0.53396153
-1.86782658 -11.90009022 0.64824617 -0.36080623 -0.95029050 0.26442990
-1.58146405 -11.13871193 1.68420839 -0.30548987 -0.88949013 0.68701535
-1.34408903 -11.14418697 2.26536059 -0.25963637 -0.88992733 0.92407656
-2.03507185 -11.10084534 2.17005634 -0.39311284 -0.88646626 0.88520044
-2.64864802 -11.04534626 2.07977843 -0.51163673 -0.88203430 0.84837466
-0.87989843 -11.26002502 1.51007164 -0.16996911 -0.89917767 0.61598217
