7.46798038 -4.32172728 1.46954155 0.63995552 -0.98597801 0.60445553
7.03744125 -4.00007486 2.26466513 0.60306126 -0.91259480 0.93150783
7.44700050 -4.24750042 1.45992780 0.63815773 -0.96904355 0.60050118
7.05571222 -3.95203495 2.26247883 0.60462695 -0.90163475 0.93060851
7.43226433 -4.17755413 1.45168746 0.63689494 -0.95308572 0.59711176
7.09221077 -3.91410255 2.26630449 0.60775465 -0.89298069 0.93218213
7.40486336 -4.10130835 1.44104373 0.63454682 -0.93569064 0.59273374
7.07265902 -3.84568048 2.25209498 0.60607916 -0.87737060 0.92633742
7.42009544 -4.04906368 1.43898368 0.63585216 -0.92377132 0.59188640
7.07460546 -3.78941274 2.24499011 0.60624599 -0.86453342 0.92341501
7.40020990 -3.97821522 1.43005669 0.63414806 -0.90760767 0.58821452
6.98342705 -3.69868350 2.21001267 0.59843260 -0.84383404 0.90902799
7.40493822 -3.93593431 1.42730987 0.63455325 -0.89796150 0.58708471
7.06362486 -3.62812972 2.22094321 0.60530502 -0.82773763 0.91352397
7.07761860 -3.52372718 2.21110582 0.60650420 -0.80391872 0.90947765
8.08277988 -4.34276676 0.98098272 0.69263971 -0.99077809 0.40350029
8.10838318 -4.16166735 0.97347146 0.69483376 -0.94946122 0.40041074
8.15033627 -4.11866236 0.97565216 0.69842887 -0.93964988 0.40130773
8.12520313 -4.05813217 0.96959472 0.69627512 -0.92584026 0.39881617
8.14340591 -4.00351238 0.96862555 0.69783497 -0.91337907 0.39841750
8.22521305 -4.37967205 0.94594538 0.70484525 -0.99919778 0.38908866
7.61468363 -4.36202765 1.38630152 0.65252703 -0.99517232 0.57021707
8.17018890 -3.95312810 0.96886784 0.70013011 -0.90188420 0.39851716
8.17349052 -4.28621340 0.93553925 0.70041299 -0.97787571 0.38480836
7.82729197 -4.38318825 1.17077792 0.67074615 -1.00000000 0.48156735
8.11770725 -3.86519098 0.95844907 0.69563276 -0.88182181 0.39423171
8.17028713 -4.21921158 0.93160802 0.70013851 -0.96258962 0.38319138
7.86335230 -4.33868265 1.17222297 0.67383623 -0.98984629 0.48216173
7.11916256 -3.99471617 2.15284467 0.61006421 -0.91137224 0.88551354
7.59115601 -4.22298813 1.37192273 0.65051085 -0.96345121 0.56430274
8.14180183 -4.13975859 0.92443931 0.69769752 -0.94446290 0.38024271
8.14813328 -4.07869577 0.92189562 0.69824004 -0.93053174 0.37919644
8.14414024 -4.02875090 0.91888940 0.69789791 -0.91913712 0.37795991
8.13896179 -3.96264863 0.91495818 0.69745415 -0.90405625 0.37634292
7.32066345 -3.88355398 2.18597627 0.62733150 -0.88601124 0.89914131
7.57131910 -3.98167920 1.35051429 0.64881098 -0.90839797 0.55549693
8.14580250 -3.90280795 0.91264570 0.69804031 -0.89040393 0.37539175
7.54879379 -3.90962696 1.34188700 0.64688069 -0.89195961 0.55194837
8.14503384 -3.83963370 0.90940821 0.69797444 -0.87599105 0.37406009
7.95395041 -4.37859011 1.14074075 0.68159992 -0.99895096 0.46921238
8.14919472 -3.77914310 0.90686452 0.69833100 -0.86219049 0.37301382
8.15496159 -4.20598984 0.89324999 0.69882518 -0.95957315 0.36741385
7.93783569 -4.30482674 1.13376117 0.68021899 -0.98212224 0.46634153
7.59390831 -4.32574129 1.30075395 0.65074670 -0.98689377 0.53502941
8.13486862 -3.39850330 0.93712693 0.69710338 -0.77534962 0.38546142
8.14750004 -3.71626663 0.90362704 0.69818580 -0.84784555 0.37168217
8.26815605 -4.19857073 0.90420270 0.70852518 -0.95788056 0.37191895
8.84095001 -4.32860708 1.29822981 0.75760978 -0.98754764 0.53399116
8.01183319 -4.28016901 1.14129913 0.68656003 -0.97649676 0.46944204
8.11745548 -3.33158350 0.93203872 0.69561118 -0.76008224 0.38336852
8.15439320 -3.65764689 0.90154582 0.69877648 -0.83447176 0.37082613
8.26056004 -4.12972641 0.89995575 0.70787430 -0.94217408 0.37017208
8.83584976 -4.25757647 1.29302776 0.75717270 -0.97134238 0.53185147
8.13859081 -3.29551673 0.93276560 0.69742233 -0.75185382 0.38366750
8.14250565 -3.60624194 0.89784580 0.69775784 -0.82274401 0.36930421
8.24068546 -4.07147264 0.89503819 0.70617115 -0.92888379 0.36814937
8.82361984 -4.20064640 1.28782558 0.75612468 -0.95835412 0.52971166
10.79156303 -4.16672611 0.87441629 0.92476416 -0.95061535 0.35966712
8.13143921 -3.23337674 0.92913115 0.69680947 -0.73767692 0.38217258
8.13043022 -3.53986335 0.89345211 0.69672304 -0.80760014 0.36749700
8.23210812 -4.00317621 0.89079124 0.70543611 -0.91330236 0.36640251
8.82651806 -4.13425922 1.28406858 0.75637305 -0.94320822 0.52816635
10.53974056 -3.99414062 0.84842557 0.90318465 -0.91124094 0.34897655
8.12938213 -3.17361021 0.92622358 0.69663322 -0.72404152 0.38097662
8.13791466 -3.48242283 0.89160216 0.69736439 -0.79449540 0.36673605
7.35512733 -4.36239481 1.63601756 0.63028479 -0.99525607 0.67293090
8.21940994 -3.93344116 0.88609719 0.70434797 -0.89739269 0.36447173
8.16325665 -3.76297379 1.17337906 0.69953603 -0.85850149 0.48263726
8.11576366 -3.10976124 0.92186224 0.69546622 -0.70947474 0.37918273
8.14499855 -3.42502832 0.88975215 0.69797146 -0.78140116 0.36597511
7.30433416 -4.27070808 1.61838245 0.62593216 -0.97433829 0.66567719
8.22596264 -3.87329340 0.88386196 0.70490950 -0.88367033 0.36355233
8.07487392 -3.66119766 1.15546060 0.69196224 -0.83528185 0.47526699
7.96595192 -4.34752417 1.08892345 0.68262833 -0.99186343 0.44789875
10.46547794 -3.81655598 0.83691287 0.89682084 -0.87072599 0.34424111
8.10166454 -3.04620957 0.91750091 0.69425797 -0.69497573 0.37738881
8.13333988 -3.36005473 0.88558972 0.69697237 -0.76657778 0.36426300
7.23565149 -4.17007351 1.59691358 0.62004656 -0.95137906 0.65684652
8.22305775 -3.80906248 0.88050908 0.70466059 -0.86901641 0.36217323
8.05067539 -3.58954477 1.14794648 0.68988860 -0.81893468 0.47217625
8.82239723 -4.31291199 1.24515510 0.75601995 -0.98396689 0.51216036
8.10759449 -2.99046707 0.91580480 0.69476616 -0.68225843 0.37669116
8.15796947 -3.31038785 0.88605219 0.69908297 -0.75524658 0.36445323
8.21424007 -3.74256134 0.87648559 0.70390499 -0.85384452 0.36051828
8.85686588 -3.88031912 1.27279723 0.75897366 -0.88527322 0.52353019
10.39219952 -3.64278674 0.82574910 0.89054137 -0.83108151 0.33964920
7.59481621 -2.83476734 1.33622336 0.65082455 -0.64673638 0.54961878
8.11225986 -2.94885850 0.91459334 0.69516593 -0.67276567 0.37619284
8.15689564 -3.26522493 0.88397098 0.69899094 -0.74494290 0.36359718
8.21545696 -3.69650865 0.87447387 0.70400923 -0.84333789 0.35969082
8.69967842 -4.28651047 0.88568473 0.74550378 -0.97794348 0.36430210
8.84248257 -4.20283794 1.24096739 0.75774109 -0.95885408 0.51043785
7.63952398 -2.81060004 1.34188986 0.65465569 -0.64122277 0.55194956
8.09506702 -2.88525009 0.90998971 0.69369262 -0.65825373 0.37429929
8.15877819 -3.20659995 0.88165849 0.69915223 -0.73156792 0.36264601
8.20395279 -3.62961674 0.87022692 0.70302343 -0.82807684 0.35794395
8.85258484 -4.13961267 1.23845470 0.75860679 -0.94442958 0.50940430
7.68708038 -2.77227688 2.22145867 0.65873092 -0.63247955 0.91373599
10.30887127 -3.48703384 0.81441087 0.88340074 -0.79554737 0.33498555
8.16580200 -3.15023851 0.88003975 0.69975418 -0.71870941 0.36198017
8.21564960 -3.57326722 0.86888576 0.70402575 -0.81522101 0.35739228
8.49821758 -4.05468178 0.85585582 0.72823995 -0.92505306 0.35203278
10.12523079 -4.22605371 1.46296358 0.86766398 -0.96415061 0.60174990
7.97249126 -3.66491222 1.09774661 0.68318874 -0.83612931 0.45152792
7.75519514 -2.74204326 2.23636293 0.66456789 -0.62558192 0.91986644
8.15573406 -3.08754635 0.87633979 0.69889140 -0.70440650 0.36045831
8.22147560 -3.51458287 0.86687404 0.70452499 -0.80183250 0.35656482
8.59367180 -4.03431988 0.86404824 0.73641968 -0.92040765 0.35540250
10.12409687 -4.15114117 1.45862842 0.86756682 -0.94705975 0.59996676
8.02059841 -3.62622786 1.10165513 0.68731117 -0.82730371 0.45313558
8.74075985 -4.36654758 1.18305910 0.74902415 -0.99620354 0.48661888
8.00594616 -4.35426188 1.02968276 0.68605560 -0.99340063 0.42353171
10.26274776 -3.32849574 0.80621243 0.87944824 -0.75937778 0.33161333
8.69901657 -4.15662622 1.43843520 0.74544704 -0.94831115 0.59166080
8.16008759 -3.03067374 0.87448978 0.69926447 -0.69143134 0.35969734
8.21588421 -3.45137334 0.86352116 0.70404583 -0.78741163 0.35518572
8.50700855 -3.92830467 0.85102439 0.72899324 -0.89622086 0.35004550
10.12242222 -4.07641029 1.45429337 0.86742330 -0.93001032 0.59818363
8.03960800 -3.57414436 1.10109675 0.68894017 -0.81542116 0.45290589
8.06081390 -2.73739219 2.31567454 0.69075739 -0.62452078 0.95248914
10.38986683 -3.29750085 0.81598079 0.89034152 -0.75230646 0.33563128
8.73032379 -4.10442209 1.43934095 0.74812984 -0.93640107 0.59203339
8.66902161 -2.84507418 0.97468299 0.74287665 -0.64908785 0.40090907
8.18083382 -2.98002720 0.87472105 0.70104229 -0.67987663 0.35979247
8.21718025 -3.39138937 0.86106235 0.70415694 -0.77372658 0.35417435
8.42659283 -3.82684541 0.83884072 0.72210217 -0.87307346 0.34503409
10.11100101 -3.99824333 1.44851327 0.86644459 -0.91217697 0.59580612
8.85411263 -3.87198687 1.22309971 0.75873774 -0.88337225 0.50308847
8.29719925 -2.76022744 2.37954974 0.71101403 -0.62973052 0.97876245
8.72904968 -4.03698158 1.43481207 0.74802065 -0.92101490 0.59017056
8.79387379 -2.83994174 0.98897851 0.75357568 -0.64791691 0.40678915
8.21159935 -2.94752264 0.87680227 0.70367867 -0.67246085 0.36064854
8.21648884 -3.34592128 0.85905063 0.70409769 -0.76335329 0.35334688
10.10943413 -3.94268036 1.44533420 0.86631030 -0.89950055 0.59449852
8.48769665 -2.77970314 2.43118215 0.72733837 -0.63417381 1.00000000
10.27487278 -3.13738060 0.80220044 0.88048726 -0.71577591 0.32996312
8.44577312 -2.76715183 1.46821976 0.72374576 -0.63131028 0.60391188
8.73540020 -3.99002576 1.43269849 0.74856490 -0.91030216 0.58930117
8.28238487 -2.91445494 0.88327724 0.70974451 -0.66491669 0.36331183
8.23365498 -3.29276228 0.85860360 0.70556867 -0.75122541 0.35316300
8.43543530 -3.71944451 0.83505964 0.72285992 -0.84857059 0.34347886
10.12475872 -3.87556362 1.44388914 0.86762351 -0.88418829 0.59390414
8.83761883 -4.15772533 1.18252265 0.75732434 -0.94856191 0.48639822
10.44911003 -3.11862588 0.81632966 0.89541823 -0.71149713 0.33577478
11.55899048 -3.90336251 0.86752617 0.99052751 -0.89053041 0.35683307
8.59059143 -2.75527358 1.49088585 0.73615575 -0.62860036 0.61323494
8.72606373 -3.91959643 1.42696178 0.74776483 -0.89423412 0.58694154
8.42626190 -2.90604043 0.89877081 0.72207379 -0.66299695 0.36968470
8.23011017 -3.23157620 0.85569775 0.70526493 -0.73726612 0.35196778
8.80665493 -3.31059980 1.23464847 0.75467092 -0.75529492 0.50783873
10.12507057 -4.22390604 1.40736032 0.86765027 -0.96366066 0.57887900
8.81675816 -4.08056974 1.17554963 0.75553668 -0.93095928 0.48353004
10.41682720 -3.03794694 0.81161994 0.89265186 -0.69309068 0.33383757
11.50952339 -3.80612779 0.86111730 0.98628855 -0.86834687 0.35419697
8.76567173 -2.75119805 1.51888514 0.75115895 -0.62767053 0.62475169
8.72341633 -3.85265326 1.42243278 0.74753791 -0.87896138 0.58507866
8.56847572 -2.89529133 0.91403317 0.73426056 -0.66054457 0.37596244
8.24654007 -3.17838049 0.85525072 0.70667285 -0.72512984 0.35178390
8.47053909 -3.60844946 0.83379924 0.72586805 -0.82324767 0.34296042
7.95947552 -2.93731308 1.09968233 0.68207335 -0.67013162 0.45232412
10.11295700 -4.14436293 1.40149748 0.86661220 -0.94551331 0.57646751
8.04236412 -3.66300559 1.05674028 0.68917638 -0.83569431 0.43466109
8.73448563 -4.35090828 1.11235833 0.74848652 -0.99263549 0.45753804
10.47213650 -2.98273826 0.81493413 0.89739144 -0.68049514 0.33520079
11.36452866 -3.67881513 0.84649181 0.97386342 -0.83930117 0.34818116
8.93538284 -2.74328089 1.54588437 0.76570201 -0.62586427 0.63585711
8.76375771 -3.80488753 1.42515016 0.75099492 -0.86806393 0.58619636
8.73538113 -2.89103651 0.93230176 0.74856323 -0.65957391 0.38347673
8.24588108 -3.11881661 0.85279191 0.70661640 -0.71154064 0.35077253
8.33174229 -3.48721695 0.81531376 0.71397412 -0.79558915 0.33535692
7.92376184 -2.86784315 1.09130120 0.67901295 -0.65428245 0.44887677
10.12778187 -4.07628298 1.39982247 0.86788261 -0.92998129 0.57577854
9.15194988 -4.25268126 0.87748492 0.78426039 -0.97022557 0.36092931
8.09781170 -3.62690997 1.06156778 0.69392782 -0.82745934 0.43664676
10.50987625 -2.92218280 0.81667852 0.90062553 -0.66667974 0.33591828
11.42920017 -3.62065125 0.85010713 0.97940534 -0.82603145 0.34966823
9.13553429 -2.74247408 1.57821679 0.78285366 -0.62568021 0.64915615
9.72808170 -2.80540657 1.09680068 0.83363098 -0.64003789 0.45113882
8.77981281 -2.84472466 0.93553925 0.75237072 -0.64900810 0.38480836
8.26717949 -3.06763220 0.85301548 0.70844150 -0.69986320 0.35086450
10.14031029 -4.00744915 1.39786816 0.86895621 -0.91427720 0.57497466
9.02451038 -4.12509203 0.86045551 0.77333969 -0.94111681 0.35392475
10.62037373 -2.88095689 0.82505137 0.91009438 -0.65727431 0.33936220
11.27475262 -3.49359798 0.83482432 0.96617025 -0.79704493 0.34338206
9.32845783 -2.73702168 1.60921597 0.79938591 -0.62443626 0.66190678
10.04125023 -2.84388375 1.13484120 0.86046743 -0.64881623 0.46678576
8.24604893 -3.01575208 0.84876847 0.70663077 -0.68802702 0.34911761
8.46533298 -3.43449140 0.82623696 0.72542197 -0.78356010 0.33984989
10.11667347 -3.94299889 1.39144695 0.86693066 -0.89957327 0.57233346
8.83326435 -3.98797774 0.83721542 0.75695115 -0.90983492 0.34436557
10.80334377 -2.87566900 0.84040159 0.92577368 -0.65606785 0.34567612
11.42639446 -3.48191071 0.84649181 0.97916496 -0.79437852 0.34818116
9.48328018 -2.73430014 1.63421535 0.81265312 -0.62381536 0.67218959
10.07666111 -4.17260408 1.63167214 0.86350191 -0.95195639 0.67114353
10.12784386 -2.79964590 1.14356399 0.86788791 -0.63872361 0.47037363
8.27794075 -2.96854734 0.85033315 0.70936370 -0.67725754 0.34976119
8.36306000 -3.33163762 0.81216282 0.71665782 -0.76009458 0.33406088
10.11352253 -3.86869121 1.38725924 0.86666065 -0.88262033 0.57061100
8.77894688 -4.11768723 1.10447240 0.75229651 -0.93942744 0.45429438
11.01607037 -2.85791755 0.85801947 0.94400293 -0.65201795 0.35292274
11.29911900 -3.36541104 0.83367401 0.96825826 -0.76779979 0.34290892
10.08071995 -4.10022879 1.62804890 0.86384970 -0.93544436 0.66965318
10.26221943 -2.76726151 1.15834403 0.87940300 -0.63133532 0.47645301
8.33395958 -2.92957306 0.85480368 0.71416414 -0.66836578 0.35160002
10.18765640 -3.82395411 1.39479709 0.87301344 -0.87241381 0.57371145
8.84069443 -3.85844445 0.83260751 0.75758785 -0.88028264 0.34247023
11.23865604 -2.84002852 0.87650949 0.96307701 -0.64793670 0.36052811
11.36403751 -3.30723667 0.83745366 0.97382134 -0.75452763 0.34446356
10.10628319 -4.03680944 1.62804890 0.86604029 -0.92097563 0.66965318
10.56178761 -2.77639651 1.19396174 0.90507394 -0.63341939 0.49110338
8.44247055 -2.90801477 0.86553288 0.72346276 -0.66344738 0.35601318
8.49331474 -3.26069999 0.82224578 0.72781980 -0.74391055 0.33820823
7.93831444 -2.91805959 1.05307734 0.68026000 -0.66573906 0.43315443
10.37926865 -4.27579927 1.37991250 0.88943332 -0.97549981 0.56758910
11.47112083 -2.82181597 0.89587170 0.98299766 -0.64378160 0.36849222
10.10018063 -3.96090102 1.62291610 0.86551738 -0.90365750 0.66754198
10.77912807 -2.76084352 1.21916056 0.92369854 -0.62987107 0.50146818
8.58118916 -2.89530587 0.87983847 0.73535001 -0.66054791 0.36189738
8.50061703 -3.20233369 0.82077533 0.72844553 -0.73059464 0.33760339
8.76693058 -2.81727624 1.20545876 0.75126684 -0.64274591 0.49583235
7.97138357 -2.87353301 1.05531085 0.68309379 -0.65558058 0.43407312
8.80772877 -3.71320534 0.82379228 0.75476295 -0.84714711 0.33884433
11.31830978 -3.14004636 0.83005875 0.96990281 -0.71638411 0.34142187
10.13408661 -3.90093040 1.62442577 0.86842287 -0.88997555 0.66816294
11.01402664 -2.74695969 1.24654019 0.94382781 -0.62670356 0.51273006
8.74462700 -2.88901806 0.89704990 0.74935555 -0.65911341 0.36897683
8.87891769 -2.79160905 1.21990907 0.76086336 -0.63689005 0.50177610
8.89896870 -3.68582273 0.83120507 0.76258159 -0.84089994 0.34189337
11.49551010 -3.11184692 0.84353387 0.98508769 -0.70995057 0.34696448
11.26415920 -2.75257635 1.27634263 0.96526247 -0.62798500 0.52498847
8.89243507 -2.89111590 0.91292024 0.76202172 -0.65959197 0.37550467
8.55958843 -3.11757565 0.82350618 0.73349899 -0.71125752 0.33872664
9.03576279 -2.79385781 1.24187362 0.77430391 -0.63740313 0.51081061
7.62129116 -2.83240747 1.20775867 0.65309322 -0.64619797 0.49677837
11.53049183 -2.74053955 1.30759895 0.98808539 -0.62523884 0.53784490
10.35406780 -2.82680416 1.11059380 0.88727379 -0.64491963 0.45681226
8.57713604 -3.06306005 0.82329613 0.73500270 -0.69882011 0.33864024
8.75782394 -3.51549602 0.81157124 0.75048643 -0.80204087 0.33381754
7.83936596 -2.85809255 1.24036741 0.67178077 -0.65205789 0.51019108
10.53855419 -2.80647993 1.13071239 0.90308303 -0.64028275 0.46508747
8.57370377 -3.00117230 0.82077533 0.73470861 -0.68470073 0.33760339
10.76162434 -2.79400206 1.15545595 0.92219859 -0.63743603 0.47526506
8.59427071 -2.94789267 0.82098544 0.73647106 -0.67254531 0.33768982
8.70433617 -2.84897828 1.15190804 0.74590290 -0.64997852 0.47380573
8.83845615 -3.41944790 0.81557816 0.75739610 -0.78012800 0.33546567
10.96569633 -2.77392316 1.17788696 0.93968624 -0.63285512 0.48449144
8.71058750 -2.92699575 0.83190870 0.74643862 -0.66777778 0.34218279
8.69379520 -2.78510571 1.14772034 0.74499959 -0.63540637 0.47208324
8.71081734 -3.30765963 0.79955047 0.74645829 -0.75462413 0.32887313
8.02162266 -2.91839552 1.01597500 0.68739897 -0.66581571 0.41789341
11.18150234 -2.75425959 1.20170546 0.95817935 -0.62836897 0.49428853
9.71407700 -2.82238364 0.99897742 0.83243090 -0.64391112 0.41090193
8.81942654 -2.90224886 0.84199166 0.75576538 -0.66213191 0.34633014
8.91507435 -2.79485250 1.17787206 0.76396173 -0.63763005 0.48448533
10.02850151 -4.14567280 0.87046975 0.85937494 -0.94581217 0.35804382
8.06035233 -2.87521291 1.01892519 0.69071782 -0.65596384 0.41910690
8.99639893 -2.89835167 0.85963696 0.77093071 -0.66124278 0.35358804
8.87702084 -3.24342370 0.81297362 0.76070082 -0.73996907 0.33439437
9.85707569 -4.00204563 0.85065889 0.84468490 -0.91304445 0.34989518
8.05594921 -3.13179421 0.96939313 0.69034052 -0.71450144 0.39873323
10.12764168 -2.82133341 1.04368246 0.86787057 -0.64367151 0.42929012
9.06111336 -2.87226152 0.86530864 0.77647632 -0.65529048 0.35592094
10.51904583 -2.76659441 1.44909120 0.90141129 -0.63118309 0.59604388
8.75542355 -3.15264082 0.79834843 0.75028074 -0.71925747 0.32837871
8.05396271 -3.08736706 0.96710366 0.69017029 -0.70436561 0.39779153
10.11778736 -2.69865656 1.66077685 0.86702615 -0.61568350 0.68311495
10.41381264 -2.83010888 1.07497597 0.89239347 -0.64567357 0.44216183
9.26502800 -2.87339997 0.88589478 0.79395038 -0.65555018 0.36438850
10.66472435 -2.73312664 1.46845472 0.91389495 -0.62354761 0.60400850
9.78752041 -3.84874845 0.83936483 0.83872449 -0.87807053 0.34524965
10.34674644 -2.68976593 1.69624448 0.88664639 -0.61365515 0.69770360
8.66152668 -2.74965715 1.35389400 0.74223441 -0.62731898 0.55688709
10.56401443 -2.79950356 1.09039927 0.90526479 -0.63869113 0.44850579
9.43506908 -2.86162543 0.90269977 0.80852181 -0.65286392 0.37130076
10.86994362 -2.71268272 1.49677730 0.93148082 -0.61888349 0.61565822
8.92044258 -3.08568454 0.81177157 0.76442176 -0.70398176 0.33389995
10.57598591 -2.67810249 1.73171222 0.90629065 -0.61099416 0.71229225
10.80664825 -2.79080677 1.11655164 0.92605686 -0.63670701 0.45926285
11.10033035 -2.69579315 1.52885699 0.95122343 -0.61503023 0.62885332
8.95851517 -3.03592134 0.81377500 0.76768434 -0.69262856 0.33472401
8.80497265 -2.84590030 1.11306083 0.75452679 -0.64927632 0.45782700
8.06226540 -2.91734910 0.96048963 0.69088179 -0.66557693 0.39507103
10.77862930 -2.65709591 1.76270652 0.92365581 -0.60620165 0.72504091
11.02258492 -2.77243042 1.13957477 0.94456118 -0.63251460 0.46873277
11.35597420 -2.68198323 1.56469381 0.97313040 -0.61187953 0.64359385
8.96040344 -2.97396898 0.81197190 0.76784611 -0.67849445 0.33398235
8.90021038 -2.81485581 1.12405670 0.76268798 -0.64219368 0.46234986
8.17944145 -2.90202284 0.97397208 0.70092297 -0.66208035 0.40061668
11.02175331 -2.64324331 1.80041099 0.94448990 -0.60304123 0.74054962
11.28505993 -2.76271009 1.16796243 0.96705353 -0.63029695 0.48040926
11.66783142 -2.67780781 1.60891187 0.99985445 -0.61092693 0.66178173
9.04140949 -2.93776989 0.81858331 0.77478778 -0.67023587 0.33670175
11.29012585 -2.63222194 1.84226918 0.96748763 -0.60052681 0.75776684
11.53577137 -2.76609373 1.19545603 0.98853779 -0.63106889 0.49171799
10.50329590 -2.76009202 1.39172614 0.90006161 -0.62969965 0.57244831
9.14429855 -2.92342234 0.82799953 0.78360468 -0.66696250 0.34057486
11.57006359 -2.63957024 1.88668370 0.99147642 -0.60220325 0.77603555
10.74095345 -2.75095487 1.42383218 0.92042726 -0.62761503 0.58565426
9.28601551 -2.90426111 0.84102201 0.79574889 -0.66259098 0.34593129
10.39403915 -2.66094923 2.16380858 0.89069903 -0.60708076 0.89002323
10.64504242 -2.81547117 1.02432609 0.91220832 -0.64233410 0.42132840
9.45641041 -2.89210415 0.85704964 0.81035060 -0.65981746 0.35252383
10.83577824 -2.79353356 1.04323173 0.92855310 -0.63732916 0.42910472
9.58313560 -2.86489820 0.86846936 0.82121009 -0.65361059 0.35722101
9.77200031 -2.77080035 1.23535669 0.83739454 -0.63214266 0.50813001
8.79078674 -2.82791328 1.04520035 0.75331116 -0.64517266 0.42991444
11.07871151 -2.78248239 1.06780899 0.94937086 -0.63480788 0.43921390
9.81691742 -2.86724234 0.89110839 0.84124362 -0.65414536 0.36653295
10.26127911 -2.83898163 1.30160022 0.87932241 -0.64769787 0.53537750
10.45264053 -2.69986296 1.61476386 0.89572078 -0.61595869 0.66418874
11.32964897 -2.77038956 1.09322655 0.97087449 -0.63204896 0.44966871
9.99748707 -2.85158134 0.90813774 0.85671723 -0.65057242 0.37353751
10.73194599 -2.70071840 1.65612864 0.91965538 -0.61615390 0.68120301
11.48841763 -2.63741946 2.38055992 0.98447990 -0.60171258 0.97917795
11.59198856 -2.77717233 1.12032473 0.99335521 -0.63359642 0.46081480
10.50464344 -2.78190446 1.33136964 0.90017706 -0.63467604 0.54762232
10.94985199 -2.70115209 1.68843544 0.93832844 -0.61625284 0.69449157
10.38929558 -2.83942938 0.94580275 0.89029253 -0.64780003 0.38902998
10.65439224 -2.74977732 1.34987497 0.91300952 -0.62734640 0.55523401
11.14531994 -2.67553639 1.71651518 0.95507872 -0.61040872 0.70604140
10.66663933 -2.84279919 0.97284937 0.91405904 -0.64856881 0.40015486
10.90222168 -2.74033976 1.38205802 0.93424684 -0.62519324 0.56847161
11.39670277 -2.66070151 1.75335097 0.97662055 -0.60702425 0.72119278
10.87891006 -2.82590151 0.99308425 0.93224919 -0.64471370 0.40847793
11.15612125 -2.72929692 1.41504574 0.95600432 -0.62267393 0.58204019
11.66952991 -2.64765882 1.79350805 1.00000000 -0.60404861 0.73771030
11.09910202 -2.80838561 1.01412058 0.95111817 -0.64071757 0.41713065
9.99772644 -2.91315293 0.82973713 0.85673773 -0.66461962 0.34128958
11.41223240 -2.71562481 1.44830167 0.97795135 -0.61955470 0.59571910
11.33302593 -2.79151988 1.03655922 0.97116387 -0.63686973 0.42636016
10.12494755 -2.88156056 0.84029061 0.86763972 -0.65741199 0.34563047
11.65701199 -2.69617987 1.47994840 0.99892730 -0.61511844 0.60873610
11.61698532 -2.80296636 1.06460762 0.99549729 -0.63948119 0.43789712
10.31859875 -2.88455558 0.85769451 0.88423431 -0.65809530 0.35278907
10.48778629 -2.76928043 1.25201654 0.89873254 -0.63179594 0.51498264
10.50357819 -2.86557746 0.87380242 0.90008581 -0.65376556 0.35941464
10.72196484 -2.75960231 1.28076220 0.91880006 -0.62958789 0.52680635
10.68487263 -2.84335589 0.88954008 0.91562152 -0.64869583 0.36588788
10.93719482 -2.74222946 1.30696404 0.93724382 -0.62562436 0.53758377
10.93565655 -2.83709550 0.91194302 0.93711197 -0.64726752 0.37510270
11.19885349 -2.73363066 1.33927119 0.95966619 -0.62366259 0.55087245
9.42341232 -2.71640444 1.79106021 0.80752289 -0.61973256 0.73670340
11.18870544 -2.82828498 0.93453109 0.95879656 -0.64525747 0.38439369
11.45889759 -2.72138786 1.37132382 0.98195022 -0.62086952 0.56405640
9.61431980 -2.70651460 1.82472575 0.82388234 -0.61747622 0.75055081
11.43626595 -2.81496620 0.95656377 0.98001087 -0.64221889 0.39345622
11.62840939 -2.68485260 1.39142036 0.99647623 -0.61253417 0.57232255
8.98459911 -2.70023966 2.19815922 0.76991951 -0.61604464 0.90415239
9.79409885 -2.69118261 1.85619569 0.83928823 -0.61397833 0.76349509
11.64344025 -2.78883576 0.97470832 0.99776429 -0.63625735 0.40091950
9.14317417 -2.68571210 2.23334932 0.78350836 -0.61273026 0.91862690
10.01348495 -2.70122433 1.89608192 0.85808814 -0.61626929 0.77990121
9.33320808 -2.69423223 2.27733707 0.79979300 -0.61467409 0.93672007
10.25072670 -2.69670653 1.93852973 0.87841815 -0.61523861 0.79736096
9.52026558 -2.68392992 2.31947255 0.81582254 -0.61232364 0.95405132
10.49210453 -2.69029570 1.98170948 0.89910257 -0.61377597 0.81512177
9.80317497 -2.69790220 2.38522267 0.84006596 -0.61551136 0.98109585
11.21640682 -2.72764874 2.11417580 0.96117043 -0.62229788 0.86960816
11.21993542 -2.65392876 2.11161447 0.96147281 -0.60547906 0.86855459
11.52719116 -2.66985798 2.16796756 0.98780251 -0.60911322 0.89173388
7.05055571 -4.06622410 2.27723503 0.60418504 -0.92768639 0.93667811
