3.39095068 -11.03331852 0.07392196 0.66853082 -0.92625368 0.02666436
3.48609304 -11.15456200 0.07656372 0.68728828 -0.93643212 0.02761726
3.56895757 -11.17241764 0.07733423 0.70362514 -0.93793112 0.02789519
4.18168402 -11.03295994 2.64492989 0.82442504 -0.92622352 0.95405138
3.65779710 -11.20676994 0.07843495 0.72113997 -0.94081497 0.02829223
4.14787483 -10.74101734 2.58026791 0.81775951 -0.90171480 0.93072718
3.70589042 -11.11720848 0.07715077 0.73062164 -0.93329626 0.02782902
4.28341627 -10.88704300 2.62234259 0.84448171 -0.91397375 0.94590396
3.78149629 -11.11073112 0.07748099 0.74552745 -0.93275249 0.02794813
4.34372187 -10.84001446 2.61747074 0.85637105 -0.91002566 0.94414663
3.86771798 -11.13394737 0.07839826 0.76252621 -0.93470150 0.02827900
4.43172455 -10.86123085 2.62942863 0.87372088 -0.91180676 0.94845992
3.44415450 -11.16286373 0.01082342 0.67902005 -0.93712902 0.00390411
4.18726635 -10.85331631 1.99314559 0.82552564 -0.91114235 0.71894658
3.94353390 -11.18156147 0.07968245 0.77747339 -0.93869871 0.02874222
4.48285723 -10.84022617 2.62942863 0.88380182 -0.91004342 0.94845992
3.50088668 -11.15987396 0.01100158 0.69020486 -0.93687803 0.00396838
4.27854300 -10.88543224 2.00413275 0.84352094 -0.91383851 0.72290975
3.99602723 -11.10767174 0.07872848 0.78782254 -0.93249565 0.02839811
3.57093668 -11.13765717 0.01100158 0.70401531 -0.93501294 0.00396838
4.34464693 -10.85285091 2.00310254 0.85655344 -0.91110331 0.72253817
4.09895325 -11.17239857 0.08048965 0.80811459 -0.93792951 0.02903338
3.64394188 -11.12450790 0.01112884 0.71840841 -0.93390906 0.00401428
4.07125998 -11.31965256 -0.31637862 0.80265480 -0.95029157 -0.11412078
4.40826988 -10.81439877 2.00104260 0.86909682 -0.90787518 0.72179514
4.22607279 -11.29803467 0.08346161 0.83317637 -0.94847673 0.03010540
3.71692252 -11.11088085 0.01125610 0.73279667 -0.93276507 0.00406018
4.12224102 -11.23943615 -0.31551799 0.81270581 -0.94355732 -0.11381035
4.51784086 -10.88650608 2.01992655 0.89069885 -0.91392863 0.72860676
3.78923273 -11.09488201 0.01135791 0.74705273 -0.93142194 0.00409691
4.23323202 -10.97091389 0.89116198 0.83458781 -0.92101473 0.32145062
4.16393232 -11.13656425 -0.31430125 0.82092530 -0.93492121 -0.11337145
4.32189703 -11.12668419 0.08115008 0.85206825 -0.93409175 0.02927161
4.24794102 -10.98516560 2.57205176 0.83748770 -0.92221117 0.92776358
4.28269625 -10.94528103 0.89063865 0.84433979 -0.91886282 0.32126185
4.15652657 -10.95985699 -0.31180841 0.81946522 -0.92008650 -0.11247226
4.33748388 -11.01322937 0.07931554 0.85514122 -0.92456716 0.02860987
4.27410936 -10.89953423 2.55649495 0.84264684 -0.91502237 0.92215210
4.32410955 -11.30356979 0.50683218 0.85250443 -0.94894141 0.18281919
4.37953424 -10.98843765 0.89726716 0.86343151 -0.92248589 0.32365280
4.18186045 -10.82167912 -0.31002781 0.82445985 -0.90848637 -0.11182998
4.43351078 -11.05252647 0.08063641 0.87407309 -0.92786616 0.02908632
4.35476828 -10.90331459 2.56384134 0.85854888 -0.91533977 0.92480201
4.26666737 -11.00596333 1.30178380 0.84117967 -0.92395717 0.46956581
4.35862589 -11.18319798 0.50151122 0.85930943 -0.93883610 0.18089987
4.45601416 -10.97915268 0.89901149 0.87850964 -0.92170638 0.32428202
4.38148022 -11.12804031 -0.31533995 0.86381519 -0.93420559 -0.11374612
4.20426416 -11.01739788 1.95920658 0.82887679 -0.92491710 0.70670450
4.51729393 -11.05959988 0.08133354 0.89059103 -0.92846000 0.02933778
4.43344498 -10.90107918 2.56989121 0.87406009 -0.91515207 0.92698425
4.29618645 -10.87929535 1.28869987 0.84699941 -0.91332328 0.46484631
4.37552023 -11.02203274 0.49384910 0.86264014 -0.92530620 0.17813607
4.54401016 -10.99693966 0.90337235 0.89585817 -0.92319959 0.32585502
4.44533300 -11.08545208 -0.31510252 0.87640387 -0.93063027 -0.11366048
4.10194302 -11.42176723 -0.38979799 0.80870402 -0.95886415 -0.14060384
4.25277233 -10.93742752 1.94954014 0.83844024 -0.91820353 0.70321769
4.61444569 -11.09742260 0.08265442 0.90974462 -0.93163520 0.02981424
4.40091181 -10.94227600 1.30057240 0.86764616 -0.91861057 0.46912885
4.46047258 -11.03317928 0.49608389 0.87938863 -0.92624193 0.17894219
4.52400637 -11.07950401 -0.31545866 0.89191443 -0.93013096 -0.11378894
4.12707949 -11.26801300 -0.38697547 0.81365967 -0.94595641 -0.13958573
4.31996393 -10.90682125 1.94887352 0.85168713 -0.91563416 0.70297724
4.48468733 -10.95112610 1.30541825 0.88416260 -0.91935354 0.47087678
4.54726410 -11.04738331 0.49853152 0.89649969 -0.92743438 0.17982507
4.30390882 -11.14068890 0.84632748 0.84852183 -0.93526745 0.30527839
4.14487743 -11.09940434 -0.38382089 0.81716859 -0.93180162 -0.13844785
4.39795637 -10.90325451 1.95320678 0.86706346 -0.91533470 0.70454031
4.79799604 -11.14133549 0.08470911 0.94593185 -0.93532175 0.03055538
4.68090439 -11.17137241 0.50736427 0.92284709 -0.93784338 0.18301113
4.31059074 -10.95195389 0.83203071 0.84983921 -0.91942304 0.30012140
4.67304420 -11.04570580 -0.31584445 0.92129743 -0.92729354 -0.11392810
4.16567802 -10.94411182 -0.38095686 0.82126945 -0.91876471 -0.13741477
4.47682047 -10.90096283 1.95787334 0.88261163 -0.91514230 0.70622355
4.87918139 -11.13659286 0.08522278 0.96193767 -0.93492359 0.03074067
4.37106133 -11.01447392 0.01296141 0.86176109 -0.92467165 0.00467530
4.21749878 -10.99269485 1.23176777 0.83148599 -0.92284328 0.44431037
4.73976421 -11.16388607 0.50821561 0.93445140 -0.93721485 0.18331821
4.38568974 -10.99080181 0.83728933 0.86464506 -0.92268437 0.30201823
4.14981890 -10.74889565 -0.37705514 0.81814283 -0.90237617 -0.13600738
4.95765924 -11.17192268 0.08639690 0.97740972 -0.93788958 0.03116418
4.43852520 -11.03274155 0.01349591 0.87506169 -0.92620522 0.00486810
4.30160522 -11.00485992 1.23662388 0.84806770 -0.92386454 0.44606200
4.77721596 -11.05877018 0.50385243 0.94183505 -0.92839032 0.18174437
4.34266329 -11.14876175 0.43235120 0.85616237 -0.93594515 0.15595320
4.47259188 -11.00737858 0.84123325 0.88177794 -0.92407596 0.30344084
4.84396744 -11.10722160 -0.31768441 0.95499521 -0.93245786 -0.11459179
4.39359140 -11.17323875 -0.38709998 0.86620289 -0.93800002 -0.13963065
4.53493357 -11.07130432 0.01441219 0.89406872 -0.92944258 0.00519861
4.36115360 -10.95360470 1.23361766 0.85980773 -0.91956162 0.44497764
4.88693523 -11.11988831 0.50917339 0.96346635 -0.93352121 0.18366370
4.37521219 -11.02649021 0.42749441 0.86257941 -0.92568040 0.15420130
4.55228758 -11.00486374 0.84353387 0.89749008 -0.92386484 0.30427071
4.85993767 -10.95600986 -0.31572574 0.95814377 -0.91976357 -0.11388528
4.39486265 -10.97266579 -0.38323978 0.86645353 -0.92116183 -0.13823824
4.10700607 -11.49939442 -0.44015634 0.80970222 -0.96538097 -0.15876858
4.15446186 -10.73249340 2.42713404 0.81905818 -0.90099919 0.87549037
4.44029617 -10.95177937 1.23685515 0.87541080 -0.91940838 0.44614545
4.98615694 -11.15455341 0.51300442 0.98302805 -0.93643141 0.18504559
4.46676540 -11.05438709 0.43035135 0.88062924 -0.92802238 0.15523183
4.51334572 -11.06712055 -0.38597926 0.88981265 -0.92909133 -0.13922639
4.10218573 -11.26308346 -0.43461311 0.80875188 -0.94554257 -0.15676908
4.30324984 -10.91162968 2.47440147 0.84839195 -0.91603780 0.89254016
4.52562618 -10.96409130 1.24194264 0.89223373 -0.92044199 0.44798055
5.02545309 -11.05578423 0.50906694 0.99077535 -0.92813963 0.18362530
4.54597330 -11.05013847 0.43158937 0.89624524 -0.92766571 0.15567839
4.58584738 -11.04593658 -0.38614532 0.90410644 -0.92731297 -0.13928629
4.14140797 -11.15279484 -0.43238589 0.81648457 -0.93628377 -0.15596572
4.37586927 -11.29269886 -0.02914979 0.86270899 -0.94802880 -0.01051461
4.36659956 -10.87168121 2.47147346 0.86088145 -0.91268408 0.89148402
4.31829023 -11.09088516 1.59879661 0.85135716 -0.93108642 0.57670116
4.37084961 -11.14184952 0.78146714 0.86171931 -0.93536490 0.28188264
4.16376638 -11.00134945 -0.42906985 0.82089257 -0.92356980 -0.15476958
4.17963076 -10.84498692 1.84706211 0.82402027 -0.91044307 0.66625291
4.40101576 -11.14972401 -0.03026271 0.86766660 -0.93602598 -0.01091605
4.45266485 -10.88744545 2.48151255 0.87784934 -0.91400754 0.89510518
4.31138802 -10.92141342 1.57538712 0.84999639 -0.91685915 0.56825715
4.74647188 -11.18720150 0.44130298 0.93577379 -0.93917221 0.15918219
4.37297678 -10.99521446 0.77104694 0.86213869 -0.92305481 0.27812397
4.71956539 -11.02427864 -0.38680944 0.93046916 -0.92549473 -0.13952585
4.16661882 -10.85476303 -0.42570430 0.82145494 -0.91126382 -0.15355560
4.28410912 -10.96115303 1.87070727 0.84461832 -0.92019534 0.67478192
3.89402175 -11.32783604 -0.51186144 0.76771200 -0.95097858 -0.18463330
4.39530611 -10.98413181 -0.03166284 0.86654097 -0.92212439 -0.01142109
4.26807022 -11.07476330 1.19612658 0.84145623 -0.92973298 0.43145424
4.41254520 -10.97484303 1.58810341 0.86993968 -0.92134458 0.57284403
4.79773903 -11.11310768 0.43901742 0.94588119 -0.93295199 0.15835777
4.34217930 -11.18632793 0.37826639 0.85606694 -0.93909889 0.13644429
4.45400286 -10.99707317 0.77349871 0.87811309 -0.92321080 0.27900836
3.40854216 -11.18259144 0.23347728 0.67199904 -0.93878520 0.08421748
4.77680874 -10.96688843 -0.38618681 0.94175476 -0.92067683 -0.13930126
4.26911783 -10.91582680 -0.42803049 0.84166276 -0.91639012 -0.15439467
4.34629440 -10.91752148 1.86783159 0.85687822 -0.91653240 0.67374462
3.97763109 -11.33900738 -0.51304716 0.78419572 -0.95191640 -0.18506099
4.50970411 -11.06734562 -0.03058582 0.88909471 -0.92911023 -0.01103260
4.29598808 -10.94234943 1.18338573 0.84696025 -0.91861671 0.42685851
4.49797869 -10.98716640 1.59446156 0.88678300 -0.92237914 0.57513750
4.90588188 -11.17060471 0.44358853 0.96720171 -0.93777889 0.16000661
4.30243254 -10.88214493 0.36545777 0.84823078 -0.91356254 0.13182411
4.52759123 -10.97992516 0.77441818 0.89262116 -0.92177123 0.27934000
3.47694230 -11.15523243 0.23328677 0.68548423 -0.93648839 0.08414876
4.85933781 -10.96776104 -0.38689244 0.95802546 -0.92075008 -0.13955578
4.42085123 -11.09667587 -0.43357375 0.87157720 -0.93157256 -0.15639418
4.41629457 -10.89365482 1.86847055 0.87067884 -0.91452879 0.67397511
3.95896864 -11.06143284 -0.50468469 0.78051639 -0.92861384 -0.18204457
4.38762999 -10.97230816 1.19031501 0.86502761 -0.92113179 0.42935795
4.99951220 -11.19249630 0.44635025 0.98566109 -0.93961674 0.16100278
4.45691967 -11.06790447 0.37534362 0.87868816 -0.92915714 0.13539001
3.55611539 -11.16172028 0.23423934 0.70109332 -0.93703306 0.08449236
4.42934799 -10.91871357 -0.42956477 0.87325239 -0.91663247 -0.15494810
4.50734568 -10.92040157 1.87805641 0.88862973 -0.91677421 0.67743284
4.00587893 -10.97433186 -0.50262529 0.78976482 -0.92130166 -0.18130173
4.46175289 -10.95740032 1.19187963 0.87964106 -0.91988027 0.42992234
5.02446175 -11.06074905 0.44111252 0.99057990 -0.92855644 0.15911348
4.53093958 -11.05076694 0.37585941 0.89328128 -0.92771846 0.13557607
3.62368774 -11.13155746 0.23398532 0.71441531 -0.93450087 0.08440074
5.06979895 -11.06592655 -0.39054513 0.99951822 -0.92899114 -0.14087334
4.04560661 -10.87020874 -0.50000417 0.79759723 -0.91256046 -0.18035626
4.36785173 -11.24747276 -0.11015680 0.86112827 -0.94423205 -0.03973461
4.22021627 -11.04574490 2.38818622 0.83202177 -0.92729688 0.86144149
4.56031656 -11.00070190 1.20059717 0.89907300 -0.92351544 0.43306684
4.29115725 -11.02460670 1.52852571 0.84600788 -0.92552227 0.55135375
4.34682417 -11.08586025 0.70287293 0.85698271 -0.93066454 0.25353295
3.69672728 -11.11804771 0.23430285 0.72881514 -0.93336672 0.08451527
4.12300014 -10.86888885 -0.50081551 0.81285542 -0.91244966 -0.18064892
4.34393406 -10.97973728 -0.11074887 0.85641289 -0.92175549 -0.03994817
4.19400501 -10.77235794 2.33399844 0.82685417 -0.90434587 0.84189546
4.33220339 -10.97661209 1.52433801 0.85410017 -0.92149311 0.54984325
4.77876616 -11.29819965 0.38978559 0.94214064 -0.94849056 0.14059937
4.37993622 -11.01701927 0.69920915 0.86351079 -0.92488533 0.25221139
3.75293612 -11.11186123 0.23468389 0.73989677 -0.93284738 0.08465271
4.17274380 -10.84560490 -0.50069070 0.82266247 -0.91049498 -0.18060391
4.44381285 -11.07988453 -0.11045054 0.87610412 -0.93016291 -0.03984056
4.31491232 -10.93119717 2.37333488 0.85069120 -0.91768050 0.85608447
4.27015972 -11.07350254 1.11486304 0.84186816 -0.92962712 0.40214172
4.40623379 -10.96204662 1.52629220 0.86869538 -0.92027032 0.55054814
4.77591276 -11.09738350 0.38179094 0.94157809 -0.93163192 0.13771562
4.34058428 -11.17615032 0.30093712 0.85575247 -0.93824446 0.10855088
4.47292757 -11.04849815 0.70371842 0.88184416 -0.92752796 0.25383794
3.82398915 -11.09183884 0.23481089 0.75390500 -0.93116647 0.08469852
3.44567585 -11.25834942 0.15633389 0.67931998 -0.94514513 0.05639112
4.48918724 -11.45612431 -0.52203375 0.88504976 -0.96174842 -0.18830255
4.51861238 -11.06471539 -0.11041842 0.89085096 -0.92888945 -0.03982897
4.37332201 -10.87840176 2.36771536 0.86220676 -0.91324830 0.85405749
4.29837942 -10.94086456 1.10288942 0.84743172 -0.91849208 0.39782271
4.48622751 -10.96165752 1.53048003 0.88446623 -0.92023766 0.55205870
4.80129862 -10.96655846 0.37706292 0.94658297 -0.92064911 0.13601018
4.37118530 -11.04823112 0.29698643 0.86178553 -0.92750555 0.10712583
4.54755831 -11.03309631 0.70470482 0.89655769 -0.92623502 0.25419375
3.90493846 -11.09963036 0.23589049 0.76986426 -0.93182057 0.08508795
3.47893429 -11.11620045 0.15318619 0.68587691 -0.93321162 0.05525571
4.84469366 -10.98825073 -0.43515754 0.95513839 -0.92247015 -0.15696546
4.43857956 -11.11929226 -0.51167423 0.87507236 -0.93347120 -0.18456577
4.26044512 -11.06553555 1.77690172 0.83995295 -0.92895830 0.64094537
4.46228075 -10.90151691 2.37895417 0.87974513 -0.91518885 0.85811144
4.39131594 -10.97462082 1.10982156 0.86575431 -0.92132592 0.40032321
4.98352671 -11.18970490 0.38901189 0.98250949 -0.93938237 0.14032029
4.44869852 -11.04095364 0.29779118 0.87706733 -0.92689461 0.10741612
3.98206544 -11.09556007 0.23658904 0.78506994 -0.93147886 0.08533992
3.56870222 -11.15700054 0.15483499 0.70357484 -0.93663681 0.05585045
4.45063639 -10.94849110 -0.50686890 0.87744939 -0.91913235 -0.18283243
4.29610395 -10.95198441 1.76271093 0.84698313 -0.91942561 0.63582665
4.46765709 -10.96524525 1.11192214 0.88080508 -0.92053884 0.40108091
5.01815653 -11.07996368 0.38531545 0.98933685 -0.93016952 0.13898695
4.53082466 -11.04424095 0.29903492 0.89325863 -0.92717057 0.10786474
4.06481743 -11.10596561 0.23779565 0.80138463 -0.93235242 0.08577516
3.66220832 -11.20661545 0.15673360 0.72200966 -0.94080204 0.05653530
4.57871580 -11.06448746 -0.51173663 0.90270042 -0.92887032 -0.18458828
4.36994457 -10.93763638 1.76482439 0.86154091 -0.91822106 0.63658899
4.56302595 -11.00130367 1.11927438 0.89960718 -0.92356598 0.40373293
4.29133320 -11.07735062 1.46841609 0.84604257 -0.92995018 0.52967167
4.14645243 -11.11202431 0.23887524 0.81747907 -0.93286103 0.08616457
3.75647783 -11.25549412 0.15863222 0.74059504 -0.94490540 0.05722015
4.34285831 -11.13505745 0.64212263 0.85620081 -0.93479466 0.23161975
4.44154835 -10.91729355 1.76603222 0.87565768 -0.91651326 0.63702464
4.64007235 -11.91176796 -0.18035282 0.91479701 -1.00000000 -0.06505498
4.29399490 -10.93164921 1.45017898 0.84656733 -0.91771847 0.52309334
4.78075790 -11.29952431 0.31117970 0.94253331 -0.94860178 0.11224548
4.20943356 -11.12038612 0.23982781 0.82989591 -0.93356305 0.08650818
3.83566070 -11.31534672 0.16068071 0.75620604 -0.94993007 0.05795906
4.35253191 -11.00689888 0.63456583 0.85810798 -0.92403573 0.22889394
4.74464321 -11.11835003 -0.51529384 0.93541330 -0.93339211 -0.18587139
4.52146530 -10.96574783 1.77750564 0.89141345 -0.92058104 0.64116323
4.36008215 -10.99248409 -0.17716740 0.85959649 -0.92282557 -0.06390597
4.25154352 -11.07902431 1.05619311 0.83819795 -0.93009067 0.38097891
4.39512777 -10.98536396 1.46197951 0.86650580 -0.92222786 0.52734995
4.80442238 -11.15903854 0.30679002 0.94719881 -0.93680793 0.11066208
4.29367352 -11.13099480 0.24109793 0.84650397 -0.93445361 0.08696632
3.90277767 -11.27968025 0.16038093 0.76943827 -0.94693583 0.05785093
4.44930649 -11.04778385 0.63938653 0.87718719 -0.92746800 0.23063281
4.78427172 -11.01858997 -0.51292235 0.94322610 -0.92501718 -0.18501598
4.46818018 -11.06123447 -0.17751321 0.88090819 -0.92859721 -0.06403071
4.31888723 -11.04653549 1.05559206 0.85147488 -0.92736322 0.38076210
4.47382593 -10.98137569 1.46546602 0.88202125 -0.92189300 0.52860755
4.88402748 -11.15061665 0.30766797 0.96289307 -0.93610090 0.11097877
4.32534313 -11.00711632 0.23779565 0.85274768 -0.92405397 0.08577516
3.99211979 -11.30775642 0.16177991 0.78705221 -0.94929290 0.05835555
4.52927828 -11.04544353 0.64121056 0.89295375 -0.92727154 0.23129076
4.84375381 -10.96635246 -0.51217347 0.95495307 -0.92063183 -0.18474585
4.55897999 -11.08469677 -0.17769942 0.89880949 -0.93056691 -0.06409787
4.34532404 -10.91202831 1.04397202 0.85668695 -0.91607124 0.37657064
4.56027079 -10.99512577 1.47163439 0.89906400 -0.92304736 0.53083253
4.97505999 -11.16721249 0.30957016 0.98084027 -0.93749410 0.11166491
4.41903400 -11.04092407 0.23989132 0.87121898 -0.92689216 0.08653108
4.06646061 -11.29186153 0.16202973 0.80170858 -0.94795847 0.05844567
4.63100910 -11.09406471 0.64668268 0.91301012 -0.93135333 0.23326460
4.92235374 -10.95760059 -0.51292235 0.97044915 -0.91989708 -0.18501598
4.25033522 -10.95545197 2.26091599 0.83795977 -0.91971672 0.81553394
4.45810843 -10.99323559 1.05579245 0.87892252 -0.92288864 0.38083440
5.00485992 -11.04645920 0.30598524 0.98671538 -0.92735684 0.11037179
4.50574303 -11.05548763 0.24135195 0.88831377 -0.92811477 0.08705795
4.10233974 -11.17031097 0.15948159 0.80878222 -0.93775427 0.05752653
5.00103474 -10.94829273 -0.51367122 0.98596126 -0.91911566 -0.18528610
4.29662275 -10.87197781 2.24903131 0.84708542 -0.91270900 0.81124699
4.54539394 -11.00911999 1.06060076 0.89613098 -0.92422217 0.38256881
4.29197788 -11.06566811 1.38302565 0.84616965 -0.92896944 0.49887052
4.59357834 -11.07124043 0.24287607 0.90563065 -0.92943722 0.08760771
4.22617722 -11.28858566 0.16332878 0.83319694 -0.94768345 0.05891425
4.35155344 -11.14300919 0.57460505 0.85791504 -0.93546224 0.20726551
5.07224274 -10.92209721 -0.51385844 1.00000000 -0.91691655 -0.18535364
4.36760473 -10.90077209 2.25938249 0.86107957 -0.91512632 0.81498080
4.46237993 -11.45764160 -0.23574840 0.87976468 -0.96187580 -0.08503669
4.29997873 -10.93263149 1.36750805 0.84774703 -0.91780090 0.49327317
4.23197985 -11.14323235 0.15998122 0.83434093 -0.93548095 0.05770675
4.33814955 -10.95520496 0.56390011 0.85527247 -0.91969597 0.20340414
4.44717884 -10.90035820 2.26513290 0.87676775 -0.91509157 0.81705499
4.36903620 -11.01083088 -0.23216566 0.86136180 -0.92436582 -0.08374437
4.38254070 -10.94041157 1.37234139 0.86402422 -0.91845405 0.49501660
4.76397896 -11.13392639 0.24681340 0.93922538 -0.93469971 0.08902794
4.30047417 -11.11269093 0.15988129 0.84784472 -0.93291700 0.05767071
4.44704580 -11.02778625 0.57032305 0.87674153 -0.92578924 0.20572096
4.47096109 -11.06480694 -0.23286629 0.88145643 -0.92889714 -0.08399709
4.32474852 -11.05755329 0.96545088 0.85263044 -0.92828816 0.34824732
4.45417833 -10.92001152 1.37335896 0.87814772 -0.91674143 0.49538365
4.80820990 -11.04516602 0.24478124 0.94794554 -0.92724824 0.08829492
4.35268927 -11.04078007 0.15868218 0.85813898 -0.92688006 0.05723817
4.53059483 -11.03474140 0.57258302 0.89321333 -0.92637312 0.20653614
4.54872990 -11.05685520 -0.23304145 0.89678866 -0.92822957 -0.08406027
4.34423923 -10.90427589 0.95286083 0.85647303 -0.91542041 0.34370598
4.95388508 -11.18642139 0.25075075 0.97666562 -0.93910670 0.09044819
4.43087530 -11.03549385 0.15928173 0.87355345 -0.92643625 0.05745444
4.45366621 -10.97832966 0.96304399 0.87804675 -0.92163730 0.34737915
5.01089048 -11.12593460 0.24973466 0.98790431 -0.93402880 0.09008167
4.51820803 -11.05188370 0.16048086 0.89077127 -0.92781222 0.05788697
4.52861261 -10.96486473 0.96452516 0.89282256 -0.92050689 0.34791341
4.81439018 -11.12524414 0.58412051 0.94916397 -0.93397087 0.21069783
4.22528982 -11.07114601 2.17126083 0.83302200 -0.92942929 0.78319448
4.84161186 -11.02358341 -0.23371021 0.95453078 -0.92543638 -0.08430150
4.25127029 -10.98322105 2.15772152 0.83814412 -0.92204791 0.77831072
4.76581621 -11.10639286 0.16412820 0.93958759 -0.93238831 0.05920260
4.98421144 -11.17929840 0.59113818 0.98264450 -0.93850875 0.21322918
4.31157827 -10.93432808 2.15333033 0.85003388 -0.91794336 0.77672678
4.79406786 -10.98087597 0.16153009 0.94515741 -0.92185104 0.05826544
4.39113903 -10.93441010 2.15881920 0.86571944 -0.91795021 0.77870667
4.95835590 -11.16632080 0.16742580 0.97754705 -0.93741930 0.06039208
4.47828102 -10.95213509 2.16796756 0.88289958 -0.91943824 0.78200656
5.01120090 -11.09665108 0.16637656 0.98796552 -0.93157047 0.06001361
4.24569607 -10.93049908 2.75610805 0.83704513 -0.91762191 0.99415439
5.03925943 -10.97402763 0.16387838 0.99349731 -0.92127615 0.05911249
4.29504681 -10.85472584 2.74360633 0.84677470 -0.91126066 0.98964494
4.37981749 -10.86906052 2.75425577 0.86348736 -0.91246408 0.99348629
4.45955849 -10.91859722 2.77231383 0.87920839 -0.91662270 1.00000000
