8.73140907 6.21195030 -0.29688102 0.99661499 0.91692233 -0.21024103
8.72861671 6.37840080 0.06049307 0.99629623 0.94149143 0.04283914
8.76042271 6.29514790 -0.29794940 0.99992663 0.92920280 -0.21099763
8.61737537 6.27453375 -0.29605007 0.98359901 0.92616004 -0.20965257
8.51029015 6.27856112 -0.29480365 0.97137618 0.92675447 -0.20876990
8.50728607 6.44473457 0.05796140 0.97103328 0.95128274 0.04104629
8.52185440 6.37032080 -0.29575330 0.97269613 0.94029880 -0.20944242
8.67254353 6.65672493 0.06273122 0.98989600 0.98257381 0.04442411
8.54533482 6.47215605 -0.29694039 0.97537619 0.95533031 -0.21028307
8.65500164 6.64165735 -0.29975966 0.98789370 0.98034972 -0.21227957
8.18980408 6.45014000 0.05341172 0.93479544 0.95208061 0.03782436
8.26436424 6.56394911 0.78562921 0.94330585 0.96887952 0.55635583
8.61310005 6.69590664 -0.29975966 0.98311102 0.98835725 -0.21227957
8.20842171 6.54897594 0.05480598 0.93692046 0.96666938 0.03881172
8.21161366 6.58532810 0.78318709 0.93728483 0.97203517 0.55462641
8.38668346 6.58294058 -0.29607975 0.95726752 0.97168279 -0.20967360
8.21012020 6.61399126 0.05557648 0.93711436 0.97626603 0.03935738
8.21530056 6.48549080 0.41967544 0.93770564 0.95729858 0.29719985
8.17161942 6.63805246 0.78336155 0.93271983 0.97981763 0.55474997
8.22168732 6.53694630 -0.29373530 0.93843466 0.96489376 -0.20801333
8.23656178 6.56288910 1.14647150 0.94013244 0.96872306 0.81189209
8.21955204 6.57324076 0.42276156 0.93819094 0.97025102 0.29938534
8.17429638 6.72606230 0.78842014 0.93302536 0.99280846 0.55833226
8.08870602 6.51428986 -0.29198438 0.92325598 0.96154952 -0.20677340
8.58660221 6.41836691 -0.36041054 0.98008651 0.94739068 -0.25523046
8.60461617 6.62273645 0.00033707 0.98214269 0.97755688 0.00023870
8.17048454 6.59451294 1.14259481 0.93259031 0.97339094 0.80914676
8.18428707 6.62979603 0.42318726 0.93416572 0.97859895 0.29968679
8.06772804 6.58145666 -0.29237017 0.92086154 0.97146374 -0.20704660
8.61021614 6.71347189 0.00110064 0.98278183 0.99094999 0.00077943
8.13195801 6.64823818 1.14307940 0.92819279 0.98132110 0.80948991
8.19025612 6.72045279 0.42648622 0.93484706 0.99198043 0.30202302
8.06315517 6.66266108 -0.29308242 0.92033958 0.98345000 -0.20755099
8.21267223 6.48795843 -0.00465158 0.93740565 0.95766282 -0.00329409
8.15098286 6.72828817 1.15107512 0.93036431 0.99313700 0.81515223
8.26607800 6.55527830 0.73146027 0.94350147 0.96759963 0.51799524
8.65330124 6.70381451 -0.36510092 0.98769963 0.98952454 -0.25855204
8.14442825 6.49673080 -0.00526244 0.92961615 0.95895767 -0.00372668
8.17803764 6.56972647 0.72653037 0.93345243 0.96973228 0.51450408
8.14630318 6.39473677 -0.35285613 0.92983019 0.94390273 -0.24988069
8.27142048 6.54914570 1.08931899 0.94411123 0.96669447 0.77141863
8.19741058 6.47533083 0.35997528 0.93566364 0.95579892 0.25492224
8.19698811 6.66992807 0.73293924 0.93561542 0.98452270 0.51904261
8.20158100 6.52152348 -0.35538810 0.93613970 0.96261722 -0.25167376
8.19906521 6.57618761 1.08469415 0.93585253 0.97068602 0.76814348
8.21124172 6.57028723 0.36330840 0.93724239 0.96981508 0.25728264
8.17032433 6.73394728 0.73458254 0.93257201 0.99397230 0.52020633
8.08090019 6.50911140 -0.35327122 0.92236501 0.96078515 -0.25017464
8.64493942 6.62399387 -0.04009949 0.98674524 0.97774249 -0.02839709
8.15604019 6.62632370 1.08446288 0.93094158 0.97808641 0.76797968
8.20088577 6.64684772 0.36521304 0.93606031 0.98111588 0.25863144
8.07553387 6.58876038 -0.35422590 0.92175251 0.97254181 -0.25085071
8.59940910 6.48280239 -0.40447167 0.98154831 0.95690179 -0.28643307
8.16187382 6.71647882 1.09163153 0.93160743 0.99139386 0.77305627
8.15586758 6.69571447 0.36502257 0.93092191 0.98832893 0.25849655
8.04632664 6.64953613 -0.35455796 0.91841871 0.98151273 -0.25108588
8.54740047 6.52818966 -0.40412521 0.97561198 0.96360123 -0.28618771
8.26904297 6.50161934 -0.04343825 0.94383985 0.95967925 -0.03076149
8.74372196 6.39339828 -0.11298863 0.99802041 0.94370514 -0.08001470
8.28845215 6.57331562 0.67466003 0.94605529 0.97026205 0.47777125
8.65937519 6.70073891 -0.40892607 0.98839295 0.98907053 -0.28958753
8.23115349 6.55594444 -0.04340235 0.93951511 0.96769798 -0.03073607
8.65349293 6.41139507 -0.11313091 0.98772150 0.94636160 -0.08011546
8.22008419 6.58231401 0.67098230 0.93825167 0.97159028 0.47516683
8.28632164 6.47370195 -0.39818603 0.94581211 0.95555848 -0.28198180
8.20328045 6.59717274 -0.04336645 0.93633366 0.97378355 -0.03071064
8.55102158 6.39832020 -0.11333745 0.97602528 0.94443166 -0.08026172
8.39677811 6.61062956 0.32178807 0.95841974 0.97576982 0.22787936
8.18011093 6.63509130 0.67113554 0.93368906 0.97938055 0.47527534
8.24861431 6.52812576 -0.39828500 0.94150811 0.96359175 -0.28205186
8.57768631 6.50254011 -0.11314468 0.97906888 0.95981514 -0.08012521
8.28668213 6.57596445 1.05105877 0.94585323 0.97065306 0.74432403
8.19129658 6.53212976 0.31276187 0.93496579 0.96418279 0.22148731
8.18748665 6.72696114 0.67603916 0.93453091 0.99294108 0.47874790
8.10152054 6.49457741 -0.39491946 0.92471862 0.95863980 -0.27966851
8.64308834 6.63772535 -0.11283717 0.98653394 0.97976935 -0.07990744
8.21736145 6.60543394 1.04703534 0.93794090 0.97500294 0.74147475
8.18293285 6.77478361 1.41209841 0.93401116 1.00000000 1.00000000
8.21682549 6.63758802 0.31645831 0.93787968 0.97974908 0.22410500
8.06365395 6.54787922 -0.39501846 0.92039651 0.96650749 -0.27973861
8.76106548 6.26669312 -0.17366278 1.00000000 0.92500269 -0.12298207
8.16646385 6.64938736 1.04569423 0.93213135 0.98149073 0.74052507
8.06243706 6.63151550 -0.39630526 0.92025757 0.97885275 -0.28064990
8.17988396 6.44815779 -0.11394329 0.93366313 0.95178801 -0.08069076
8.75224400 6.34397554 -0.17378913 0.99899310 0.93641007 -0.12307154
8.16738701 6.73605728 1.05195284 0.93223673 0.99428374 0.74495715
8.26653385 6.55972242 0.60719252 0.94355351 0.96825564 0.42999306
8.15329552 6.51063013 -0.11390197 0.93062830 0.96100932 -0.08066150
8.22617435 6.59113789 0.60634702 0.93894678 0.97289276 0.42939430
8.36548710 6.55069685 -0.46961218 0.95484817 0.96692342 -0.33256334
8.21296978 6.62161255 -0.11363578 0.93743962 0.97739100 -0.08047299
8.53438473 6.32993126 -0.17317732 0.97412634 0.93433702 -0.12263828
8.36735058 6.59565115 0.25206539 0.95506084 0.97355896 0.17850412
8.19235611 6.64896488 0.60705155 0.93508673 0.98142838 0.42989323
8.15476608 6.46928215 -0.46287227 0.93079615 0.95490611 -0.32779038
8.51519966 6.39908838 -0.17326377 0.97193652 0.94454503 -0.12269951
8.25344944 6.55803108 0.97475129 0.94205999 0.96800596 0.69028568
8.13178158 6.49382114 0.24299340 0.92817265 0.95852822 0.17207965
8.19672489 6.73822594 0.61127901 0.93558538 0.99460387 0.43288699
8.21384048 6.60033798 -0.46686628 0.93753898 0.97425073 -0.33061880
8.11367893 6.71157646 -0.11368167 0.92610639 0.99067020 -0.08050549
8.72270107 6.64193821 -0.17430119 0.99562103 0.98039120 -0.12343417
8.74040985 6.17560530 -0.22305758 0.99764234 0.91155756 -0.15796179
8.16863060 6.57492447 0.96886951 0.93237865 0.97049958 0.68612039
8.17234421 6.77012825 1.35682821 0.93280256 0.99931282 0.96085954
8.21688557 6.64635563 0.24891946 0.93788654 0.98104322 0.17627628
8.75516891 6.26872063 -0.22358306 0.99932694 0.92530197 -0.15833391
8.15649319 6.64994192 0.97286069 0.93099332 0.98157257 0.68894678
8.41195679 6.57326317 -0.17334357 0.96015227 0.97025436 -0.12275601
8.73505974 6.33766365 -0.22377414 0.99703169 0.93547839 -0.15846922
8.15602303 6.73517370 0.97853237 0.93093961 0.99415332 0.69296330
8.26096725 6.52491856 0.54909635 0.94291812 0.96311837 0.38885134
8.26017284 6.51720810 -0.17283151 0.94282740 0.96198028 -0.12239338
8.53870869 6.25731468 -0.22213404 0.97461987 0.92361838 -0.15730776
8.30607319 6.59380722 1.29596817 0.94806653 0.97328675 0.91776055
8.25972748 6.58747530 0.55157185 0.94277662 0.97235215 0.39060441
8.22686005 6.57523775 -0.17286476 0.93902504 0.97054577 -0.12241694
8.51852036 6.32511091 -0.22232512 0.97231555 0.93362552 -0.15744308
8.22284222 6.61225080 1.28872705 0.93856645 0.97600913 0.91263258
8.29621887 6.50290775 0.19696170 0.94694179 0.95986944 0.13948157
8.73706627 6.37252951 0.13235140 0.99726069 0.94062483 0.09372675
8.20577431 6.62918520 0.55052954 0.93661833 0.97850877 0.38986626
8.52982616 6.41688538 -0.22283466 0.97360605 0.94717199 -0.15780392
8.30730343 6.57304764 0.92797196 0.94820696 0.97022253 0.65715814
8.13817501 6.62865591 1.28121758 0.92890245 0.97843063 0.90731466
8.17235184 6.48886347 0.19359592 0.93280339 0.95779639 0.13709803
8.65499020 6.39648247 0.13105235 0.98789245 0.94416040 0.09280681
8.19788647 6.70848370 0.55339587 0.93571800 0.99021375 0.39189610
8.52756977 6.49937582 -0.22321682 0.97334850 0.95934808 -0.15807454
8.21622944 6.58519363 0.92156094 0.93781167 0.97201532 0.65261805
8.12383938 6.70241499 1.28604507 0.92726612 0.98931795 0.91073334
8.18585396 6.58403921 0.19581860 0.93434459 0.97184497 0.13867207
8.54090691 6.39574909 0.12875402 0.97487080 0.94405216 0.09117921
8.17623425 6.63794470 0.92176127 0.93324655 0.97980171 0.65275997
8.53245544 6.47339535 0.12975329 0.97390616 0.95551324 0.09188686
8.37738800 6.55316448 -0.22253212 0.95620650 0.96728766 -0.15758967
8.18347073 6.72972679 0.92817229 0.93407255 0.99334931 0.65730000
8.67735386 6.66908312 0.13559903 0.99044502 0.98439795 0.09602661
8.26457691 6.53979826 0.48979825 0.94333011 0.96531469 0.34685844
8.22853088 6.49982214 -0.22133788 0.93921578 0.95941401 -0.15674396
8.25564957 6.56490993 1.21360421 0.94231111 0.96902132 0.85943317
8.61577702 6.68666506 0.13464972 0.98341656 0.98699313 0.09535435
8.21335983 6.56250954 0.48825198 0.93748415 0.96866703 0.34576342
8.10933018 6.48907089 -0.22054172 0.92561007 0.95782703 -0.15618013
8.14306259 6.55954504 1.20190239 0.92946029 0.96822947 0.85114634
8.26665020 6.50026941 0.12490683 0.94356674 0.95947999 0.08845476
8.17973518 6.62025070 0.48884669 0.93364614 0.97718996 0.34618458
8.07929134 6.54868889 -0.22065318 0.92218137 0.96662700 -0.15625906
8.26119614 6.54387522 0.84140146 0.94294423 0.96591651 0.59585184
8.13247681 6.63560247 1.20699012 0.92825204 0.97945601 0.85474932
8.24600697 6.56823635 0.12555636 0.94121051 0.96951234 0.08891474
8.19210148 6.71571064 0.49300972 0.93505770 0.99128044 0.34913269
8.06740093 6.62337732 -0.22095573 0.92082417 0.97765148 -0.15647332
8.17169285 6.55711031 0.83566189 0.93272817 0.96787006 0.59178728
8.11972332 6.71052408 1.21182346 0.92679632 0.99051487 0.85817212
8.22327614 6.63494778 0.12615593 0.93861598 0.97935939 0.08933933
8.18760014 6.65468740 0.84251237 0.93454391 0.98227304 0.59663856
8.14716530 6.70726252 0.84269750 0.92992860 0.99003345 0.59676969
