7.94515133 -9.89638710 2.17752290 0.92103267 -0.98460811 0.88867515
7.96358013 -9.79283905 2.16550565 0.92316902 -0.97430599 0.88377076
8.02495289 -9.74260902 2.16550565 0.93028355 -0.96930850 0.88377076
8.11635971 -9.72825623 2.17374611 0.94087982 -0.96788049 0.88713384
7.96250820 -9.82433224 0.96878523 0.92304474 -0.97743928 0.39537376
7.89475346 -9.94987106 -0.32635000 0.91519034 -0.98992932 -0.13318765
8.07169533 -9.91152763 0.09667036 0.93570215 -0.98611450 0.03945242
8.02407932 -9.77410889 0.96878523 0.93018228 -0.97244245 0.39537376
7.86296606 -9.78331852 -0.32412425 0.91150540 -0.97335875 -0.13227929
8.05476856 -9.76510143 0.09439553 0.93373990 -0.97154629 0.03852403
7.97381735 -9.90438557 1.41299820 0.92435575 -0.98540390 0.57666278
7.96631956 -9.85688400 0.53726786 0.92348659 -0.98067790 0.21926595
8.10702991 -9.74950790 0.97175062 0.93979824 -0.96999490 0.39658397
7.92934132 -9.73991585 -0.32424295 0.91919988 -0.96904057 -0.13232774
8.15707016 -9.76334000 0.09556963 0.94559914 -0.97137105 0.03900320
7.98057699 -9.78648186 1.40233707 0.92513937 -0.97367346 0.57231188
7.93302584 -9.69088554 0.52928644 0.91962701 -0.96416247 0.21600862
8.04264736 -9.75307560 -0.32545972 0.93233478 -0.97034985 -0.13282432
7.84522057 -9.72428226 2.07787013 0.90944833 -0.96748513 0.84800559
8.03039932 -9.75335789 1.40306401 0.93091494 -0.97037792 0.57260853
8.06401920 -9.75639725 0.53641647 0.93481231 -0.97068030 0.21891849
8.11544037 -9.74729824 -0.32608292 0.94077325 -0.96977502 -0.13307865
7.98293734 -9.80049801 2.10253620 0.92541295 -0.97506797 0.85807216
8.47994804 -9.92509651 0.10166033 0.98302835 -0.98746449 0.04148889
8.12337112 -9.74077415 1.40912139 0.94169259 -0.96912593 0.57508063
8.16112614 -9.74835777 0.53939623 0.94606930 -0.96988046 0.22013456
8.05938816 -9.76842403 2.10653591 0.93427545 -0.97187686 0.85970449
7.99755239 -9.86371994 0.90860885 0.92710721 -0.98135805 0.37081498
7.85535479 -9.91275501 -0.40042394 0.91062307 -0.98623663 -0.16341817
8.13953686 -9.74032211 2.11153579 0.94356656 -0.96908098 0.86174500
8.01486778 -9.82573318 0.02352411 0.92911446 -0.97757864 0.00960049
8.02401733 -9.77008915 0.90400761 0.93017513 -0.97204256 0.36893716
8.39864445 -9.70890045 -0.32836804 0.97360331 -0.96595478 -0.13401124
7.94621515 -9.89911366 -0.40137863 0.92115599 -0.98487943 -0.16380779
7.97092772 -9.64704990 0.02141157 0.92402077 -0.95980114 0.00873834
8.03173637 -9.92443752 1.34739161 0.93106991 -0.98739892 0.54988790
7.98159885 -9.88340282 0.46758687 0.92525780 -0.98331630 0.19082823
8.11069107 -9.75016880 0.90729421 0.94022268 -0.97006065 0.37027848
8.57433701 -9.78662014 -0.33094990 0.99397027 -0.97368723 -0.13506493
8.01203251 -9.85365105 -0.40150315 0.92878580 -0.98035628 -0.16385861
8.15948200 -9.75034904 0.02395680 0.94587868 -0.97007859 0.00977708
8.00971794 -9.77070713 1.33189809 0.92851746 -0.97210401 0.54356480
7.98042011 -9.75564289 0.46282530 0.92512113 -0.97060525 0.18888497
8.62635136 -9.72209644 -0.33074215 1.00000000 -0.96726769 -0.13498014
7.96467590 -9.67020226 -0.39793348 0.92329603 -0.96210462 -0.16240178
8.06058502 -9.75957108 0.46539655 0.93441421 -0.97099608 0.18993434
8.10713291 -9.74956512 -0.40108809 0.93981022 -0.97000057 -0.16368923
8.18163013 -9.75979328 1.34369171 0.94844621 -0.97101820 0.54837793
8.15501022 -9.74862576 0.46787256 0.94536030 -0.96990710 0.19094482
8.24665451 -9.79185390 -0.40362003 0.95598406 -0.97420794 -0.16472255
8.56466293 -9.88334656 0.02858912 0.99284881 -0.98331070 0.01166759
7.97320175 -9.90486431 1.71757829 0.92428440 -0.98545152 0.70096588
7.99508810 -9.87826252 0.83831853 0.92682153 -0.98280489 0.34212860
8.62000847 -9.82181263 0.02846186 0.99926472 -0.97718859 0.01161565
7.95089722 -9.94177723 2.02631783 0.92169875 -0.98912406 0.82696646
8.01856995 -9.86246586 -0.02376470 0.92954361 -0.98123324 -0.00969868
8.02024174 -9.83619118 1.71411026 0.92973745 -0.97861916 0.69955051
7.98225975 -9.73696709 0.82927746 0.92533439 -0.96874720 0.33843884
7.95595264 -9.94353008 -0.45312360 0.92228478 -0.98929846 -0.18492559
7.87125111 -9.71696472 1.98989153 0.91246587 -0.96675712 0.81210041
7.98229408 -9.69317436 -0.02514687 0.92533839 -0.96439016 -0.01026276
7.90466738 -9.85809612 1.28240740 0.91633958 -0.98079848 0.52336699
8.07304668 -9.77493763 1.71208715 0.93585879 -0.97252494 0.69872487
8.00173092 -9.92752647 0.41058886 0.92759156 -0.98770624 0.16756661
8.10199451 -9.75709820 0.83632642 0.93921453 -0.97075003 0.34131560
8.05106831 -9.93367863 -0.45441043 0.93331099 -0.98831832 -0.18545076
8.01371193 -9.76639271 2.01066089 0.92898047 -0.97167480 0.82057667
7.99407244 -9.84213066 1.28732491 0.92670381 -0.97921008 0.52537388
8.16992664 -9.76646519 1.72017932 0.94708949 -0.97168201 0.70202738
7.99937487 -9.79821968 0.40620470 0.92731845 -0.97484130 0.16577739
8.20557690 -9.75629425 0.84138328 0.95122218 -0.97067004 0.34337938
8.01544952 -9.76406002 -0.45059943 0.92918187 -0.97144270 -0.18389544
8.07744598 -9.71888161 2.01130009 0.93636876 -0.96694779 0.82083750
8.02773571 -9.78900242 1.28508961 0.93060619 -0.97392428 0.52446163
8.06328678 -9.78197193 0.40740818 0.93472737 -0.97322476 0.16626853
8.00640297 -9.66007519 -0.44847122 0.92813319 -0.96109706 -0.18302689
8.18673038 -9.75622749 2.02727652 0.94903743 -0.97066343 0.82735771
7.74361229 -10.05109215 -0.53401577 0.89766949 -1.00000000 -0.21793872
8.11071301 -9.76432514 1.28888953 0.94022518 -0.97146904 0.52601242
8.14383507 -9.75409222 0.40869763 0.94406486 -0.97045100 0.16679478
7.95529604 -9.88911247 1.64997017 0.92220867 -0.98388439 0.67337412
7.98735094 -9.87591171 0.75895661 0.92592460 -0.98257101 0.30973998
8.62551308 -9.85799026 -0.02028234 0.99990284 -0.98078799 -0.00827748
8.00346756 -9.83215714 -0.10875236 0.92779291 -0.97821778 -0.04438324
8.00978279 -9.82970905 1.64829516 0.92852497 -0.97797424 0.67269051
8.02905655 -9.80080700 0.75670195 0.93075925 -0.97509873 0.30881983
7.75708389 -9.68463135 -0.52527887 0.89923114 -0.96354020 -0.21437308
7.94699192 -9.63797665 -0.10917921 0.92124605 -0.95889843 -0.04455744
7.97930098 -9.95139694 1.20855093 0.92499143 -0.99008113 0.49322522
8.05880356 -9.76389503 1.64550328 0.93420768 -0.97142625 0.67155111
8.08920574 -9.74862766 0.75656104 0.93773198 -0.96990728 0.30876231
7.69962883 -9.48958588 -0.51941264 0.89257073 -0.94413477 -0.21197900
8.13918209 -9.74618053 -0.10870647 0.94352543 -0.96966386 -0.04436451
7.96658134 -9.80831337 1.19594717 0.92351693 -0.97584552 0.48808146
8.17450714 -9.77849007 1.65750813 0.94762045 -0.97287834 0.67645043
8.07781982 -9.89426708 0.32961634 0.93641210 -0.98439723 0.13452068
8.18488884 -9.73890209 0.76036572 0.94882393 -0.96893966 0.31031507
8.02383709 -9.76423740 -0.53245562 0.93015420 -0.97146034 -0.21730201
7.93668318 -9.90396214 1.90431738 0.92005098 -0.98536181 0.77717650
8.03309536 -9.76421642 1.19678748 0.93122745 -0.97145826 0.48842442
8.05974007 -9.74615383 0.32500720 0.93431622 -0.96966118 0.13263963
8.09523964 -9.72593784 -0.53295487 0.93843150 -0.96764988 -0.21750575
7.89678240 -9.72786522 1.87955880 0.91542554 -0.96784163 0.76707220
8.40646839 -9.81347942 -0.10819243 0.97451031 -0.97635949 -0.04415473
8.10185051 -9.75382900 1.20056856 0.93919784 -0.97042477 0.48996753
8.12731171 -9.73418140 0.32625094 0.94214940 -0.96847004 0.13314721
8.00757694 -9.77016354 1.89525938 0.92826927 -0.97204995 0.77347982
7.87168455 -9.87385178 -0.17983410 0.91251612 -0.98236609 -0.07339261
7.95839691 -9.92011070 1.58186162 0.92256814 -0.98696846 0.64557815
7.97853661 -9.89682579 0.69176269 0.92490280 -0.98465180 0.28231728
8.08645153 -9.74098301 1.89948642 0.93741274 -0.96914673 0.77520490
8.62040901 -9.84248638 -0.10782066 0.99931115 -0.97924548 -0.04400300
7.90461016 -9.78845692 -0.17968115 0.91633296 -0.97386998 -0.07333019
8.01430702 -9.86223125 1.58052063 0.92904943 -0.98120993 0.64503086
8.01526642 -9.81562424 0.68915689 0.92916065 -0.97657293 0.28125381
8.19575405 -9.74756336 1.91095984 0.95008349 -0.96980143 0.77988738
7.99513817 -9.77415657 -0.17983410 0.92682731 -0.97244722 -0.07339261
8.05339909 -9.78417301 1.57569313 0.93358117 -0.97344375 0.64306068
8.08570290 -9.77581978 0.69006890 0.93732595 -0.97261268 0.28162602
8.02187443 -9.68220234 -0.17965455 0.92992669 -0.96329856 -0.07331934
7.99108839 -9.86639118 1.13973713 0.92635787 -0.98162377 0.46514142
8.14268970 -9.76682472 1.58159339 0.94393206 -0.97171777 0.64546865
8.03166103 -9.87908649 0.26656356 0.93106121 -0.98288685 0.10878803
8.17007923 -9.75232410 0.69241410 0.94710720 -0.97027504 0.28258312
8.04154110 -9.80215931 1.13793409 0.93220651 -0.97523326 0.46440557
8.01081657 -9.72825623 0.26243573 0.92864484 -0.96788049 0.10710341
8.37654686 -9.88599491 -0.18093137 0.97104168 -0.98357421 -0.07384042
7.92508507 -9.86995125 2.43803430 0.91870648 -0.98197800 0.99499327
8.09145832 -9.76874733 1.13853514 0.93799311 -0.97190905 0.46465087
8.47372723 -9.87409210 -0.18111093 0.98230720 -0.98238999 -0.07391371
7.96460438 -9.79258728 2.43113351 0.92328775 -0.97428089 0.99217695
7.80895805 -9.79640293 -0.23759548 0.90524459 -0.97466052 -0.09696578
8.20265293 -9.77709007 1.14634860 0.95088327 -0.97273910 0.46783966
7.94789505 -9.90314007 1.48935926 0.92135072 -0.98527998 0.60782671
7.98398304 -9.89866352 0.61956573 0.92553419 -0.98483461 0.25285277
8.55925846 -9.84778976 -0.18123063 0.99222231 -0.97977310 -0.07396256
8.03723049 -9.75596809 2.43458390 0.93170685 -0.97063762 0.99358511
7.89167213 -9.77363110 -0.23786618 0.91483313 -0.97239494 -0.09707625
7.97124529 -9.80522728 1.48147321 0.92405754 -0.97553849 0.60460830
7.99181175 -9.78173542 0.61445111 0.92644173 -0.97320127 0.25076541
8.15003109 -9.76698589 2.45030236 0.94478309 -0.97173381 1.00000000
7.99083471 -9.77035809 -0.23834388 0.92632848 -0.97206932 -0.09727121
8.02388573 -9.74421501 1.47969246 0.93015987 -0.96946830 0.60388160
8.07343960 -9.75597095 0.61635423 0.93590432 -0.97063792 0.25154212
8.05588531 -9.72458458 -0.23839164 0.93386936 -0.96751523 -0.09729070
7.97333574 -9.84626293 1.03951025 0.92429990 -0.97962117 0.42423755
8.11411953 -9.72869301 1.48554337 0.94062012 -0.96792400 0.60626942
7.95812750 -9.77076340 0.17701879 0.92253691 -0.97210962 0.07224365
8.15889931 -9.73416233 0.61861414 0.94581115 -0.96846813 0.25246441
7.99470901 -9.74663544 1.03358555 0.92677760 -0.96970910 0.42181960
8.04348946 -9.74991035 0.17796810 0.93243241 -0.97003490 0.07263108
8.07604599 -9.75185490 1.03876960 0.93620646 -0.97022837 0.42393526
8.14298439 -9.77650833 0.18006657 0.94396621 -0.97268122 0.07348749
8.17037010 -9.74064255 1.04358351 0.94714087 -0.96911287 0.42589989
8.57212257 -9.86618614 -0.24191068 0.99371362 -0.98160338 -0.09872687
8.59833622 -9.77153778 -0.24148075 0.99675238 -0.97218668 -0.09855141
7.93811417 -9.87492466 2.32385349 0.92021686 -0.98247278 0.94839460
7.98141718 -9.80195332 2.31836438 0.92523676 -0.97521275 0.94615442
8.03660393 -9.74401665 2.31653476 0.93163419 -0.96944857 0.94540769
8.13768578 -9.77260876 2.33263564 0.94335198 -0.97229320 0.95197868
