6.41646004 5.41418457 1.87208700 0.95715106 0.83474702 0.74961573
6.46221304 5.52301025 1.89600301 0.96397609 0.85152549 0.75919211
6.46858788 5.59934330 1.90840399 0.96492702 0.86329436 0.76415771
6.57980061 5.49593544 1.45992780 0.98151678 0.84735113 0.58458012
6.52057505 5.53451729 2.39473748 0.97268200 0.85329962 0.95889395
6.50910997 5.50654125 1.45168746 0.97097176 0.84898633 0.58128053
6.33950043 5.62825155 1.89068842 0.94567090 0.86775136 0.75706404
6.42743540 5.52507353 2.37287664 0.95878828 0.85184360 0.95014054
6.48334217 5.55504370 1.45374763 0.96712798 0.85646433 0.58210546
6.32137871 5.68366241 1.89600301 0.94296765 0.87629449 0.75919211
6.42017746 5.57173872 2.37998152 0.95770562 0.85903835 0.95298541
6.45114422 5.58036375 1.45237422 0.96232492 0.86036813 0.58155555
6.36773872 5.59668493 2.37342310 0.94988322 0.86288452 0.95035934
6.41151810 5.61688137 1.45134413 0.95641387 0.86599833 0.58114308
6.34678793 5.64940977 2.37888837 0.94675797 0.87101352 0.95254773
6.57018948 5.47065401 0.61014825 0.98008305 0.84345335 0.24431382
6.36874628 5.65049934 1.44962740 0.95003355 0.87118149 0.58045566
6.55164862 5.47971344 0.01884883 0.97731733 0.84485006 0.00754740
6.33825874 5.71371555 2.38927221 0.94548571 0.88092804 0.95670557
6.50528717 5.48606539 0.60665959 0.97040153 0.84582943 0.24291691
6.38722801 5.73925686 1.46233130 0.95279050 0.88486594 0.58554256
6.50643063 5.51169729 0.01859199 0.97057211 0.84978127 0.00744455
6.44415951 5.45739985 1.83439600 0.96128303 0.84140980 0.73452359
6.45676804 5.89518166 2.44884324 0.96316385 0.90890604 0.98055881
6.46161747 5.51904535 0.60561293 0.96388727 0.85091418 0.24249780
6.54060602 5.46917820 -0.26438501 0.97567004 0.84322578 -0.10586429
6.44138098 5.52635527 0.01785818 0.96086854 0.85204124 0.00715072
6.45875692 5.53961754 1.84865642 0.96346056 0.85408598 0.74023372
6.51397896 5.45839453 0.89835942 0.97169811 0.84156317 0.35971853
6.57211161 5.52730036 0.31953564 0.98036981 0.85218692 0.12794755
6.43733883 5.56868505 0.60683399 0.96026558 0.85856754 0.24298674
6.50915909 5.51275778 -0.26444438 0.97097909 0.84994477 -0.10588807
6.40653086 5.56671810 0.01785818 0.95566994 0.85826427 0.00715072
6.44155073 5.59541416 1.85384202 0.96089387 0.86268854 0.74231017
6.46247101 5.46717072 0.89424038 0.96401459 0.84291625 0.35806918
6.47458363 5.49728489 0.31453398 0.96582144 0.84755921 0.12594479
6.40204048 5.59107351 0.60578740 0.95500010 0.86201936 0.24256766
6.44063759 5.50687981 -0.26361343 0.96075767 0.84903854 -0.10555534
6.42386961 5.39162254 1.38355541 0.95825636 0.83126843 0.55399930
6.41805363 5.62827492 1.85470629 0.95738876 0.86775500 0.74265623
6.45206356 5.52839279 0.89811713 0.96246207 0.85235536 0.35962150
6.47316074 5.56658459 0.31687519 0.96560919 0.85824370 0.12688226
6.55028963 5.56912708 2.33909535 0.97711456 0.85863566 0.93661392
6.38316631 5.64574718 0.60770619 0.95218462 0.87044883 0.24333598
6.45720243 5.59187126 -0.26462245 0.96322864 0.86214232 -0.10595937
6.50128126 5.52612495 1.40822136 0.96980393 0.85200572 0.56387597
6.23305464 5.53694820 0.01510635 0.92979228 0.85367441 0.00604884
6.40158463 5.68530178 1.86032414 0.95493209 0.87654722 0.74490571
6.40971899 5.56229925 0.89690566 0.95614547 0.85758299 0.35913640
6.46360731 5.62950563 0.31868431 0.96418411 0.86794472 0.12760666
6.47710848 5.57755613 2.32525587 0.96619809 0.85993528 0.93107235
6.53855419 5.46357203 0.56417155 0.97536397 0.84236145 0.22590397
6.44396782 5.54761887 1.40322149 0.96125442 0.85531962 0.56187397
6.24709272 5.62025595 0.01631716 0.93188632 0.86651862 0.00653367
6.51357889 5.47409630 -0.02956938 0.97163838 0.84398407 -0.01184009
6.37446690 5.73322582 1.86291695 0.95088691 0.88393605 0.74594390
6.39101267 5.61691809 0.89957094 0.95335507 0.86600399 0.36020362
6.42883253 5.60676956 2.32046509 0.95899665 0.86443931 0.92915404
6.45988464 5.46730995 0.55940592 0.96362877 0.84293777 0.22399573
6.22379875 5.52742910 -0.26138768 0.92841154 0.85220677 -0.10466411
6.42387867 5.60092163 1.40655482 0.95825773 0.86353773 0.56320870
6.14381123 5.59728193 0.01462937 0.91647971 0.86297655 0.00585785
6.40733576 5.45416164 -0.03076564 0.95578998 0.84091055 -0.01231909
6.39554834 5.69269657 0.90611291 0.95403165 0.87768734 0.36282316
6.61551142 5.51893806 0.86408365 0.98684382 0.85089767 0.34599391
6.40795708 5.65978050 2.32578802 0.95588267 0.87261242 0.93128544
6.42388868 5.50649691 0.55924159 0.95825922 0.84897953 0.22392993
6.22010183 5.59458447 -0.26201090 0.92786008 0.86256063 -0.10491366
6.53154325 5.47200918 -0.31475207 0.97431815 0.84366226 -0.12603213
6.38411665 5.63726807 1.40555477 0.95232636 0.86914152 0.56280822
6.45338392 5.56332684 -0.02941667 0.96265906 0.85774142 -0.01177894
6.49099779 5.48495960 0.85044003 0.96826994 0.84565896 0.34053078
6.54673290 5.51883841 0.27017200 0.97658402 0.85088229 0.10818151
6.36938953 5.69736671 2.32472348 0.95012951 0.87840742 0.93085915
6.41782141 5.57150888 0.56236392 0.95735413 0.85900289 0.22518016
6.12287188 5.57684612 -0.26076448 0.91335618 0.85982579 -0.10441457
6.40078497 5.43166494 -0.31213710 0.95481277 0.83744210 -0.12498505
6.38097954 5.70611191 1.41288793 0.95185840 0.87975568 0.56574458
6.45144892 5.50391483 0.84835881 0.96237040 0.84858143 0.33969742
6.41242075 5.45795488 0.26341057 0.95654851 0.84149539 0.10547411
6.36828089 5.75051403 2.33430481 0.94996411 0.88660151 0.93469566
6.40351248 5.61217165 0.56367856 0.95521969 0.86527222 0.22570656
5.99371099 5.51063633 -0.25868711 0.89408910 0.84961772 -0.10358275
6.46793842 5.54090023 -0.31466907 0.96483016 0.85428375 -0.12599890
6.42728376 5.55340815 0.84997755 0.95876563 0.85621220 0.34034559
6.46594429 5.57357931 0.26893398 0.96453267 0.85932213 0.10768578
6.40696478 5.68660450 0.56795114 0.95573467 0.87674809 0.22741738
6.00715494 5.59327698 -0.25966644 0.89609450 0.86235905 -0.10397490
6.65222406 6.35666037 0.03095685 0.99232024 0.98005581 0.01239565
6.25014734 5.57969570 -0.03122378 0.93234199 0.86026514 -0.01250254
6.50709820 5.49999571 1.78797722 0.97067165 0.84797716 0.71593672
6.38627148 5.58846331 0.84905255 0.95264781 0.86161691 0.33997521
6.59636116 5.48441553 0.52096200 0.98398715 0.84557503 0.20860212
6.63381433 6.25814295 -0.27319902 0.98957407 0.96486664 -0.10939357
6.65373707 6.43874931 0.03202089 0.99254596 0.99271214 0.01282171
6.18969202 5.59611750 -0.03165647 0.92332381 0.86279702 -0.01267579
6.56990290 5.48573446 -0.06102957 0.98004031 0.84577841 -0.02443729
6.53320265 5.59306431 1.80512738 0.97456568 0.86232626 0.72280395
6.39423943 5.66658640 0.85575873 0.95383638 0.87366176 0.34266049
6.61260605 5.54008961 1.12049079 0.98641038 0.85415876 0.44866374
6.52675962 5.49612665 0.51743752 0.97360456 0.84738064 0.20719086
6.64486456 6.34816170 -0.27423769 0.99122244 0.97874552 -0.10980947
6.23361683 5.54781580 -0.31109941 0.92987615 0.85534996 -0.12456954
6.49873018 5.49582481 -0.06146038 0.96942341 0.84733409 -0.02460979
6.43157291 5.57619143 1.78630400 0.95940548 0.85972488 0.71526676
6.50839329 5.52246428 1.10719657 0.97086483 0.85144132 0.44334051
6.45273018 5.50328779 0.51345330 0.96256155 0.84848475 0.20559551
6.67081928 6.45389462 -0.27560282 0.99509412 0.99504721 -0.11035609
6.17928457 5.56951666 -0.31055981 0.92177129 0.85869575 -0.12435348
6.55444574 5.45571995 -0.34898967 0.97773457 0.84115082 -0.13974145
6.54451704 5.51502562 1.35115325 0.97625351 0.85029447 0.54102492
6.44739676 5.52219820 -0.06165783 0.96176594 0.85140032 -0.02468885
6.37881136 5.60096455 1.78128445 0.95153499 0.86354434 0.71325684
6.60053635 5.50886297 0.82820415 0.98460996 0.84934431 0.33162716
6.44061422 5.53479290 1.10083842 0.96075416 0.85334212 0.44079459
6.56995726 5.51008463 0.23092417 0.98004842 0.84953266 0.09246600
6.56383228 5.56251431 2.27087617 0.97913474 0.85761613 0.90929776
6.43609619 5.55940819 0.51529217 0.96008021 0.85713726 0.20633182
6.39646769 5.39211273 -0.34498069 0.95416880 0.83134401 -0.13813618
6.44829130 5.50334120 1.33805263 0.96189940 0.84849298 0.53577924
6.34786892 5.64484215 1.78253937 0.94691926 0.87030929 0.71375936
6.48197842 5.46156597 0.81456912 0.96692455 0.84205216 0.32616743
6.41744423 5.56768322 1.10141647 0.95729786 0.85841310 0.44102603
6.47543526 5.48271656 0.22705579 0.96594846 0.84531313 0.09091703
6.51410818 5.57323408 2.26259327 0.97171736 0.85926890 0.90598118
6.42632437 5.60413218 0.51697779 0.95862252 0.86403269 0.20700677
6.60603619 6.25908947 -0.02203550 0.98543036 0.96501255 -0.00882339
6.34819508 5.40270233 -0.34423831 0.94696790 0.83297670 -0.13783893
6.40736008 5.52074337 1.33485734 0.95579362 0.85117596 0.53449976
6.37928677 5.72709274 1.79927123 0.95160586 0.88299048 0.72045904
6.47167397 5.52288532 0.81814551 0.96538740 0.85150623 0.32759950
6.40458775 5.62754250 1.10575151 0.95538008 0.86764205 0.44276187
6.47113228 5.54938126 0.22877507 0.96530658 0.85559130 0.09160546
6.43088150 5.57219124 2.24550962 0.95930231 0.85910809 0.89914060
6.40440941 5.65631151 0.51835698 0.95535344 0.87207758 0.20755902
6.00740385 5.60605907 -0.30844292 0.89613163 0.86432976 -0.12350584
6.65190077 6.38197088 -0.02053382 0.99227202 0.98395813 -0.00822209
6.41537762 5.53018999 -0.34755436 0.95698959 0.85263246 -0.13916673
6.38442135 5.57130623 1.33741355 0.95237184 0.85897166 0.53552330
6.44134665 5.56734848 0.81881613 0.96086341 0.85836148 0.32786801
6.39860773 5.69405460 1.11153162 0.95448804 0.87789673 0.44507632
6.59138441 5.46553183 1.06787407 0.98324472 0.84266359 0.42759511
6.46775198 5.61752176 0.23058031 0.96480232 0.86609709 0.09232831
6.39864159 5.61504269 2.24654508 0.95449305 0.86571485 0.89955521
6.56028795 5.46757126 0.46501052 0.97860605 0.84297806 0.18619819
6.59698296 6.23133326 -0.32624972 0.98407990 0.96073318 -0.13063598
6.35345030 5.54665565 -0.34666348 0.94775182 0.85517108 -0.13881001
6.36109972 5.62179852 1.33996975 0.94889289 0.86675644 0.53654689
6.53122187 5.47711229 -0.11828511 0.97427022 0.84444904 -0.04736339
6.41220808 5.61296129 0.81971020 0.95651680 0.86539394 0.32822603
6.58882427 5.53350925 1.07373691 0.98286283 0.85314423 0.42994267
6.36196089 5.59585476 0.22654001 0.94902134 0.86275649 0.09071051
6.36611700 5.65770864 2.24758053 0.94964135 0.87229300 0.89996982
6.48761606 5.47660160 0.46148768 0.96776551 0.84437031 0.18478759
6.58955765 6.30299616 -0.32716286 0.98297226 0.97178197 -0.13100162
6.49335241 5.74183702 -0.35245419 0.96862119 0.88526374 -0.14112870
6.34913921 5.68277836 1.34508228 0.94710875 0.87615818 0.53859401
6.42183495 5.45477772 -0.11851001 0.95795286 0.84100556 -0.04745344
6.58346033 5.52950811 1.72709477 0.98206270 0.85252732 0.69155836
6.39165545 5.66635895 0.82194543 0.95345092 0.87362671 0.32912105
6.45718765 5.49290609 1.05586922 0.96322644 0.84688413 0.42278814
6.36626387 5.72999096 2.26052237 0.94966322 0.88343734 0.90515190
6.45003891 5.51467037 0.46120587 0.96216005 0.85023969 0.18467474
6.67073202 6.46086597 -0.33064952 0.99508113 0.99612200 -0.13239774
6.53728628 5.46412945 -0.40389803 0.97517484 0.84244740 -0.16172770
6.46036100 5.55745077 -0.11828970 0.96369982 0.85683548 -0.04736523
6.48877287 5.52012348 1.71103907 0.96793807 0.85108042 0.68512940
6.56407022 5.49533892 0.76552886 0.97917026 0.84725916 0.30653089
6.44359636 5.55141544 1.05977774 0.96119905 0.85590494 0.42435318
6.51938677 5.48491812 0.17392915 0.97250479 0.84565252 0.06964422
6.41223907 5.55248356 0.46092403 0.95652139 0.85606962 0.18456189
6.26846600 5.68427563 -0.34735638 0.93507463 0.87638903 -0.13908745
6.44014502 5.45228910 -0.40133935 0.96068418 0.84062189 -0.16070317
6.44344854 5.61365461 -0.11823463 0.96117699 0.86550087 -0.04734317
6.43908739 5.54803085 1.70702517 0.96052641 0.85538310 0.68352216
6.46047592 5.46091461 0.75481570 0.96371698 0.84195173 0.30224115
6.42185640 5.58560705 1.06061530 0.95795608 0.86117655 0.42468855
6.42630577 5.45880747 0.17071006 0.95861977 0.84162682 0.06835523
6.41610575 5.60882759 0.46374232 0.95709819 0.86475664 0.18569037
6.08268642 5.56756496 -0.34201109 0.90736163 0.85839486 -0.13694711
6.47224331 5.53179359 -0.40371081 0.96547234 0.85287970 -0.16165273
6.53364706 5.44679594 1.26512587 0.97463197 0.83977497 0.50657809
6.46508026 5.68610954 -0.11808775 0.96440381 0.87667179 -0.04728436
6.40990877 5.57574797 1.70622241 0.95617378 0.85965645 0.68320072
6.45026064 5.52203655 0.75817668 0.96219313 0.85137540 0.30358696
6.38514519 5.62454081 1.06033611 0.95247978 0.86717927 0.42457676
6.45261097 5.55107021 0.17363651 0.96254373 0.85585171 0.06952704
6.40169477 5.66749430 0.46571511 0.95494848 0.87380171 0.18648031
6.46159077 5.59322596 -0.40470931 0.96388328 0.86235118 -0.16205254
6.53713655 5.51953745 1.27267420 0.97515255 0.85099006 0.50960058
6.62571907 6.32063961 -0.05566242 0.98836648 0.97450221 -0.02228819
6.41276312 5.71202469 -0.11813825 0.95659959 0.88066733 -0.04730458
6.40126753 5.63916206 1.71344745 0.95488477 0.86943352 0.68609375
6.43049622 5.57544851 0.76027733 0.95924485 0.85961032 0.30442807
6.41484213 5.72240114 1.07262015 0.95690972 0.88226712 0.42949551
6.42364550 5.59674072 0.17392915 0.95822293 0.86289310 0.06964422
6.44592524 5.45608902 2.15015030 0.96154642 0.84120774 0.86095709
6.60919809 5.47310829 0.42206469 0.98590201 0.84383172 0.16900194
6.44661903 5.51309156 1.26150262 0.96164989 0.84999627 0.50512731
6.65907431 6.43317318 -0.05474696 0.99334210 0.99185240 -0.02192162
6.20857716 5.60122538 -0.11865687 0.92614090 0.86358452 -0.04751225
6.38182592 5.69358015 1.71786273 0.95198464 0.87782359 0.68786168
6.39384031 5.61443377 0.76006728 0.95377684 0.86562097 0.30434397
6.59355688 5.50498867 1.02321625 0.98356879 0.84874696 0.40971333
6.46012688 5.53795195 2.16668057 0.96366489 0.85382915 0.86757606
6.50600719 5.45664978 0.41620168 0.97050893 0.84129417 0.16665429
6.65327311 6.32757044 -0.36517397 0.99247676 0.97557080 -0.14622192
6.43132019 5.57026863 1.26542783 0.95936775 0.85881168 0.50669903
6.14514494 5.61456156 -0.11874408 0.91667867 0.86564070 -0.04754717
6.44398689 5.41586637 -0.16583557 0.96125728 0.83500630 -0.06640341
6.43141890 5.71908569 0.77036035 0.95938247 0.88175595 0.30846551
6.50144482 5.49754190 1.01302493 0.96982837 0.84759885 0.40563256
6.43106413 5.58349609 2.16868424 0.95932955 0.86085105 0.86837834
6.45641422 5.48446321 0.41489881 0.96311110 0.84558243 0.16613260
6.64499950 6.39983177 -0.36626282 0.99124259 0.98671192 -0.14665791
6.65295553 5.98062849 -0.41719064 0.99242938 0.92208004 -0.16705029
6.39768410 5.61186743 1.26572967 0.95435023 0.86522532 0.50681984
6.07737732 5.62325811 -0.11884505 0.90656966 0.86698151 -0.04758760
6.40831089 5.45494795 -0.16582891 0.95593542 0.84103179 -0.06640074
6.61293888 5.50322580 0.72762644 0.98646003 0.84847516 0.29135412
6.45926332 5.53181887 1.01168394 0.96353608 0.85288358 0.40509561
6.63631296 6.00439978 0.18965882 0.98994678 0.92574507 0.07594264
6.39876938 5.62634325 2.16968608 0.95451212 0.86745715 0.86877954
6.42937613 5.53144741 0.41555023 0.95907778 0.85282630 0.16639344
6.67894173 6.08003330 -0.41987413 0.99630576 0.93740606 -0.16812481
6.38155317 5.66897821 1.26965487 0.95194399 0.87403053 0.50839156
6.01267004 5.63405418 -0.11893684 0.89691722 0.86864603 -0.04762435
6.47184038 5.56221056 -0.16622128 0.96541220 0.85756934 -0.06655785
6.52154970 5.47912884 0.71901160 0.97282743 0.84475994 0.28790459
6.43162775 5.56089592 1.01141572 0.95941365 0.85736662 0.40498820
6.63899899 6.06384182 0.19119520 0.99034745 0.93490970 0.07655784
6.38524485 5.66797161 2.17419434 0.95249468 0.87387532 0.87058473
6.50019789 5.48032045 0.13218625 0.96964234 0.84494370 0.05292964
6.42729616 5.58268070 0.41763487 0.95876747 0.86072534 0.16722816
6.15611362 5.65941525 -0.39896789 0.91831487 0.87255609 -0.15975359
6.69092226 6.32578564 -0.11671545 0.99809295 0.97529560 -0.04673487
6.48396969 5.51741028 0.71861088 0.96722156 0.85066211 0.28774413
6.41144037 5.61428928 1.01409769 0.95640230 0.86559868 0.40606210
6.12732744 5.66950607 0.16763727 0.91402078 0.87411189 0.06712484
6.38991117 5.74412823 2.18822026 0.95319074 0.88561696 0.87620091
6.38219738 5.44945908 0.12869345 0.95204008 0.84018552 0.05153106
6.40704584 5.63617182 0.41893774 0.95574671 0.86897248 0.16774985
6.68060780 6.21695566 -0.42280722 0.99655432 0.95851648 -0.16929926
6.66552114 6.38149977 -0.11666955 0.99430382 0.98388553 -0.04671649
6.58718109 5.50538540 1.64253497 0.98261774 0.84880811 0.65769917
6.44165373 5.55152750 0.71760917 0.96090925 0.85592222 0.28734303
6.39675379 5.67292213 1.01785231 0.95421147 0.87463856 0.40756553
6.63975048 6.21902943 0.19507276 0.99045956 0.95883620 0.07811048
6.58362436 5.47171164 0.37192515 0.98208719 0.84361637 0.14892520
6.68514967 6.29984093 -0.42467943 0.99723184 0.97129554 -0.17004892
6.24228477 5.57236004 -0.16566932 0.93116915 0.85913414 -0.06633684
6.35808468 5.38133383 1.59269643 0.94844311 0.82968211 0.63774300
6.56550789 5.46453762 -0.20586051 0.97938472 0.84251034 -0.08243008
6.42160606 5.60501289 0.71961266 0.95791870 0.86416847 0.28814524
6.41818380 5.37795639 0.93479657 0.95740819 0.82916141 0.37430859
6.65285921 6.31002426 0.19770657 0.99241501 0.97286558 0.07916510
6.49555063 5.46809673 0.36776212 0.96894908 0.84305906 0.14725827
6.67731857 6.37201166 -0.42605236 0.99606365 0.98242265 -0.17059867
6.18938541 5.59533358 -0.16558951 0.92327809 0.86267614 -0.06630488
6.43271112 5.51469994 1.62068272 0.95957524 0.85024422 0.64894915
6.48507881 5.46712017 -0.20538282 0.96738702 0.84290850 -0.08223881
6.41304255 5.66903687 0.72321886 0.95664126 0.87403953 0.28958923
6.45701599 5.47961330 0.94700712 0.96320087 0.84483463 0.37919790
6.66075039 6.39728308 0.20012088 0.99359214 0.98631895 0.08013184
6.44432020 5.49459314 0.36645374 0.96130699 0.84714419 0.14673436
6.67316437 6.44848967 -0.42761254 0.99544394 0.99421388 -0.17122340
6.42012072 5.57436562 1.62643325 0.95769715 0.85944337 0.65125179
6.47650909 5.52977371 -0.20565352 0.96610868 0.85256827 -0.08234720
6.54232025 5.46047640 0.65384614 0.97592580 0.84188414 0.26181120
6.43451929 5.53039122 0.94904220 0.95984501 0.85266346 0.38001278
6.54991341 5.49686909 0.07579269 0.97705847 0.84749508 0.03034869
6.42329693 5.54668570 0.36752424 0.95817095 0.85517573 0.14716300
6.39820004 5.60844994 1.62758338 0.95442718 0.86469841 0.65171230
6.48377323 5.58887959 -0.20600383 0.96719223 0.86168110 -0.08248746
6.48752403 5.46693325 0.65032834 0.96775174 0.84287965 0.26040262
6.41439247 5.56583786 0.95005977 0.95684266 0.85812855 0.38042024
6.19162130 5.61459255 0.12761386 0.92361158 0.86564547 0.05109878
6.50671482 5.51049614 2.08740306 0.97061449 0.84959608 0.83583200
6.45209742 5.46709728 0.07344440 0.96246713 0.84290498 0.02940840
6.40613556 5.58474302 0.36823788 0.95561093 0.86104333 0.14744876
6.16900063 5.77405882 -0.16594197 0.92023724 0.89023161 -0.06644601
6.38041306 5.66421986 1.63218391 0.95177388 0.87329686 0.65355444
6.44242191 5.49856281 0.64903229 0.96102381 0.84775627 0.25988367
6.39124107 5.61647797 0.95209485 0.95338911 0.86593616 0.38123512
6.11949539 5.61949301 0.12602623 0.91285247 0.86640102 0.05046306
6.46461248 5.54493475 2.08498812 0.96433401 0.85490578 0.83486503
6.46019030 5.54388475 0.07484338 0.96367437 0.85474390 0.02996857
6.39941549 5.64992142 0.37049782 0.95460850 0.87109238 0.14835368
6.68003511 6.33409214 -0.16845572 0.99646890 0.97657633 -0.06745256
6.42586279 5.55451727 0.65125406 0.95855367 0.85638320 0.26077330
6.38998127 5.68677568 0.95794576 0.95320117 0.87677449 0.38357791
6.06800079 5.64281797 0.12532766 0.90517098 0.86999720 0.05018334
6.42233467 5.57906199 2.08257318 0.95802736 0.86016744 0.83389801
6.45244932 5.60790920 0.07574272 0.96251965 0.86461502 0.03032869
6.65018225 6.38565779 -0.16850227 0.99201566 0.98452657 -0.06747120
6.21452951 5.56506729 -0.20426819 0.92702883 0.85800976 -0.08179249
6.38182688 5.58693361 0.65014321 0.95198482 0.86138105 0.26032850
6.31554794 5.94876719 0.13771121 0.94209790 0.91716778 0.05514193
6.38424540 5.61673307 2.08160710 0.95234555 0.86597550 0.83351117
6.01760435 5.45795584 -0.20253256 0.89765328 0.84149557 -0.08109751
6.40334129 5.67698765 0.65717882 0.95519412 0.87526542 0.26314569
6.61143589 6.30783129 0.15238094 0.98623586 0.97252744 0.06101594
6.36328840 5.66968107 2.08643699 0.94921941 0.87413889 0.83544517
6.22891569 5.55320787 0.07064644 0.92917484 0.85618132 0.02828805
6.01567078 5.52533960 -0.20288287 0.89736485 0.85188460 -0.08123778
6.41370106 5.38366461 1.52429771 0.95673949 0.83004147 0.61035496
6.67352343 6.44809055 0.15688983 0.99549752 0.99415231 0.06282138
6.36923599 5.74735546 2.10044384 0.95010662 0.88611454 0.84105372
6.19687557 5.59490824 0.07074637 0.92439538 0.86261058 0.02832806
6.01752996 5.59698915 -0.20328096 0.89764220 0.86293137 -0.08139718
6.48032284 5.50894213 1.54881489 0.96667755 0.84935653 0.62017202
6.51656866 5.56571817 2.47658420 0.97208440 0.85811013 0.99166679
6.66623783 6.25607300 -0.21063748 0.99441069 0.96454751 -0.08434286
6.44532013 5.53175688 1.54661942 0.96145618 0.85287404 0.61929291
6.44074726 5.55386877 2.45746017 0.96077400 0.85628319 0.98400921
6.59483767 6.26759577 -0.21028717 0.98375988 0.96632403 -0.08420259
6.40597486 5.56828547 1.54552162 0.95558697 0.85850590 0.61885339
6.00266075 5.61126757 0.06744878 0.89542413 0.86513281 0.02700765
6.61602068 5.54817057 2.02035666 0.98691976 0.85540468 0.80898547
6.39703274 5.58667326 2.45408535 0.95425308 0.86134094 0.98265785
6.69395971 6.44173384 -0.21181580 0.99854600 0.99317229 -0.08481468
6.39452553 5.62915611 1.55137646 0.95387906 0.86789083 0.62119776
6.70370674 6.34254980 0.09273032 1.00000000 0.97788030 0.03713081
6.51713562 5.53562021 2.00044632 0.97216898 0.85346967 0.80101299
6.37909269 5.64197350 2.46083498 0.95157695 0.86986697 0.98536056
6.38550425 5.69271183 1.55796313 0.95253336 0.87768972 0.62383515
6.65214968 6.37350512 0.09233061 0.99230915 0.98265290 0.03697076
6.46448994 5.56127453 1.99488997 0.96431571 0.85742497 0.79878819
6.35784435 5.69471407 2.46645975 0.94840729 0.87799841 0.98761278
6.68531227 6.48601866 0.09487876 0.99725610 1.00000000 0.03799108
6.41913033 5.59285975 1.99164879 0.95754939 0.86229473 0.79749036
6.40029335 5.80528402 2.49739552 0.95473945 0.89504582 1.00000000
6.39855909 5.62817335 1.99350095 0.95448077 0.86773932 0.79823196
6.37762928 5.68117237 1.99813128 0.95135862 0.87591058 0.80008602
6.39682293 5.77052546 2.01572633 0.95422179 0.88968682 0.80713141
