-14.71675301 5.09789848 1.22520375 -0.98260242 0.87615800 0.61392707
-14.76699162 5.07877922 0.14866145 -0.98595673 0.87287199 0.07449152
-14.79945660 5.02255201 1.22991347 -0.98812431 0.86320841 0.61628699
-14.34456253 5.03688908 -0.36347559 -0.95775211 0.86567253 -0.18213093
-14.83652782 4.99861526 0.14939527 -0.99059945 0.85909450 0.07485922
-14.80691051 5.18119001 1.77571666 -0.98862201 0.89047301 0.88977891
-14.80298042 5.15031576 0.69710839 -0.98835957 0.88516676 0.34930819
-14.87611771 4.94448900 1.23409986 -0.99324280 0.84979200 0.61838472
-14.36457539 4.94277143 -0.36329752 -0.95908833 0.84949684 -0.18204170
-14.81824780 4.88907099 0.14844131 -0.98937893 0.84026754 0.07438121
-14.81850624 5.08099747 1.77305138 -0.98939621 0.87325329 0.88844341
-14.77642155 5.03730392 0.69380939 -0.98658633 0.86574382 0.34765512
-14.55080986 4.90459108 -0.36573100 -0.97152275 0.84293491 -0.18326107
-14.83884144 4.98401260 1.77159762 -0.99075395 0.85658479 0.88771498
-14.81725597 4.94751263 0.69434148 -0.98931271 0.85031170 0.34792173
-14.85871410 4.90421915 -0.37006381 -0.99208081 0.84287101 -0.18543217
-14.97719193 4.95189857 1.78637779 -0.99999130 0.85106546 0.89512104
-14.92012691 4.90372038 0.69881105 -0.99618119 0.84278524 0.35016134
-14.72037697 5.10603952 1.14623117 -0.98284435 0.87755716 0.57435536
-14.74515152 5.06797934 0.06058266 -0.98449850 0.87101591 0.03035686
-14.80498695 5.03147554 1.15083241 -0.98849356 0.86474210 0.57666093
-14.93204880 5.02776289 0.06266975 -0.99697715 0.86410403 0.03140265
-14.82285690 5.15453291 1.68801975 -0.98968667 0.88589156 0.84583563
-14.81962585 5.17270803 0.61024362 -0.98947096 0.88901526 0.30578184
-14.87600708 4.95162582 1.15428340 -0.99323541 0.85101861 0.57839018
-14.34010792 4.95289660 -0.45280665 -0.95745468 0.85123700 -0.22689308
-14.83235168 4.89046383 0.06091354 -0.99032062 0.84050691 0.03052265
-14.82299805 5.05036354 1.68408847 -0.98969615 0.86798829 0.84386575
-14.79326248 5.05937529 0.60729146 -0.98771077 0.86953712 0.30430257
-14.36337185 4.86012411 -0.45264062 -0.95900798 0.83529252 -0.22680989
-14.89776039 4.97164917 1.68940723 -0.99468780 0.85445994 0.84653085
-14.81150532 4.96186781 0.60662484 -0.98892879 0.85277885 0.30396855
-14.55678654 4.82409286 -0.45621029 -0.97192180 0.82909995 -0.22859858
-14.91247654 4.91776848 0.61052930 -0.99567038 0.84519964 0.30592501
-14.83098888 5.14938307 1.06817603 -0.99022967 0.88500643 0.53524333
-14.63675499 5.04781961 0.00111445 -0.97726113 0.86755109 0.00055843
-14.73461819 5.01259184 1.05775583 -0.98379523 0.86149663 0.53002197
-14.73110962 5.81846952 -0.63236862 -0.98356098 1.00000000 -0.31686828
-14.61321163 4.93726301 0.00059389 -0.97568917 0.84855014 0.00029759
-14.84851646 5.22893667 1.63177729 -0.99139994 0.89867908 0.81765360
-14.85856438 4.95067978 1.06526446 -0.99207079 0.85085601 0.53378439
-14.43533707 5.00338697 -0.51607913 -0.96381295 0.85991460 -0.25859776
-14.63883686 5.67576790 -0.62806255 -0.97740012 0.97547436 -0.31471059
-14.79649639 5.10647106 1.62171865 -0.98792666 0.87763131 0.81261337
-14.74560738 5.04941607 0.53257173 -0.98452896 0.86782545 0.26686189
-14.74491596 5.00672483 -0.52335465 -0.98448277 0.86048830 -0.26224339
-14.77505016 5.62219858 -0.63143253 -0.98649478 0.96626759 -0.31639922
-14.84712505 5.01974297 1.62395382 -0.99130702 0.86272568 0.81373340
-14.79788971 4.96363020 0.53351730 -0.98801970 0.85308176 0.26733571
-14.79696178 4.92089510 -0.52389902 -0.98795772 0.84573704 -0.26251617
-14.77639008 5.51662493 -0.63030916 -0.98658425 0.94812304 -0.31583631
-14.93688583 4.94564724 1.63088310 -0.99730015 0.84999108 0.81720549
-14.89525700 4.89229202 0.53652608 -0.99452066 0.84082109 0.26884335
-14.82838726 5.24325037 0.97272271 -0.99005592 0.90113908 0.48741344
-14.81263638 5.42436361 -0.63037157 -0.98900431 0.93226641 -0.31586760
-14.72487450 5.12852764 0.96314061 -0.98314464 0.88142210 0.48261204
-14.76624393 5.03914165 0.96384519 -0.98590678 0.86605966 0.48296508
-14.79606724 4.99919844 -0.10200555 -0.98789799 0.85919476 -0.05111310
-14.82308769 5.23063040 1.52154434 -0.98970211 0.89897013 0.76241785
-14.81085300 4.95070839 0.96483159 -0.98888522 0.85086095 0.48345935
-14.37176609 4.98226452 -0.61277294 -0.95956844 0.85628438 -0.30704924
-14.80820656 4.89982605 -0.10205144 -0.98870856 0.84211594 -0.05113610
-14.84814358 5.13478184 1.52070403 -0.99137503 0.88249701 0.76199681
-14.76605606 5.06632566 0.43350536 -0.98589426 0.87073165 0.21722156
-14.96106720 4.89680290 0.97370911 -0.99891466 0.84159636 0.48790771
-14.43684196 4.90348387 -0.61389625 -0.96391338 0.84274459 -0.30761212
-14.81421089 5.01896429 1.51335192 -0.98910940 0.86259180 0.75831282
-14.77108574 4.96449947 0.43248111 -0.98623008 0.85323113 0.21670833
-14.52614212 4.83231783 -0.61583084 -0.96987575 0.83051354 -0.30858150
-14.89804745 4.96931553 1.52007389 -0.99470699 0.85405886 0.76168108
-14.84552670 4.91185522 0.43445647 -0.99120033 0.84418339 0.21769814
-14.91524982 4.88435602 -0.62787533 -0.99585557 0.83945715 -0.31461677
-14.79895210 5.20861959 1.98388255 -0.98809063 0.89518720 0.99408704
-14.72138596 5.14399815 0.87989980 -0.98291171 0.88408095 0.44090161
-14.82201385 5.11231375 1.98254156 -0.98963040 0.87863547 0.99341512
-14.78552818 5.06234789 0.88211471 -0.98719436 0.87004805 0.44201145
-14.57059669 4.97209740 -0.18903789 -0.97284389 0.85453701 -0.09472341
-14.83881569 5.01402760 1.98039603 -0.99075222 0.86174339 0.99234003
-14.80947208 4.96682024 0.88159353 -0.98879302 0.85363001 0.44175029
-14.76474953 4.93475866 -0.18960981 -0.98580700 0.84811974 -0.09500999
-14.83316708 5.14278507 1.44205856 -0.99037510 0.88387245 0.72258902
-14.97732258 4.95604610 1.99568295 -1.00000000 0.85177833 1.00000000
-14.77500916 5.09415007 0.35858282 -0.98649204 0.87551373 0.17967926
-14.92764568 4.90220261 0.88758683 -0.99668318 0.84252441 0.44475344
-14.78601551 5.02270555 1.43364406 -0.98722690 0.86323482 0.71837264
-14.78777695 4.99484396 0.35794777 -0.98734450 0.85844636 0.17936105
-14.88881683 4.97937822 1.44205856 -0.99409068 0.85578829 0.72258902
-14.81115055 4.92510319 0.35794777 -0.98890507 0.84646028 0.17936105
-14.82363701 5.22445679 1.87653553 -0.98973876 0.89790910 0.94029742
-14.73073578 5.15319538 0.79167712 -0.98353601 0.88566166 0.39669484
-14.44725037 5.04218292 -0.25968099 -0.96460837 0.86658233 -0.13012137
-14.79244709 5.10911274 1.86788630 -0.98765630 0.87808532 0.93596345
-14.75904751 5.05923843 0.79143924 -0.98542631 0.86951363 0.39657563
-14.58267689 4.98704004 -0.26055676 -0.97365046 0.85710514 -0.13056019
-14.81486511 5.01287746 1.86661446 -0.98915309 0.86154568 0.93532616
-14.77730179 4.96193981 0.79060662 -0.98664510 0.85279125 0.39615843
-14.73314190 4.93549442 -0.26155993 -0.98369664 0.84824616 -0.13106287
-14.76866150 5.13216209 1.31519616 -0.98606819 0.88204676 0.65902060
-14.91571236 4.94287348 1.87602675 -0.99588645 0.84951437 0.94004250
-14.76893806 5.08747911 0.25246373 -0.98608667 0.87436724 0.12650493
-14.88212109 4.89341068 0.79524541 -0.99364364 0.84101337 0.39848283
-14.79684734 5.03797817 1.31482589 -0.98795009 0.86585969 0.65883505
-14.82712173 5.00356770 0.25316319 -0.98997146 0.85994565 0.12685542
-14.86786461 4.95818949 1.31871402 -0.99269176 0.85214669 0.66078335
-14.81652069 4.89645147 0.25206402 -0.98926365 0.84153599 0.12630464
