8.72211933 9.37433147 0.09707396 0.98597240 0.91278470 0.03864370
8.66702461 9.40354919 0.09678043 0.97974432 0.91562963 0.03852686
8.78898811 9.41454506 -0.32899123 0.99353141 0.91670030 -0.13096653
8.63732815 9.49040127 0.09758764 0.97638738 0.92408651 0.03884819
8.80706787 9.48759270 0.55174077 0.99557519 0.92381305 0.21963981
8.72154236 9.46074677 -0.32881317 0.98590720 0.92119902 -0.13089564
8.73515701 9.52947235 0.55078298 0.98744619 0.92789084 0.21925853
8.62026787 9.46944904 -0.32789320 0.97445881 0.92204636 -0.13052942
8.33500481 9.96408176 2.22971153 0.94221193 0.97020906 0.88761508
8.43657207 9.50682449 0.09534949 0.95369333 0.92568564 0.03795722
8.61624146 9.51892567 0.54610056 0.97400367 0.92686391 0.21739453
8.52189922 9.48023319 -0.32703257 0.96333897 0.92309642 -0.13018681
8.28350544 10.02994537 2.23280168 0.93639028 0.97662222 0.88884521
8.37798786 9.56115150 0.09538618 0.94707084 0.93097550 0.03797182
8.53234863 9.54603386 0.54418504 0.96452022 0.92950344 0.21663199
8.42638683 9.49315262 -0.32623130 0.95254201 0.92435437 -0.12986784
8.31644249 9.61208820 0.09534949 0.94011354 0.93593520 0.03795722
8.77597809 9.44657230 0.02624751 0.99206072 0.91981882 0.01044874
8.45555305 9.55019760 0.54163098 0.95583904 0.92990887 0.21561526
8.35651493 9.50417995 -0.32566744 0.94464344 0.92542815 -0.12964338
8.37495899 9.77280807 0.09828477 0.94672841 0.95158464 0.03912571
8.66353798 9.41435242 0.02497489 0.97935021 0.91668159 0.00994213
8.29303741 9.48569298 0.53333038 0.93746781 0.92362803 0.21231091
8.40500164 9.88943672 0.99791580 0.95012456 0.96294081 0.39725548
8.51778412 9.81205845 -0.33068281 0.96287376 0.95540643 -0.13163991
8.79974079 9.41326618 -0.40536338 0.99474692 0.91657579 -0.16136914
8.37269402 9.89555073 0.09997255 0.94647241 0.96353614 0.03979759
8.57996464 9.44199848 0.02451675 0.96990281 0.91937345 0.00975975
8.82791424 9.50141430 0.48025265 0.99793172 0.92515886 0.19118145
8.32096767 9.91607189 0.99495041 0.94062513 0.96553433 0.39607498
8.33515358 9.72398758 -0.32792288 0.94222873 0.94683093 -0.13054124
8.38073158 10.03247738 0.10199055 0.94738096 0.97686881 0.04060093
8.45892334 9.42735004 0.02334595 0.95621997 0.91794717 0.00929368
8.46671104 9.93466091 0.55748737 0.95710033 0.96734434 0.22192745
8.72610188 9.51112652 0.47730047 0.98642260 0.92610455 0.19000623
8.42547417 10.21623230 0.10510928 0.95243883 0.99476111 0.04184245
8.46196747 9.55056477 0.02454221 0.95656413 0.92994463 0.00976989
8.34624672 9.88288116 1.43989313 0.94348270 0.96230251 0.57320005
8.35535145 9.92951679 0.55344343 0.94451195 0.96684343 0.22031762
8.63661098 9.53324127 0.47520539 0.97630632 0.92825782 0.18917221
8.52560711 9.47208595 -0.40241632 0.96375811 0.92230314 -0.16019596
8.32079124 10.21928596 0.10393517 0.94060516 0.99505848 0.04137505
8.35034466 9.54492569 0.02354956 0.94394594 0.92939556 0.00937473
8.29413795 9.94734097 1.44183147 0.93759221 0.96857899 0.57397169
8.54185009 9.54866123 0.47272936 0.96559429 0.92975932 0.18818654
8.45927048 9.51800442 -0.40220878 0.95625925 0.92677420 -0.16011335
8.81596947 9.45966911 -0.02179016 0.99658149 0.92109406 -0.00867434
8.45428562 9.54102898 0.46968195 0.95569575 0.92901611 0.18697341
8.34284592 9.47683144 -0.39996737 0.94309831 0.92276520 -0.15922107
8.24863434 9.87530804 2.14086843 0.93244833 0.96156514 0.85224795
8.39468670 9.81066990 0.02647658 0.94895852 0.95527124 0.01053993
8.71576786 9.44077206 -0.02252613 0.98525441 0.91925406 -0.00896732
8.38003063 9.86225033 0.92865723 0.94730175 0.96029365 0.36968467
8.46055889 9.73250961 -0.40557089 0.95640486 0.94766074 -0.16145176
8.26938915 10.02722359 2.16286778 0.93479455 0.97635722 0.86100554
8.42339039 9.97001266 0.02825824 0.95220327 0.97078657 0.01124919
8.52312279 9.34882069 -0.02430321 0.96347725 0.91030067 -0.00967475
8.48288345 9.81861115 0.48053834 0.95892853 0.95604450 0.19129518
8.34356880 9.94520855 0.93194383 0.94318002 0.96837139 0.37099302
8.82239246 9.47800922 0.41909930 0.99730754 0.92287987 0.16683722
8.33269882 9.70819950 -0.40345401 0.94195122 0.94529366 -0.16060905
8.34902954 10.00893879 0.02802917 0.94379729 0.97457683 0.01115800
8.52298450 9.46768188 -0.02351339 0.96346164 0.92187428 -0.00936033
8.38985062 9.83528900 0.47825280 0.94841182 0.95766842 0.19038534
8.63847733 9.39771652 0.41119060 0.97651726 0.91506171 0.16368887
8.43118477 10.23695564 0.03093073 0.95308435 0.99677896 0.01231307
8.44874001 9.50458050 -0.02371085 0.95506883 0.92546713 -0.00943894
8.33471394 9.91919518 1.36936021 0.94217902 0.96583843 0.54512197
8.34851742 9.91222477 0.47977650 0.94373941 0.96515971 0.19099191
8.61813736 9.49477673 0.41368356 0.97421801 0.92451251 0.16468129
8.32751274 10.24168777 0.03014171 0.94136500 0.99723977 0.01199897
8.36778450 9.53339481 -0.02399805 0.94591743 0.92827278 -0.00955327
8.51437759 9.49956608 0.41084674 0.96248871 0.92497885 0.16355199
8.40603161 9.42721653 -0.45054996 0.95024097 0.91793418 -0.17935725
8.64520836 9.28659439 -0.10872941 0.97727817 0.90424168 -0.04328357
8.46422100 9.53359795 0.41050288 0.95681888 0.92829257 0.16341510
8.40418243 9.79045677 -0.02204147 0.95003194 0.95330310 -0.00877438
8.64617157 9.37567711 -0.10857796 0.97738707 0.91291571 -0.04322327
8.47646713 9.66934586 0.41523090 0.95820320 0.94151044 0.16529725
8.41792679 9.89007950 0.85977191 0.95158565 0.96300340 0.34226242
8.62351322 9.46968555 -0.10845403 0.97482568 0.92206937 -0.04317394
8.39668846 9.94037724 1.76092923 0.94918478 0.96790093 0.70099980
8.30720425 9.59684658 0.40809590 0.93906927 0.93445116 0.16245691
8.35177898 9.93818951 0.85931218 0.94410813 0.96768790 0.34207943
8.40076542 9.75614166 -0.45658815 0.94964564 0.94996178 -0.18176097
8.37656975 10.01047421 -0.02069519 0.94691050 0.97472632 -0.00823845
8.49552155 9.44794464 -0.10868811 0.96035713 0.91995245 -0.04326712
8.31888485 9.97467709 1.75746119 0.94038963 0.97124076 0.69961923
8.39705372 9.82529259 0.41806772 0.94922608 0.95669508 0.16642655
8.66586208 9.42700768 0.33078691 0.97961295 0.91791379 0.13168135
8.50217533 10.00092125 -0.46282429 0.96110934 0.97379613 -0.18424347
8.37579441 9.97386551 2.07392764 0.94682288 0.97116172 0.82559979
8.47242832 10.25588226 -0.01845140 0.95774662 0.99862188 -0.00734523
8.46658802 9.53548527 -0.10858255 0.95708644 0.92847633 -0.04322510
8.39310741 9.89835548 1.32085371 0.94878000 0.96380925 0.52581227
8.58492851 9.45762634 0.32961634 0.97046399 0.92089516 0.13121536
8.30667305 10.01868534 2.07233000 0.93900919 0.97552586 0.82496381
8.36492538 10.25615406 -0.01906171 0.94559419 0.99864835 -0.00758819
8.37216568 9.54944801 -0.10870188 0.94641268 0.92983592 -0.04327260
8.31674099 9.93411064 1.31839490 0.94014728 0.96729076 0.52483344
8.52838230 9.85101700 -0.10794459 0.96407181 0.95919985 -0.04297114
8.84621048 9.40499878 -0.18077843 1.00000000 0.91577077 -0.07196521
8.45782089 9.52607632 0.32837260 0.95609540 0.92756021 0.13072026
8.35274220 9.74099445 -0.10839896 0.94421697 0.94848692 -0.04315202
8.37668037 9.55501747 0.32720202 0.94692302 0.93037820 0.13025427
8.41149712 9.87382984 0.77797997 0.95085883 0.96142119 0.30970228
8.36517334 9.88017178 -0.10813735 0.94562227 0.96203870 -0.04304787
8.66390038 9.44604397 -0.18046586 0.97939116 0.91976738 -0.07184078
8.46063519 9.77345657 0.33524975 0.95641351 0.95164776 0.13345794
8.84587669 9.46328545 0.27361268 0.99996227 0.92144620 0.10892115
8.46231461 9.34293652 -0.17976095 0.95660335 0.90972775 -0.07156017
8.32190609 9.97017860 1.69156849 0.94073117 0.97080272 0.67338830
8.37824440 9.80214691 0.33407918 0.94709980 0.95444137 0.13299195
8.49261284 9.49594593 -0.18020651 0.96002835 0.92462635 -0.07173754
8.39297009 9.89638233 1.23186791 0.94876444 0.96361715 0.49038833
8.65098286 9.49084473 0.27005637 0.97793090 0.92412966 0.10750543
8.41732216 9.50138092 -0.18005356 0.95151728 0.92515558 -0.07167665
8.33983326 9.92821884 1.23081768 0.94275773 0.96671706 0.48997024
8.46574593 9.37549686 0.26338831 0.95699126 0.91289818 0.10485098
8.33511353 9.52845383 -0.17994051 0.94222420 0.92779171 -0.07163165
8.83690929 9.39223289 -0.24052535 0.99894857 0.91452777 -0.09574957
8.45107937 10.23948765 0.34805298 0.95533329 0.99702549 0.13855472
8.47174072 9.50171757 0.26650006 0.95766890 0.92518836 0.10608972
8.35926628 9.94071293 1.94960725 0.94495451 0.96793365 0.77610970
8.37947083 9.70188999 -0.18047252 0.94723845 0.94467926 -0.07184343
8.36254311 10.26298237 0.34666294 0.94532490 0.99931324 0.13800137
8.43165016 9.57729721 0.26745266 0.95313698 0.93254763 0.10646893
8.55275917 10.00889874 0.72133821 0.96682745 0.97457290 0.28715402
8.30929470 10.00823021 1.95262659 0.93930554 0.97450781 0.77731168
8.38311386 9.83053970 -0.18080503 0.94765025 0.95720601 -0.07197580
8.59223270 9.36568260 -0.23904450 0.97128963 0.91194254 -0.09516007
8.42063999 9.93449116 1.62316334 0.95189232 0.96732783 0.64615721
8.36476326 9.62253094 0.26713511 0.94557589 0.93695205 0.10634252
8.81328297 9.44389439 0.18491302 0.99627781 0.91955811 0.07361113
8.37537289 9.92650509 0.70974255 0.94677520 0.96655017 0.28253797
8.48210335 9.36324310 -0.23843941 0.95884031 0.91170502 -0.09491919
8.33266163 9.95676517 1.61779940 0.94194704 0.96949667 0.64402193
8.42499447 9.81616020 0.27304113 0.95238459 0.95580584 0.10869362
8.61397743 9.34786510 0.17976679 0.97374773 0.91020763 0.07156249
8.46584988 9.46398258 -0.23894896 0.95700300 0.92151409 -0.09512203
8.40429115 9.88288116 1.16758525 0.95004421 0.96230251 0.46479836
8.36186218 9.86737442 0.27297762 0.94524795 0.96079260 0.10866833
8.58877277 9.43871975 0.18101588 0.97089851 0.91905421 0.07205974
8.39856911 9.47836208 -0.23867826 0.94939739 0.92291421 -0.09501427
8.34866905 9.91170788 1.16618276 0.94375652 0.96510941 0.46424004
8.53078842 9.46425819 0.18051624 0.96434385 0.92154092 0.07186083
8.37447166 9.57152653 -0.23910819 0.94667333 0.93198574 -0.09518542
8.51002598 10.27003574 0.28580570 0.96199679 1.00000000 0.11377501
8.44718456 9.49082661 0.17961690 0.95489299 0.92412788 0.07150282
8.37703991 9.69649792 -0.23987250 0.94696367 0.94415426 -0.09548968
8.39858532 10.26598454 0.28345600 0.94939923 0.99960554 0.11283962
8.38209629 9.53771591 0.17941704 0.94753528 0.92869353 0.07142326
8.54568863 10.00314808 0.64573330 0.96602815 0.97401297 0.25705683
8.33277035 9.96729374 2.50320768 0.94195932 0.97052181 0.99648982
8.37576485 9.81883812 -0.24060497 0.94681954 0.95606661 -0.09578127
8.40952778 9.92351055 1.52904356 0.95063621 0.96625865 0.60868955
8.40471172 9.68519688 0.18256474 0.95009178 0.94305384 0.07267631
8.36015892 9.91185665 0.63443369 0.94505537 0.96512389 0.25255862
8.29866505 10.05431652 2.51202536 0.93810397 0.97899526 1.00000000
8.33298206 9.95943928 1.52624524 0.94198322 0.96975702 0.60757560
8.38018513 9.78026676 0.18396372 0.94731921 0.95231086 0.07323322
8.39387226 9.86726761 1.06598651 0.94886643 0.96078223 0.42435339
8.38325691 9.90894604 0.18646190 0.94766647 0.96484047 0.07422771
8.35113716 9.91127491 1.06654191 0.94403553 0.96506721 0.42457449
8.44582653 10.07842922 0.19070880 0.95473951 0.98134315 0.07591834
8.37339783 10.12052727 0.19035906 0.94655198 0.98544228 0.07577912
8.32358265 10.18994999 0.19090866 0.94092071 0.99220198 0.07599790
8.36201572 9.97976494 2.38898873 0.94526529 0.97173613 0.95102096
