8.79295540 -11.87944031 2.54147053 0.91001081 -0.95304728 0.89482325
8.75682831 -12.41433144 0.14088297 0.90627187 -0.99595982 0.04960331
8.45834732 -11.87342644 0.12961884 0.87538117 -0.95256484 0.04563734
8.73800373 -12.10349560 0.13603976 0.90432370 -0.97102249 0.04789807
8.76518250 -12.39621735 0.67092943 0.90713650 -0.99450660 0.23622672
8.81142998 -12.29710960 0.66805613 0.91192281 -0.98655552 0.23521507
8.80906487 -11.93953514 1.16066301 0.91167802 -0.95786852 0.40865642
8.76176071 -11.82102013 0.13211383 0.90678239 -0.94836044 0.04651580
8.87088680 -12.21728516 0.66645986 0.91807616 -0.98015147 0.23465304
8.75766563 -11.66190910 0.12972891 0.90635854 -0.93559551 0.04567609
8.78323746 -11.98319149 1.67443657 0.90900505 -0.96137089 0.58955032
8.85261631 -12.03274059 0.65794641 0.91618532 -0.96534604 0.23165554
8.86109161 -11.64639664 0.13064620 0.91706246 -0.93435103 0.04599906
8.86800957 -11.97992611 1.68025172 0.91777837 -0.96110892 0.59159780
8.96172523 -12.06135559 0.66262883 0.92747730 -0.96764177 0.23330417
9.18438625 -11.95298862 0.13871820 0.95052123 -0.95894784 0.04884112
8.54269123 -11.98244572 0.04943455 0.88411015 -0.96131110 0.01740535
8.81813145 -11.90536785 2.47019291 0.91261637 -0.95512736 0.86972719
9.26299858 -11.89977455 0.13882828 0.95865709 -0.95467865 0.04887988
8.74171257 -12.10053730 0.05213249 0.90470749 -0.97078514 0.01835527
8.77741528 -12.43768597 0.58767378 0.90840250 -0.99783349 0.20691334
9.30037403 -11.79428291 0.13772754 0.96252519 -0.94621539 0.04849232
8.84704590 -12.08575535 0.05276880 0.91560882 -0.96959925 0.01857930
9.20092678 -11.90766335 0.66379941 0.95223308 -0.95531154 0.23371632
8.92830753 -12.10891056 1.10202622 0.92401880 -0.97145694 0.38801107
9.39429760 -11.76058578 0.13831460 0.97224563 -0.94351202 0.04869902
8.92994308 -12.03957653 0.05292152 0.92418808 -0.96589452 0.01863307
9.22747040 -11.78834915 0.65964907 0.95498013 -0.94573939 0.23225503
9.64817524 -11.92338181 0.14356141 0.99852020 -0.95657259 0.05054636
9.06777573 -12.06644821 0.05424504 0.93845284 -0.96805030 0.01909907
8.83862019 -12.00630760 1.59667683 0.91473681 -0.96322542 0.56217200
9.42441273 -11.88489723 0.67018449 0.97536230 -0.95348507 0.23596443
8.82734394 -12.02020836 0.57291287 0.91356981 -0.96434063 0.20171618
8.97410965 -11.78624725 0.05068171 0.92875904 -0.94557077 0.01784446
8.77688599 -12.46469116 -0.00102164 0.90834773 -1.00000000 -0.00035971
9.41654587 -11.76092911 0.66475719 0.97454816 -0.94353956 0.23405355
8.96110058 -12.08288097 0.57910293 0.92741269 -0.96936864 0.20389564
9.23275566 -12.00886631 0.05493225 0.95552713 -0.96343070 0.01934103
8.84876728 -11.77534008 0.56415159 0.91578692 -0.94469571 0.19863144
8.71074104 -12.08701897 -0.00412704 0.90150219 -0.96970063 -0.00145309
8.86459732 -11.64313316 0.55958045 0.91742527 -0.93408918 0.19702199
8.75885773 -12.42333508 0.51598066 0.90648192 -0.99668217 0.18167099
8.85032272 -12.11917877 -0.00315773 0.91594791 -0.97228068 -0.00111180
8.82935715 -12.04895878 2.04213262 0.91377813 -0.96664721 0.71901196
9.21404648 -11.94666958 0.58119804 0.95359087 -0.95844090 0.20463331
8.80764771 -12.32744980 0.51383156 0.91153133 -0.98898959 0.18091433
8.92036629 -12.10834789 1.01745415 0.92319697 -0.97141176 0.35823420
9.54721069 -11.94530678 0.05676482 0.98807108 -0.95833153 0.01998625
8.93582821 -12.07617950 -0.00301412 0.92479718 -0.96883100 -0.00106124
8.89779663 -11.98372078 2.04039860 0.92086112 -0.96141338 0.71840143
9.30857277 -11.91375351 0.58272171 0.96337366 -0.95580012 0.20516977
9.55800533 -11.80572987 0.05546675 0.98918825 -0.94713378 0.01952922
8.76058483 -11.88349438 2.35543251 0.90666068 -0.95337254 0.82932132
9.40057278 -11.87698460 0.58405495 0.97289503 -0.95285028 0.20563918
8.91083336 -11.92934418 2.37588239 0.92221034 -0.95705092 0.83652151
8.88813496 -12.05715752 1.54594350 0.91986126 -0.96730494 0.54430938
9.41659451 -11.78256226 0.58100754 0.97455317 -0.94527513 0.20456623
8.81554890 -11.89916420 0.49913174 0.91234905 -0.95462966 0.17573868
8.74680996 -12.37670898 0.93228048 0.90523505 -0.99294150 0.32824549
8.86730194 -12.38157749 0.93749428 0.91770518 -0.99333209 0.33008122
8.85047531 -11.63810062 0.49105114 0.91596371 -0.93368542 0.17289360
8.98234940 -12.37733746 0.94200355 0.92961180 -0.99299192 0.33166888
8.86015320 -12.13062763 -0.10337327 0.91696531 -0.97319919 -0.03639657
9.20807934 -11.95067215 0.51108074 0.95297331 -0.95876199 0.17994580
8.80162048 -12.33265400 0.41667828 0.91090757 -0.98940712 0.14670774
8.85348415 -12.03911114 0.91734362 0.91627508 -0.96585715 0.32298639
8.92907047 -12.06506348 -0.10340081 0.92409778 -0.96793920 -0.03640626
8.93276882 -12.05130768 1.97549736 0.92448056 -0.96683562 0.69555044
8.85555267 -12.24468708 0.41521505 0.91648918 -0.98234981 0.14619255
9.42084026 -11.91386986 0.51546490 0.97499257 -0.95580947 0.18148941
8.70354176 -11.87574577 0.40102175 0.90075707 -0.95275092 0.14119525
8.78186512 -11.92532063 1.42554569 0.90886301 -0.95672810 0.50191861
9.42192936 -11.80071068 0.51168245 0.97510529 -0.94673109 0.18015765
8.77365017 -11.85389709 0.40189970 0.90801287 -0.95099807 0.14150438
9.59028435 -11.85767365 0.51812977 0.99252892 -0.95130104 0.18242767
8.73305321 -11.64487553 0.39487621 0.90381134 -0.93422896 0.13903148
8.85731125 -12.39568520 0.85644782 0.91667122 -0.99446386 0.30154565
8.80554771 -11.97073650 2.23553753 0.91131401 -0.96037167 0.78710765
8.84346199 -11.63916016 0.39714420 0.91523790 -0.93377042 0.13983001
9.35974693 -11.96302319 0.93467605 0.96866983 -0.95975286 0.32908896
8.90804958 -12.30264568 0.85345113 0.92192227 -0.98699963 0.30049056
8.88530540 -11.92152023 2.23674512 0.91956842 -0.95642322 0.78753287
9.05879879 -11.76886654 0.40570408 0.93752378 -0.94417632 0.14284386
8.84915733 -12.06156731 0.83846796 0.91582733 -0.96765876 0.29521516
8.85106182 -12.03784657 -0.18752831 0.91602445 -0.96575570 -0.06602661
8.81008148 -11.90803432 1.86534131 0.91178322 -0.95534128 0.65676576
9.23562241 -11.84425163 0.41184962 0.95582384 -0.95022422 0.14500763
9.55048370 -11.89585590 0.93932617 0.98840982 -0.95436430 0.33072621
8.67536354 -12.03631401 0.33343470 0.89784086 -0.96563274 0.11739861
8.96174431 -12.05533028 0.84250689 0.92747933 -0.96715838 0.29663721
9.40137863 -11.90217304 0.41726357 0.97297847 -0.95487106 0.14691381
8.87602711 -12.15251064 0.34016627 0.91860813 -0.97495478 0.11976872
8.91690254 -12.13224888 1.37734699 0.92283851 -0.97332931 0.48494843
8.84522438 -11.99162388 0.33546689 0.91542029 -0.96204740 0.11811413
9.64704227 -11.94126797 0.42399439 0.99840295 -0.95800751 0.14928366
9.21018791 -11.95238400 0.84693670 0.95319152 -0.95889932 0.29819691
8.79443645 -12.31516933 0.76348746 0.91016406 -0.98800439 0.26881537
9.33554173 -11.95871162 0.85227853 0.96616477 -0.95940697 0.30007771
8.86579895 -12.25157452 0.76289272 0.91754961 -0.98290235 0.26860598
8.75907421 -11.82662487 2.84019279 0.90650433 -0.94881010 1.00000000
9.00507545 -11.73880291 0.33210111 0.93196380 -0.94176441 0.11692907
8.53163719 -11.98424244 0.22973031 0.88296616 -0.96145523 0.08088546
9.42289639 -11.91545582 0.85358143 0.97520536 -0.95593673 0.30053645
8.77762794 -11.97000408 0.74624062 0.90842450 -0.96031290 0.26274294
8.83239174 -12.02708912 -0.25665557 0.91409218 -0.96489269 -0.09036554
8.80209827 -11.90402985 1.75951767 0.91095704 -0.95502001 0.61950642
9.28509521 -11.94687653 0.34276998 0.96094394 -0.95845747 0.12068547
8.60326576 -11.92553043 0.22958042 0.89037919 -0.95674497 0.08083269
9.53007317 -11.89647007 0.85696894 0.98629743 -0.95441353 0.30172914
8.93110466 -12.02049160 0.75409091 0.92430830 -0.96436340 0.26550695
9.38722706 -11.92281818 0.34416711 0.97151387 -0.95652735 0.12117738
8.84761238 -12.10390377 0.23677516 0.91566741 -0.97105527 0.08336587
9.62226677 -11.85802841 0.85879302 0.99583888 -0.95132953 0.30237138
8.80537033 -11.99527931 1.24502492 0.91129565 -0.96234065 0.43835929
9.43832302 -11.87219715 0.34391308 0.97680193 -0.95246619 0.12108793
9.54412842 -11.85154152 0.34550074 0.98775208 -0.95080906 0.12164693
8.74108791 -11.68535423 0.22678246 0.90464288 -0.93747646 0.07984756
8.83603382 -11.65891457 0.22768180 0.91446912 -0.93535525 0.08016421
9.20201778 -11.79413414 0.75313938 0.95234597 -0.94620347 0.26517192
9.01485634 -11.74128151 0.23202863 0.93297601 -0.94196332 0.08169468
9.46749496 -11.97912121 0.77157563 0.97982103 -0.96104437 0.27166313
9.21833992 -11.85187340 0.23732476 0.95403516 -0.95083570 0.08355939
9.48903465 -12.04368782 0.24526897 0.98205024 -0.96622431 0.08635645
9.66247368 -11.91508961 0.77585763 1.00000000 -0.95590734 0.27317077
8.84889889 -11.94580173 2.73259664 0.91580057 -0.95837128 0.96211660
9.66096592 -11.98849487 0.24686781 0.99984396 -0.96179640 0.08691938
