-8.69343281 4.42616272 1.66593599 -0.99057662 0.95629752 0.78261441
-8.71754551 4.36969519 1.66524923 -0.99332416 0.94409734 0.78229177
-8.28446388 4.41151476 -0.27714601 -0.94397652 0.95313269 -0.13019615
-8.28010464 4.34272575 -0.27661183 -0.94347978 0.93827045 -0.12994522
-8.68907356 4.42502165 2.12349486 -0.99007994 0.95605093 0.99756396
-8.65341473 4.35441160 0.70975024 -0.98601675 0.94079524 0.33342263
-8.27343082 4.27325201 -0.27604797 -0.94271934 0.92326027 -0.12968032
-8.73763084 4.38088608 2.12868047 -0.99561280 0.94651520 1.00000000
-8.63234901 4.27617788 0.70504051 -0.98361641 0.92389244 0.33121011
-8.42681503 4.28527164 -0.27815503 -0.96019679 0.92585719 -0.13067016
-8.61979389 4.24635553 0.03844181 -0.98218584 0.91744912 0.01805898
-8.65078163 4.38720989 1.04494905 -0.98571670 0.94788152 0.49089050
-8.50548649 4.25809097 -0.27901566 -0.96916103 0.91998464 -0.13107447
-8.67692471 4.20687819 0.03906555 -0.98869562 0.90891981 0.01835200
-8.64617157 4.31687403 1.04058778 -0.98519140 0.93268508 0.48884171
-8.64841461 4.29881859 0.37657595 -0.98544699 0.92878407 0.17690581
-8.54105186 4.20896626 -0.27916402 -0.97321355 0.90937096 -0.13114417
-8.67982101 4.38297367 1.60954928 -0.98902565 0.94696623 0.75612533
-8.68293190 4.26503038 0.37742731 -0.98938012 0.92148393 0.17730576
-8.64718151 4.21051073 -0.28058851 -0.98530650 0.90970469 -0.13181335
-8.29616356 4.41246319 -0.33293244 -0.94530964 0.95333761 -0.15640320
-8.71448040 4.34909678 1.61221588 -0.99297494 0.93964696 0.75737804
-8.38033962 4.39006376 -0.33426070 -0.95490110 0.94849813 -0.15702718
-8.45035934 4.35941505 -0.33525687 -0.96287954 0.94187629 -0.15749516
-8.60552692 4.28711224 -0.01549426 -0.98056018 0.92625487 -0.00727881
-8.67452812 4.28428221 0.65931904 -0.98842251 0.92564338 0.30973133
-8.59689808 4.36716223 -0.33803788 -0.97957695 0.94355011 -0.15880160
-8.59462547 4.21438789 -0.01602876 -0.97931796 0.91054237 -0.00752990
-8.60448456 4.32534170 0.98225129 -0.98044139 0.93451452 0.46143669
-8.64560604 4.32383871 -0.33853599 -0.98512697 0.93418980 -0.15903561
-8.70010185 4.19871521 -0.01490886 -0.99133652 0.90715617 -0.00700380
-8.48018646 4.50595951 -0.05165950 -0.96627820 0.97353804 -0.02426832
-8.67808914 4.31137466 0.98918873 -0.98882830 0.93149686 0.46469572
-8.63665009 4.30320168 0.32197794 -0.98410648 0.92973107 0.15125705
-8.60321045 4.25190830 -0.33708322 -0.98029619 0.91864884 -0.15835313
-8.51721382 4.62843704 -0.37784427 -0.97049731 1.00000000 -0.17750163
-8.68351936 4.42586565 2.05024910 -0.98944706 0.95623332 0.96315491
-8.68860245 4.26121950 0.32331118 -0.99002624 0.92066056 0.15188338
-8.64053440 4.20304012 -0.33733225 -0.98454911 0.90809059 -0.15847012
-8.70065784 4.36597776 2.04773927 -0.99139988 0.94329417 0.96197587
-8.42066383 4.44023895 -0.37353835 -0.95949584 0.95933872 -0.17547883
-8.66403389 4.39520073 1.27944446 -0.98722678 0.94960797 0.60105050
-8.44484329 4.38540792 -0.37343937 -0.96225101 0.94749218 -0.17543232
-8.62873173 4.32723618 -0.05121074 -0.98320425 0.93492383 -0.02405751
-8.67375565 4.33187199 1.27655435 -0.98833454 0.93592542 0.59969282
-8.54515553 4.24095011 0.59482288 -0.97368109 0.91628128 0.27943268
-8.58450222 4.38936853 -0.37655744 -0.97816449 0.94834793 -0.17689712
-8.50743008 4.28540373 1.50772250 -0.96938246 0.92588574 0.70828974
-8.61446095 4.25266075 -0.05162360 -0.98157817 0.91881138 -0.02425146
-8.32953644 4.47564411 -0.11614633 -0.94911230 0.96698821 -0.05456259
-8.59582233 4.32728720 -0.37611198 -0.97945440 0.93493485 -0.17668785
-8.68823528 4.30784416 1.53552151 -0.98998439 0.93073410 0.72134900
-8.64641285 4.20106173 -0.05156975 -0.98521894 0.90766317 -0.02422616
-8.38221169 4.43637133 -0.11608207 -0.95511442 0.95850313 -0.05453241
-8.73085117 4.39784575 0.96075457 -0.99484026 0.95017946 0.45133808
-8.63554573 4.32415342 0.27751663 -0.98398066 0.93425781 0.13037026
-8.59461498 4.27609062 -0.37551808 -0.97931677 0.92387354 -0.17640886
-8.70581913 4.17922735 -0.05117484 -0.99198800 0.90294570 -0.02404064
-8.44904709 4.42102814 -0.11596274 -0.96272999 0.95518816 -0.05447635
-8.68166733 4.30509520 0.95114303 -0.98923600 0.93014014 0.44682282
-8.65895653 4.26805067 0.27734470 -0.98664820 0.92213649 0.13028949
-8.51885605 4.17209864 -0.37269697 -0.97068441 0.90140551 -0.17508356
-8.41340828 4.41974306 -0.43460208 -0.95866913 0.95491046 -0.20416501
-8.65465260 4.38329077 1.22840416 -0.98615783 0.94703478 0.57707304
-8.37716484 4.33358955 -0.43235543 -0.95453936 0.93629652 -0.20310959
-8.59830475 4.35413885 1.94023359 -0.97973722 0.94073635 0.91147244
-8.65369511 4.31462717 1.22393727 -0.98604870 0.93219960 0.57497466
-8.59617710 4.25895166 0.53941298 -0.97949481 0.92017061 0.25340250
-8.50564766 4.33280516 -0.43591261 -0.96917939 0.93612707 -0.20478067
-8.63636780 4.24630165 -0.11576080 -0.98407435 0.91743749 -0.05438148
-8.77613354 4.37552404 1.97475314 -1.00000000 0.94535673 0.92768884
-8.48986340 4.25767851 -0.43441486 -0.96738082 0.91989553 -0.20407706
-8.31002331 4.46506643 -0.16921383 -0.94688886 0.96470284 -0.07949236
-8.64266586 4.34304619 0.88295388 -0.98479199 0.93833971 0.41478929
-8.60713387 4.29903984 0.21424101 -0.98074329 0.92883188 0.10064498
-8.50446606 4.21494913 -0.43422765 -0.96904474 0.91066360 -0.20398912
-8.63768959 4.41451406 1.44749320 -0.98422498 0.95378071 0.67999554
-8.42993832 4.46121454 -0.16955964 -0.96055263 0.96387064 -0.07965481
-8.68937302 4.29839945 0.88526458 -0.99011403 0.92869353 0.41587481
-8.63934994 4.24753237 0.21446049 -0.98441416 0.91770339 0.10074809
-8.61693001 4.20368481 -0.43722317 -0.98185951 0.90822989 -0.20539634
-8.50647545 4.27984285 1.42031920 -0.96927369 0.92468423 0.66722989
-8.39921093 4.37778091 -0.16934019 -0.95705140 0.94584435 -0.07955172
-8.49780178 4.36129761 -0.16960619 -0.96828538 0.94228303 -0.07967668
-8.50895405 4.29973459 -0.16954635 -0.96955615 0.92898196 -0.07964857
-8.74630451 4.38646603 1.18493640 -0.99660110 0.94772077 0.55665302
-8.66859245 4.32316923 0.49424472 -0.98774618 0.93404514 0.23218362
-8.52553940 4.25781012 -0.16953304 -0.97144598 0.91992396 -0.07964232
-8.66557217 4.27085114 0.49255097 -0.98740202 0.92274153 0.23138793
-8.61321163 4.23402786 -0.16975915 -0.98143578 0.91478568 -0.07974854
-8.24973965 4.42179775 -0.21237311 -0.94001985 0.95535439 -0.09976749
-8.64582253 4.37071514 0.83681476 -0.98515165 0.94431770 0.39311433
-8.26322651 4.36237621 -0.21224572 -0.94155663 0.94251603 -0.09970765
-8.65349674 4.30659437 0.83461094 -0.98602611 0.93046409 0.39207903
-8.64088345 4.28176594 0.16844781 -0.98458886 0.92509973 0.07913250
-8.63817024 4.39501572 1.85875738 -0.98427969 0.94956797 0.87319702
-8.30288029 4.31685591 -0.21235719 -0.94607496 0.93268114 -0.09976001
-8.69279575 4.23960447 0.16933687 -0.99050403 0.91599053 0.07955016
-8.68142605 4.34853315 1.86220777 -0.98920852 0.93952519 0.87481791
-8.46676159 4.33507824 -0.21358328 -0.96474850 0.93661815 -0.10033599
-8.66117573 4.39952755 1.10676181 -0.98690110 0.95054281 0.51992857
-8.47242546 4.27094555 -0.21339220 -0.96539384 0.92276192 -0.10024624
-8.58762074 4.29423475 1.09226179 -0.97851986 0.92779368 0.51311684
-8.62371826 4.28738880 0.43567890 -0.98263299 0.92631459 0.20467088
-8.47815228 4.22380781 -0.21326481 -0.96604639 0.91257757 -0.10018639
-8.66888714 4.25908089 0.43734413 -0.98777980 0.92019850 0.20545316
-8.61932468 4.22705698 -0.21428390 -0.98213238 0.91327959 -0.10066513
-8.62737370 4.35166216 0.75993621 -0.98304951 0.94020122 0.35699871
-8.59961605 4.30839872 0.10247321 -0.97988665 0.93085390 0.04813931
-8.63494682 4.28758574 0.75789952 -0.98391241 0.92635715 0.35604194
-8.61576939 4.24895239 0.10217343 -0.98172724 0.91801018 0.04799848
-8.64437103 4.45007992 1.77532530 -0.98498625 0.96146494 0.83400273
-8.52520180 4.33766460 1.74605095 -0.97140747 0.93717694 0.82025039
