1.94367707 3.90488768 -0.05783528 0.97375554 0.97839773 -0.03245227
1.89708006 3.89645600 0.24104519 0.95041108 0.97628510 0.13525417
1.86314511 3.91074824 -0.05838564 0.93341017 0.97986615 -0.03276109
1.84460282 3.91276264 0.24034746 0.92412072 0.98037088 0.13486268
1.97336471 3.90885234 -0.08212838 0.98862863 0.97939110 -0.04608350
1.87607670 3.90188789 0.09265148 0.93988872 0.97764611 0.05198818
1.80338705 3.88804770 0.23685877 0.90347219 0.97417837 0.13290511
1.88425231 3.95443487 -0.20286520 0.94398457 0.99081212 -0.11383080
1.84729552 3.90455198 0.09211939 0.92546970 0.97831362 0.05168961
1.93791831 3.93332648 0.22318514 0.97087049 0.98552328 0.12523262
1.85516667 3.95712280 -0.20271681 0.92941308 0.99148560 -0.11374754
1.45276940 3.71160269 0.87071294 0.72781754 0.92996877 0.48857048
1.81866062 3.94322300 -0.20230134 0.91112405 0.98800290 -0.11351441
1.73365748 3.88679004 -0.05977990 0.86853862 0.97386324 -0.03354343
1.44460356 3.76078868 0.88045651 0.72372657 0.94229269 0.49403775
1.89145601 3.92917204 -0.08235745 0.94759351 0.98448235 -0.04621204
1.41729724 3.76812959 1.32836139 0.71004647 0.94413203 0.74536407
1.88585734 3.93646097 0.22154184 0.94478863 0.98630863 0.12431055
1.77462494 3.89521384 -0.20138136 0.88906276 0.97597390 -0.11299819
1.50952125 3.71498108 0.66473639 0.75624943 0.93081528 0.37299386
1.42890990 3.77303672 0.88178521 0.71586424 0.94536150 0.49478331
1.69240081 3.88552570 0.23267235 0.84786958 0.97354645 0.13055605
1.37936544 3.73779058 1.31424415 0.69104314 0.93653035 0.73744267
1.74445307 3.89348507 -0.20117362 0.87394708 0.97554070 -0.11288162
1.48254502 3.71522379 0.66301966 0.74273473 0.93087608 0.37203056
1.40651524 3.78560352 0.88267094 0.70464486 0.94851023 0.49528030
1.35331106 3.73924565 1.31167746 0.67799026 0.93689495 0.73600250
1.46130061 3.72997999 0.66404974 0.73209155 0.93457335 0.37260857
1.87505984 3.92703223 -0.22820854 0.93937927 0.98394620 -0.12805134
1.58109295 3.71335077 -0.06381591 0.79210585 0.93040675 -0.03580809
1.37545824 3.77417231 0.87779915 0.68908572 0.94564605 0.49254665
1.69356120 3.87358570 0.08722414 0.84845090 0.97055477 0.04894281
1.42654264 3.72757006 1.09893107 0.71467829 0.93396950 0.61662722
1.56095350 3.70774770 0.21383344 0.78201628 0.92900288 0.11998525
1.33416021 3.76019382 1.31616926 0.66839594 0.94214362 0.73852289
1.63015866 3.76247215 -0.19871046 0.81668711 0.94271451 -0.11149950
1.44202280 3.75014353 0.66610980 0.72243363 0.93962544 0.37376449
1.87524998 3.99110460 -0.22941226 0.93947452 1.00000000 -0.12872677
1.55239272 3.71027160 -0.06407274 0.77772748 0.92963529 -0.03595221
1.37005877 3.65975261 1.51584196 0.68638062 0.91697735 0.85056233
1.62708557 3.78486133 0.08147754 0.81514758 0.94832426 0.04571830
1.39642227 3.71841455 1.09346581 0.69958842 0.93167555 0.61356056
1.54289186 3.73039675 0.21505448 0.77296764 0.93467778 0.12067039
1.31112111 3.77029467 1.31681097 0.65685368 0.94467449 0.73888296
1.60648632 3.77264023 -0.19871046 0.80482763 0.94526219 -0.11149950
1.42117655 3.76651764 0.66748321 0.71198994 0.94372809 0.37453514
1.50276971 3.65508556 -0.06535693 0.75286698 0.91580802 -0.03667278
1.97493505 3.96006966 -0.09813289 0.98941535 0.99222398 -0.05506388
1.39910769 3.79371214 1.56973016 0.70093375 0.95054191 0.88079983
1.82277608 3.97170329 0.36990702 0.91318583 0.99513888 0.20756054
1.58687198 3.73905921 0.07839140 0.79500109 0.93684822 0.04398663
1.38612914 3.74483752 1.09947765 0.69443166 0.93829602 0.61693388
1.51711726 3.71729302 0.21313570 0.76005495 0.93139452 0.11959373
1.72513735 3.89641023 0.21299663 0.86427015 0.97627366 0.11951570
1.94860435 3.93258595 0.19900833 0.97622406 0.98533773 0.11166665
1.57490873 3.74691558 -0.19817628 0.78900766 0.93881667 -0.11119977
1.40747678 3.78427386 0.66954327 0.70512658 0.94817704 0.37569106
1.49350607 3.73817968 0.85647255 0.74822605 0.93662786 0.48057997
1.56912756 3.74403691 0.35658345 0.78611135 0.93809539 0.20008448
1.36090553 3.76215196 1.55275166 0.68179500 0.94263428 0.87127292
1.55043709 3.71755457 0.07658229 0.77674770 0.93146008 0.04297151
1.35739434 3.73897910 1.09510541 0.68003595 0.93682814 0.61448056
1.50617278 3.75825429 0.21610108 0.75457191 0.94165766 0.12125766
1.92558849 3.94834447 0.19931482 0.96469343 0.98928612 0.11183862
1.54379499 3.73821521 -0.19787951 0.77342010 0.93663675 -0.11103325
1.66205561 3.70616269 -0.22218992 0.83266705 0.92860574 -0.12467419
1.51727295 3.81099916 -0.06260511 0.76013291 0.95487326 -0.03512869
1.62042439 3.75395441 -0.08581896 0.81181037 0.94058031 -0.04815434
1.46276641 3.72934699 0.85215122 0.73282593 0.93441474 0.47815520
1.90879536 3.93465686 -0.09859960 0.95628029 0.98585659 -0.05532576
1.54706550 3.75750113 0.35706803 0.77505857 0.94146895 0.20035639
1.40031588 3.95139456 1.62878573 0.70153904 0.99005038 0.91393685
1.47918820 3.60870266 0.06977151 0.74105299 0.90418643 0.03914987
1.34913576 3.79101229 1.10822201 0.67589849 0.94986540 0.62184048
1.47100604 3.73792124 0.21331014 0.73695385 0.93656307 0.11969161
1.60707188 3.75867319 0.19869985 0.80512094 0.94176263 0.11149355
1.44127572 3.76128125 1.30119729 0.72205937 0.94241613 0.73012191
1.53438187 3.78312182 -0.19844337 0.76870430 0.94788843 -0.11134964
1.63547289 3.70923042 -0.22202389 0.81934947 0.92937440 -0.12458103
1.54092193 3.75625348 0.65224171 0.77198076 0.94115639 0.36598289
1.51414108 3.87457228 -0.06154107 0.75856394 0.97080201 -0.03453164
1.58258295 3.73099351 -0.08627710 0.79285234 0.93482727 -0.04841142
1.44357061 3.74937677 0.85474402 0.72320908 0.93943334 0.47961006
1.88147616 3.94114614 -0.09865344 0.94259375 0.98748255 -0.05535597
1.99606264 3.88284326 -0.12782703 1.00000000 0.97287434 -0.07172573
1.51681054 3.75054979 0.35488737 0.75990129 0.93972725 0.19913279
1.37967038 3.97242665 1.63395298 0.69119596 0.99532008 0.91683626
1.66454017 3.80546522 0.05999613 0.83391178 0.95348674 0.03366476
1.56936193 3.73568869 0.19574189 0.78622878 0.93600368 0.10983380
1.40610504 3.74011517 1.29048967 0.70443934 0.93711281 0.72411370
1.85895813 3.93608785 0.19625005 0.93131250 0.98621517 0.11011893
1.61937451 3.73590875 -0.22239746 0.81128442 0.93605882 -0.12479065
1.50460625 3.73482895 0.64657521 0.75378710 0.93578827 0.36280334
1.49683654 3.90271449 -0.06117415 0.74989456 0.97785324 -0.03432576
1.57390261 3.77586246 -0.08579351 0.78850359 0.94606954 -0.04814006
1.42697835 3.77660513 0.85906541 0.71489656 0.94625562 0.48203486
1.50189686 3.78219104 0.35779494 0.75242972 0.94765520 0.20076427
1.30687118 3.83824897 1.57415926 0.65472454 0.96170092 0.88328505
1.59575415 3.72471809 0.33290735 0.79945093 0.93325496 0.18679945
1.49965274 3.79636788 0.07945559 0.75130546 0.95120734 0.04458376
1.61825168 3.76456928 0.05732965 0.81072187 0.94323993 0.03216855
1.52122939 3.68663907 0.19048332 0.76211506 0.92371398 0.10688313
1.38324344 3.75065374 1.29111958 0.69298601 0.93975329 0.72446716
1.82420897 3.92594194 0.19441119 0.91390365 0.98367304 0.10908712
1.54671085 3.63219929 -0.21982399 0.77488095 0.91007370 -0.12334663
1.48257935 3.74786901 0.64724183 0.74275190 0.93905556 0.36317739
1.54784632 3.78013635 -0.08586986 0.77544975 0.94714040 -0.04818291
1.40046942 3.77818608 0.85733682 0.70161599 0.94665176 0.48106492
1.47525585 3.78414011 0.35682574 0.73908293 0.94814354 0.20022044
1.27519965 3.82342339 1.56456280 0.63885754 0.95798624 0.87790036
1.57153976 3.73284388 0.33267611 0.78731984 0.93529093 0.18666971
1.45874572 3.75013423 1.53272688 0.73081160 0.93962312 0.86003673
1.50143015 3.87287855 0.08328665 0.75219589 0.97037762 0.04673342
1.58670115 3.75629878 0.05637733 0.79491550 0.94116771 0.03163419
1.45432639 3.74675274 1.07489991 0.72859758 0.93877590 0.60314292
1.53215063 3.77907920 0.19787820 0.76758647 0.94687551 0.11103252
1.36750662 3.78065181 1.29867792 0.68510205 0.94726956 0.72870827
1.92575490 3.89657998 0.16880985 0.96477681 0.97631615 0.09472181
1.51726103 3.95540237 -0.20072848 0.76012695 0.99105453 -0.11263185
1.56995714 3.75044107 -0.22227293 0.78652698 0.93970001 -0.12472077
1.45755541 3.75344110 0.64657521 0.73021525 0.94045168 0.36280334
1.57165408 3.90644312 -0.08426637 0.78737712 0.97878748 -0.04728316
1.84415686 3.91018295 -0.24490520 0.92389727 0.97972453 -0.13742009
1.91985536 3.91440153 -0.12784080 0.96182120 0.98078150 -0.07173344
1.47076583 3.82632542 0.36142939 0.73683351 0.95871341 0.20280361
1.54081798 3.70908618 0.32874489 0.77192867 0.92933828 0.18446383
1.43700075 3.74654841 1.52836812 0.71991765 0.93872470 0.85759097
1.49231482 3.90420747 0.08467010 0.74762923 0.97822732 0.04750970
1.51997709 3.64780974 0.05037775 0.76148766 0.91398501 0.02826773
1.43874896 3.75895524 1.07649672 0.72079349 0.94183332 0.60403895
1.52481699 3.81211495 0.20017883 0.76391238 0.95515287 0.11232343
1.35290706 3.79597807 1.30182719 0.67778790 0.95110965 0.73047537
1.95729685 3.86753678 0.02072944 0.98057890 0.96903920 0.01163161
1.90913904 3.90918875 0.16909167 0.95645249 0.97947538 0.09487995
1.55226624 3.75779772 -0.22227293 0.77766407 0.94154328 -0.12472077
1.44128060 3.76394391 0.64724183 0.72206181 0.94308323 0.36317739
1.55322802 3.91380596 -0.08426637 0.77814591 0.98063225 -0.04728316
1.90226853 3.92520094 -0.12783621 0.95301044 0.98348737 -0.07173087
1.53571999 3.76274633 0.33429483 0.76937467 0.94278318 0.18757799
1.44070542 3.82686877 1.55815291 0.72177362 0.95884955 0.87430364
1.53764045 3.75506902 0.05542502 0.77033675 0.94085956 0.03109983
1.41235471 3.76071572 1.07436752 0.70757031 0.94227439 0.60284424
1.32204390 3.78472638 1.29489875 0.66232586 0.94829047 0.72658771
1.86708724 3.88522553 0.16627340 0.93538511 0.97347122 0.09329857
1.53669119 3.94394660 -0.08398639 0.76986122 0.98818421 -0.04712606
1.50531280 3.75575900 0.33221361 0.75414109 0.94103247 0.18641019
1.44607329 3.91436005 1.59084356 0.72446287 0.98077112 0.89264691
1.53892088 3.82569623 0.05856766 0.77097827 0.95855576 0.03286322
1.40828991 3.82187819 1.08980405 0.70553392 0.95759910 0.61150587
1.91298485 3.90077877 0.02109524 0.95837915 0.97736824 0.01183687
1.70202053 3.90006638 0.18874137 0.85268891 0.97718972 0.10590570
1.84522295 3.90227866 0.16669615 0.92443138 0.97774404 0.09353578
1.48831582 3.78174710 0.33429483 0.74562579 0.94754398 0.18757799
1.38349724 3.82018685 1.54798245 0.69311315 0.95717531 0.86859685
1.54085958 3.90019417 0.06190076 0.77194953 0.97722173 0.03473347
1.37627792 3.80893350 1.08341658 0.68949634 0.95435572 0.60792178
1.86826324 3.87141562 0.01941253 0.93597424 0.97001106 0.01089267
1.52395117 3.89418054 -0.22468038 0.76347864 0.97571498 -0.12607163
1.64493251 3.70892429 -0.23832260 0.82408863 0.92929769 -0.13372649
1.91113794 3.99008107 -0.27602690 0.95745391 0.99974352 -0.15488295
1.59477365 3.73718596 -0.10138190 0.79895973 0.93637884 -0.05688695
1.36452532 3.84282708 1.55379415 0.68360847 0.96284801 0.87185788
1.53387678 3.95441532 0.06418631 0.76845121 0.99080724 0.03601593
1.84130406 3.87767363 0.01919305 0.92246807 0.97157907 0.01076952
1.61922657 3.71367621 -0.23817413 0.81121027 0.93048835 -0.13364318
1.56591189 3.73419499 -0.10150754 0.78450036 0.93562943 -0.05695745
1.38073432 3.96551609 1.60101402 0.69172895 0.99358863 0.89835370
1.67808080 3.89023566 0.04429640 0.84069544 0.97472656 0.02485540
1.55957568 3.76346850 0.17479669 0.78132600 0.94296414 0.09808112
1.59352612 3.71825171 -0.23802564 0.79833472 0.93163472 -0.13355985
1.54919112 3.76063657 -0.10134599 0.77612352 0.94225460 -0.05686680
1.30758572 3.83502102 1.54362369 0.65508252 0.96089214 0.86615109
1.55628085 3.79603219 0.45982194 0.77967536 0.95112318 0.25801319
1.59269249 3.75507426 0.03750525 0.79791707 0.94086093 0.02104478
1.52401710 3.74358201 0.17234488 0.76351166 0.93798143 0.09670537
1.70496869 3.85456634 0.15950954 0.85416591 0.96578938 0.08950327
1.57396615 3.73742318 -0.23827310 0.78853548 0.93643832 -0.13369872
1.69484937 3.72047186 -0.26554257 0.84909630 0.93219101 -0.14900003
1.52775443 3.77586913 -0.10129214 0.76538402 0.94607121 -0.05683659
1.45572507 3.72818732 0.82171261 0.72929829 0.93412417 0.46107563
1.63600385 3.73093343 -0.12849712 0.81961548 0.93481225 -0.07210172
1.28348029 3.82350516 1.53635919 0.64300603 0.95800674 0.86207485
1.55922008 3.69909692 0.31275508 0.78114790 0.92683536 0.17549171
1.81012332 3.96222568 0.32145646 0.90684694 0.99276417 0.18037419
1.52738070 3.77574968 0.45548686 0.76519680 0.94604129 0.25558072
1.56735599 3.74406791 0.03664561 0.78522384 0.93810320 0.02056242
1.51296365 3.76740980 0.17372401 0.75797403 0.94395167 0.09747922
1.92607057 3.92948580 0.14754602 0.96493495 0.98456097 0.08279035
1.55557847 3.74294877 -0.23822361 0.77932346 0.93782276 -0.13367094
1.68807769 3.75206351 -0.26635388 0.84570378 0.94010651 -0.14945528
1.55094087 3.88724875 -0.10028692 0.77700013 0.97397816 -0.05627254
1.43605995 3.72951984 0.82045776 0.71944636 0.93445808 0.46037152
1.62001145 3.74226427 -0.12848794 0.81160349 0.93765128 -0.07209657
1.91393840 3.91487098 -0.15233579 0.95885688 0.98089910 -0.08547796
1.55021894 3.74378181 0.31700206 0.77663845 0.93803149 0.17787474
1.50434840 3.78711486 0.45577586 0.75365794 0.94888890 0.25574288
1.48824680 3.61681151 0.03028428 0.74559122 0.90621817 0.01699298
1.51020622 3.83074546 0.17816792 0.75659257 0.95982087 0.09997278
1.42029119 3.74480343 1.26209176 0.71154642 0.93828750 0.70817918
1.59484422 3.71757603 0.14753188 0.79899508 0.93146545 0.08278242
1.95650220 3.90784001 0.00092068 0.98018074 0.97913748 0.00051661
1.88588560 3.90908217 0.14520082 0.94480282 0.97944868 0.08147442
1.54024076 3.77305198 -0.23876804 0.77163947 0.94536537 -0.13397643
1.43946993 3.58534646 0.59131360 0.72115469 0.89833438 0.33179519
1.64975023 3.72976184 -0.26523054 0.82650226 0.93451869 -0.14882495
1.53224921 3.91184211 -0.10014332 0.76763582 0.98014021 -0.05619196
1.42282808 3.76596451 0.82673222 0.71281737 0.94358951 0.46389222
1.59171331 3.74135065 -0.12851550 0.79742652 0.93742234 -0.07211203
1.87813997 3.90333796 -0.15224934 0.94092238 0.97800946 -0.08542945
1.51926994 3.73500061 0.31476679 0.76113337 0.93583131 0.17662051
1.46916687 3.76693463 0.45115176 0.73603243 0.94383258 0.25314823
1.39346159 3.74472046 1.25901020 0.69810516 0.93826669 0.70645005
1.56831765 3.72018552 0.14696822 0.78570563 0.93211925 0.08246613
1.86552405 3.92988873 0.14585227 0.93460196 0.98466194 0.08183996
1.46763551 3.72499800 0.61400014 0.73526525 0.93332505 0.34452495
1.62950814 3.74737072 -0.26548016 0.81636125 0.93893075 -0.14896502
1.51543534 3.94196415 -0.09994587 0.75921232 0.98768753 -0.05608117
1.39444470 3.76196909 0.82380414 0.69859767 0.94258845 0.46224922
1.57832229 3.77521563 -0.12845582 0.79071784 0.94590747 -0.07207854
1.50159609 3.75926757 0.31655499 0.75227904 0.94191158 0.17762390
1.46082973 3.81682992 0.45750991 0.73185563 0.95633423 0.25671586
1.37681448 3.75604081 1.72336948 0.68976516 0.94110310 0.96700925
1.59280860 3.69623518 0.00938944 0.79797524 0.92611831 0.00526856
1.36797583 3.74802995 1.25716114 0.68533713 0.93909591 0.70541251
1.51709497 3.66375089 0.14189532 0.76004374 0.91797918 0.07961966
1.82491040 3.90710092 0.14337678 0.91425508 0.97895229 0.08045093
1.94898915 3.86893344 0.12000261 0.97641683 0.96938914 0.06733532
1.44420183 3.73414588 0.61400014 0.72352529 0.93561715 0.34452495
1.62023640 3.79055142 -0.26660350 0.81171620 0.94974995 -0.14959534
1.56456816 3.80905890 -0.12839615 0.78382719 0.95438713 -0.07204507
1.39775217 3.89060616 1.78216445 0.70025468 0.97481942 1.00000000
1.54453099 3.76882315 0.43496659 0.77378881 0.94430578 0.24406648
1.51356661 3.88861132 0.04154555 0.75827610 0.97431958 0.02331185
1.43471849 3.74032736 1.03879321 0.71877426 0.93716598 0.58288294
1.56639838 3.69882417 0.00909680 0.78474408 0.92676705 0.00510435
1.34376740 3.75475645 1.25654483 0.67320901 0.94078130 0.70506668
1.51152980 3.91352749 -0.24173763 0.75725567 0.98056251 -0.13564272
1.42554951 3.75609183 0.61623687 0.71418077 0.94111586 0.34578001
1.58072340 3.76387286 -0.26535535 0.79192072 0.94306546 -0.14889498
1.46903622 3.81686544 0.32124904 0.73596698 0.95634311 0.18025780
1.56188166 3.72790122 0.28826657 0.78248131 0.93405247 0.16175082
1.33910120 3.80072021 1.73625600 0.67087132 0.95229781 0.97424006
1.50884247 3.74911761 0.43049964 0.75590938 0.93936843 0.24156000
1.84620559 3.91328478 0.29708394 0.92492366 0.98050171 0.16669840
1.50107121 3.92983532 0.04300694 0.75201607 0.98464853 0.02413186
1.40581846 3.73477650 1.03465176 0.70429575 0.93577516 0.58055907
1.54001868 3.70122743 0.00880415 0.77152824 0.92736918 0.00494014
1.33318353 3.80089569 1.26948762 0.66790664 0.95234179 0.71232909
1.50541461 3.76757383 0.14837736 0.75419205 0.94399273 0.08325683
1.96667314 3.88920283 -0.02898083 0.98527628 0.97446775 -0.01626159
1.90110219 3.89490914 0.12012155 0.95242614 0.97589755 0.06740206
1.41143525 3.79092598 0.62071025 0.70710969 0.94984382 0.34829012
1.57556283 3.81798863 -0.26685312 0.78933537 0.95662457 -0.14973541
1.40321040 3.76482511 1.49302173 0.70298916 0.94330406 0.83775753
1.54275882 3.73155165 0.28784645 0.77290100 0.93496716 0.16151509
1.31703568 3.79486084 1.73061812 0.65981680 0.95082968 0.97107655
1.82441592 3.91471076 0.29628256 0.91400737 0.98085898 0.16624872
1.94778717 3.87136984 0.26447910 0.97581464 0.96999961 0.14840330
1.39615667 3.76313496 1.04086399 0.69945532 0.94288057 0.58404487
1.86959159 3.87691212 0.11833740 0.93663973 0.97138822 0.06640095
1.49642515 3.76972699 0.79666960 0.74968845 0.94453222 0.44702363
1.36876833 3.74366736 1.48092949 0.68573415 0.93800282 0.83097243
1.51776719 3.73749352 0.28742632 0.76038057 0.93645591 0.16127935
1.29606879 3.81174183 1.73464525 0.64931267 0.95505935 0.97333622
1.46898520 3.76916432 0.43105802 0.73594141 0.94439125 0.24187331
1.80470753 3.93697357 0.29748464 0.90413374 0.98643708 0.16692322
1.36792517 3.75910187 1.03724015 0.68531173 0.94187003 0.58201146
1.52344871 3.77713084 0.01114531 0.76322693 0.94638735 0.00625381
1.52004266 3.92688823 0.15922771 0.76152050 0.98391014 0.08934513
1.56654561 3.91658998 -0.26959902 0.78481787 0.98132980 -0.15127617
1.55626690 3.75824976 0.58728695 0.77966839 0.94165653 0.32953578
1.46190107 3.75172496 0.79064876 0.73239237 0.94002169 0.44364524
1.64949965 3.76849437 -0.15152447 0.82637668 0.94422340 -0.08502272
1.34832847 3.76100755 1.48448598 0.67549407 0.94234753 0.83296800
1.50171459 3.76539302 0.28952697 0.75233841 0.94344634 0.16245805
1.30570233 3.92245674 1.78216445 0.65413898 0.98279977 1.00000000
1.77588880 3.93914533 0.29648289 0.88969594 0.98698121 0.16636112
1.90515256 3.90804172 0.26577514 0.95445532 0.97918802 0.14913054
1.51086462 3.81444645 0.01224273 0.75692242 0.95573705 0.00686958
1.89654338 3.91721582 -0.02913072 0.95014220 0.98148662 -0.01634570
1.52206576 3.74236703 0.58305991 0.76253408 0.93767703 0.32716390
1.43688142 3.75718331 0.78984594 0.71985787 0.94138932 0.44319475
1.60391176 3.72723436 -0.15133828 0.80353779 0.93388540 -0.08491825
1.32772470 3.77823830 1.48804259 0.66517186 0.94666481 0.83496368
1.52061152 3.90938640 0.01560815 0.76180553 0.97952491 0.00875797
1.42270887 3.76202822 1.22855937 0.71275765 0.94260329 0.68936366
1.61251962 3.80291748 0.13152049 0.80785018 0.95284837 0.07379818
1.49183869 3.73536539 0.58034253 0.74739075 0.93592268 0.32563916
1.42022240 3.78444624 0.79385984 0.71151197 0.94822025 0.44544703
1.57738233 3.72985482 -0.15131167 0.79024690 0.93454200 -0.08490331
1.77493751 3.87288117 -0.17176890 0.88921934 0.97037828 -0.09638219
1.30216038 3.78119469 1.48590863 0.65236449 0.94740558 0.83376628
1.39324486 3.71255612 1.67215145 0.69799656 0.93020767 0.93826997
1.39164340 3.75125241 1.22196484 0.69719428 0.93990332 0.68566334
1.56280589 3.75020957 0.12709068 0.78294432 0.93964201 0.07131254
1.46980155 3.74833918 0.58094639 0.73635042 0.93917340 0.32597798
1.55598319 3.72799897 -0.15127842 0.77952623 0.93407696 -0.08488466
1.29083180 3.80679464 1.49373305 0.64668900 0.95381981 0.83815670
1.39640832 3.77409983 1.69747794 0.69958138 0.94562787 0.95248109
1.55886352 3.76686311 0.41254142 0.78096926 0.94381469 0.23148336
1.45843112 3.71572232 0.99803233 0.73065400 0.93100101 0.56001133
1.38258672 3.78102136 1.22975838 0.69265699 0.94736212 0.69003642
1.60317612 3.74139667 -0.00860512 0.80316925 0.93743390 -0.00482847
1.53986800 3.74458551 0.12617865 0.77145272 0.93823284 0.07080079
1.45862305 3.77178717 0.58366376 0.73075014 0.94504845 0.32750276
1.54002297 3.75624466 -0.15134493 0.77153039 0.94115412 -0.08492198
1.65663135 3.72442460 -0.17030397 0.82994956 0.93318141 -0.09556019
1.38600767 3.81899047 1.71409833 0.69437081 0.95687556 0.96180707
1.51821005 3.73426914 0.40637299 0.76060241 0.93564802 0.22802216
1.45339370 3.77169633 1.01105630 0.72813028 0.94502568 0.56731933
1.36141503 3.79680490 1.23215640 0.68205023 0.95131683 0.69138199
1.56890500 3.72554946 -0.00949420 0.78599989 0.93346328 -0.00532734
1.76270926 3.87184167 -0.03157893 0.88309318 0.97011781 -0.01771943
1.51704788 3.75604105 0.12630893 0.76002020 0.94110316 0.07087389
1.61698890 3.69819236 -0.16998552 0.81008923 0.92660874 -0.09538150
1.42816722 3.74841857 1.45383763 0.71549219 0.93919325 0.81577075
1.35636544 3.81207752 1.70697534 0.67952049 0.95514345 0.95781022
1.55566680 3.74181271 0.26943624 0.77936774 0.93753815 0.15118484
1.50197303 3.76217794 0.40905493 0.75246787 0.94264078 0.22952704
1.41023612 3.73014045 0.99703050 0.70650893 0.93461353 0.55944920
1.50620925 3.63908386 -0.01279648 0.75459015 0.91179866 -0.00718030
1.51884389 3.83055830 0.13086905 0.76091993 0.95977396 0.07343264
1.59888744 3.71300626 0.10275578 0.80102068 0.93032044 0.05765786
1.59771538 3.71744633 -0.17006512 0.80043352 0.93143296 -0.09542616
1.41057587 3.77309346 1.46010387 0.70667917 0.94537574 0.81928682
1.36551785 3.91401124 1.74971366 0.68410569 0.98068368 0.98179138
1.53286886 3.75335932 0.26963660 0.76794624 0.94043118 0.15129726
1.47544920 3.76414537 0.40798214 0.73917979 0.94313371 0.22892508
1.38950157 3.74617529 0.99903417 0.69612122 0.93863118 0.56057352
1.52619517 3.92201424 0.13660176 0.76460284 0.98268890 0.07664936
1.56371677 3.69545913 0.10097163 0.78340065 0.92592388 0.05665674
1.58377528 3.74947262 -0.17025621 0.79344970 0.93945736 -0.09553339
1.38749552 3.78363895 1.46080017 0.69511622 0.94801801 0.81967753
1.34632242 3.93812919 1.75683665 0.67448908 0.98672664 0.98578817
1.50413525 3.74996233 0.26823419 0.75355113 0.93958008 0.15051036
1.46441197 3.80670118 0.41280961 0.73365033 0.95379639 0.23163384
1.51815915 3.80468702 -0.00777955 0.76057690 0.95329171 -0.00436523
1.59469366 3.68830299 -0.03747462 0.79891968 0.92413086 -0.02102759
1.51277101 3.96141124 0.13868639 0.75787753 0.99256009 0.07781907
1.54589725 3.71808839 0.10180424 0.77447331 0.93159384 0.05712393
1.56096137 3.76119304 -0.17027213 0.78202021 0.94239402 -0.09554232
1.37527490 3.82398129 1.47333276 0.68899387 0.95812607 0.82670975
1.27007115 3.79523420 1.68798053 0.63628823 0.95092326 0.94715196
1.48918235 3.78160095 0.27063832 0.74605995 0.94750732 0.15185934
1.51222169 3.86077213 -0.00619192 0.75760233 0.96734428 -0.00347438
1.55249858 3.65418220 -0.03867375 0.77778047 0.91558164 -0.02170044
1.34390402 3.79337406 1.45871139 0.67327750 0.95045722 0.81850547
1.25392306 3.80640173 1.69035482 0.62819827 0.95372134 0.94848418
1.56439126 3.70215106 0.23522565 0.78373855 0.92760062 0.13198875
1.51299751 3.72995162 0.37718129 0.75799102 0.93456626 0.21164225
1.51747835 3.92950702 -0.00409624 0.76023585 0.98456627 -0.00229846
1.53740859 3.81432486 0.10691881 0.77022064 0.95570654 0.05999380
1.47910941 3.70965576 0.74582511 0.74101353 0.92948097 0.41849399
1.32066715 3.80351114 1.45940769 0.66163611 0.95299709 0.81889617
1.54187214 3.71374249 0.23541079 0.77245677 0.93050492 0.13209264
1.49845266 3.76145482 0.38023394 0.75070423 0.94245958 0.21335514
1.54306531 3.74482131 -0.03667521 0.77305454 0.93829197 -0.02057903
1.51564395 3.82946730 0.10727564 0.75931680 0.95950061 0.06019402
1.45789051 3.72437048 0.74697524 0.73038316 0.93316782 0.41913936
1.51850772 3.72335696 0.23541079 0.76075155 0.93291390 0.13209264
1.55443728 3.83952188 -0.03437689 0.77875173 0.96201986 -0.01928940
1.43723977 3.74080062 0.74850869 0.72003740 0.93728453 0.41999978
1.52504814 3.83623290 -0.03472663 0.76402819 0.96119577 -0.01948565
1.43372738 3.77178144 1.19014013 0.71827775 0.94504702 0.66780603
1.41985559 3.76631904 0.75195909 0.71132815 0.94367838 0.42193586
1.53035772 3.92009711 -0.03272809 0.76668823 0.98220855 -0.01836424
1.39416826 3.73760080 1.17619431 0.69845915 0.93648279 0.65998077
1.38616180 3.70239925 1.61663568 0.69444805 0.92766279 0.90711927
1.44596982 3.71356702 0.95719552 0.72441107 0.93046093 0.53709722
1.36546981 3.73188257 1.17154574 0.68408167 0.93505007 0.65737242
1.42665124 3.86845040 1.68761539 0.71473271 0.96926808 0.94694704
1.42845404 3.72033978 0.95719552 0.71563590 0.93215793 0.53709722
1.36002648 3.77254367 1.18258619 0.68135458 0.94523799 0.66356736
1.54200912 3.74283099 0.71925300 0.77252543 0.93779325 0.40358397
1.36950994 3.78520942 1.64672494 0.68610567 0.94841146 0.92400277
1.41112530 3.74561810 0.96154243 0.70695442 0.93849158 0.53953630
1.35326672 3.82981873 1.19827521 0.67796808 0.95958865 0.67237073
1.51323497 3.73971319 0.71669149 0.75810999 0.93701208 0.40214667
1.32928205 3.74670196 1.62589395 0.66595209 0.93876314 0.91231424
1.39220810 3.76717758 0.96492338 0.69747716 0.94389349 0.54143339
1.49191368 3.75461817 0.71778929 0.74742830 0.94074661 0.40276265
1.37180161 3.71465993 1.39070523 0.68725377 0.93073481 0.78034616
1.31705987 3.78815246 1.64055276 0.65982890 0.94914889 0.92053950
1.38807309 3.83068991 0.97941327 0.69540560 0.95980692 0.54956388
1.46395075 3.75294876 0.71559370 0.73341924 0.94032836 0.40153068
1.35664630 3.74624777 1.39951634 0.67966121 0.93864936 0.78529024
1.30085206 3.81909823 1.65058255 0.65170902 0.95690256 0.92616737
1.47362590 3.71802545 1.59483397 0.73826635 0.93157804 0.89488596
1.42380404 3.67645907 1.12046444 0.71330631 0.92116332 0.62870991
1.43891692 3.75840759 0.71486187 0.72087765 0.94169611 0.40112004
1.33184028 3.75114512 1.39816070 0.66723371 0.93987644 0.78452957
1.43799067 3.69620705 1.58123934 0.72041363 0.92611128 0.88725781
1.42901182 3.75874400 1.14352584 0.71591532 0.94178039 0.64165002
1.31720936 3.76627612 1.40154970 0.65990382 0.94366759 0.78643119
1.42122900 3.70466805 1.58199453 0.71201622 0.92823124 0.88768154
1.47980106 3.72030783 0.91835004 0.74136001 0.93214995 0.51530039
1.39831269 3.73135471 1.13283885 0.70053548 0.93491781 0.63565338
1.41313422 3.75331044 1.59936547 0.70796084 0.94041896 0.89742869
1.45998132 3.73857594 0.92066520 0.73143059 0.93672711 0.51659948
1.37484050 3.74006701 1.13283885 0.68877625 0.93710071 0.63565338
1.43895662 3.89389396 1.65676510 0.72089756 0.97564316 0.92963648
1.43716800 3.74948859 0.92112821 0.72000146 0.93946135 0.51685929
1.35395420 3.75584030 1.13508880 0.67831248 0.94105285 0.63691586
1.40039277 3.86462259 1.64014947 0.70157754 0.96830904 0.92031318
1.41496933 3.76207995 0.92205429 0.70888025 0.94261622 0.51737893
1.33746517 3.78414273 1.14127588 0.67005169 0.94814420 0.64038754
1.40064335 3.72161865 1.35406518 0.70170313 0.93247837 0.75978690
1.37796891 3.87857127 1.64241517 0.69034350 0.97180396 0.92158449
1.39130378 3.77089596 0.92205429 0.69702411 0.94482511 0.51737893
1.38916552 3.76216626 1.36594141 0.69595289 0.94263786 0.76645082
1.37395406 3.94476676 1.66733873 0.68833214 0.98838973 0.93556952
1.35963809 3.73679423 1.35406518 0.68116003 0.93628073 0.75978690
1.30111289 3.79555655 1.60012078 0.65183973 0.95100403 0.89785248
1.34449780 3.76833820 1.36264241 0.67357498 0.94418430 0.76459968
1.27783751 3.80540919 1.60087597 0.64017904 0.95347267 0.89827621
1.24920332 3.79931259 1.59483397 0.62583375 0.95194513 0.89488596
1.22012007 3.79124713 1.58803666 0.61126339 0.94992429 0.89107192
1.19457924 3.79354787 1.58577085 0.59846783 0.95050073 0.88980049
1.18014121 3.83101845 1.59861028 0.59123456 0.95988923 0.89700490
1.15934575 3.82768893 1.59483397 0.58081633 0.95905501 0.89488596
1.13634229 3.83844399 1.59634447 0.56929189 0.96174979 0.89573354
1.11482012 3.85438967 1.60012078 0.55850959 0.96574509 0.89785248
