22.49394035 -11.54910374 2.07539678 0.92846930 -0.94267219 0.63387197
22.56784058 -11.40844059 2.07557106 0.93151963 -0.93119085 0.63392526
22.86889839 -11.49706745 0.33178604 0.94394624 -0.93842483 0.10133478
22.34324837 -11.56079388 2.93147326 0.92224926 -0.94362640 0.89533669
23.63027191 -12.06895065 -0.53162384 0.97537303 -0.98510367 -0.16236965
22.79187202 -11.27965355 0.32874069 0.94076687 -0.92067885 0.10040466
22.45437813 -11.43997574 2.93680358 0.92683631 -0.93376487 0.89696467
22.69847488 -11.51333332 1.21813321 0.93691176 -0.93975252 0.37204477
23.69670105 -11.91575432 -0.53147548 0.97811496 -0.97259933 -0.16232435
22.71496964 -11.38747501 1.21589839 0.93759263 -0.92947960 0.37136221
23.00015259 -11.43074703 -0.51901126 0.94936395 -0.93301159 -0.15851749
22.87880516 -11.01438713 -0.51467842 0.94435513 -0.89902705 -0.15719415
22.43106461 -11.37920284 1.93534768 0.92587405 -0.92880440 0.59109789
23.48765755 -12.25145245 -0.68778169 0.96948642 -1.00000000 -0.21006371
22.49434280 -11.61165810 2.80795312 0.92848593 -0.94777811 0.85761088
22.73562622 -11.35489559 1.95687497 0.93844521 -0.92682034 0.59767282
23.32414818 -11.98011398 -0.68217820 0.96273732 -0.97785252 -0.20835228
22.95529938 -11.38380146 0.18825139 0.94751257 -0.92917973 0.05749613
22.46390915 -11.46212006 2.79685307 0.92722970 -0.93557233 0.85422069
23.75639725 -12.06135654 -0.69093633 0.98057902 -0.98448378 -0.21102720
22.80270195 -11.48844624 1.07916343 0.94121391 -0.93772113 0.32960033
22.97644615 -11.08111191 0.18680061 0.94838542 -0.90447330 0.05705303
22.87841225 -11.25528622 -0.66715240 0.94433892 -0.91868997 -0.20376307
22.67315674 -11.48227978 1.81475306 0.93586671 -0.93721783 0.55426568
23.16420174 -11.03668880 -0.67051452 0.95613527 -0.90084738 -0.20478994
23.45233345 -12.23164558 -0.79264778 0.96802837 -0.99838328 -0.24209213
22.74485397 -11.33959484 1.81475306 0.93882614 -0.92557144 0.55426568
23.45577431 -12.04665470 -0.79061854 0.96817034 -0.98328382 -0.24147236
22.84880829 -11.33148766 0.09106352 0.94311696 -0.92490971 0.02781281
22.47890854 -11.55353546 2.70380402 0.92784888 -0.94303393 0.82580143
23.90810966 -11.07083607 -0.68479317 0.98684114 -0.90363461 -0.20915096
22.56525040 -11.41923714 2.70559216 0.93141276 -0.93207210 0.82634759
22.66859055 -11.40318108 0.95370919 0.93567824 -0.93076158 0.29128385
23.05917931 -11.34439278 -0.77403826 0.95180035 -0.92596310 -0.23640837
22.67637253 -11.54006195 1.65897262 0.93599945 -0.94193417 0.50668687
23.82467079 -11.35079765 -0.79116297 0.98339713 -0.92648590 -0.24163865
22.33908844 -11.68370628 -0.92493075 0.92207760 -0.95365888 -0.28249428
22.68602753 -11.36602688 1.65404069 0.93639797 -0.92772895 0.50518054
23.72890663 -11.12293720 -0.78660959 0.97944432 -0.90788722 -0.24024794
22.45824432 -11.56695175 -0.92655337 0.92699593 -0.94412899 -0.28298986
23.01915550 -11.44585896 -0.07885066 0.95014828 -0.93424505 -0.02408273
22.49742889 -11.56434155 2.53299594 0.92861331 -0.94391596 0.77363288
22.61602211 -11.46908188 -0.92954886 0.93350840 -0.93614060 -0.28390473
22.50736237 -11.43563843 2.52774429 0.92902333 -0.93341082 0.77202892
22.72457123 -11.47715855 0.79397094 0.93798894 -0.93679982 0.24249625
22.95385361 -11.50502777 -0.93947154 0.94745290 -0.93907458 -0.28693536
22.88624001 -11.06734753 -0.07950698 0.94466203 -0.90334982 -0.02428319
22.50821495 -11.19066143 0.78219199 0.92905849 -0.91341507 0.23889871
23.06332016 -11.37918186 -0.94078207 0.95197129 -0.92880267 -0.28733560
22.94268990 -10.91730595 -0.07953911 0.94699210 -0.89110297 -0.02429300
22.38161659 -11.63221359 3.27415752 0.92383301 -0.94945586 1.00000000
22.61576843 -11.06749725 0.78372836 0.93349797 -0.90336204 0.23936795
22.30246735 -11.41382885 3.25109291 0.92056596 -0.93163067 0.99295557
22.69360733 -11.54883003 1.52417827 0.93671083 -0.94264984 0.46551770
23.96535301 -11.45279312 -0.96711767 0.98920393 -0.93481106 -0.29537910
22.72466469 -11.38548660 1.52118158 0.93799281 -0.92931730 0.46460244
23.89759445 -11.23638630 -0.96231234 0.98640710 -0.91714728 -0.29391143
22.86558723 -11.42612743 -0.22284053 0.94380957 -0.93263453 -0.06806042
22.57332230 -11.59790325 2.41653919 0.93174589 -0.94665539 0.73806441
23.74101067 -10.98093700 -0.95451152 0.97994393 -0.89629674 -0.29152888
22.67161369 -11.19623852 -0.22192281 0.93580306 -0.91387028 -0.06778013
22.53897667 -11.44641972 2.40652180 0.93032825 -0.93429083 0.73500490
22.63429260 -11.44561863 0.66785389 0.93426257 -0.93422544 0.20397733
24.22690773 -11.06779766 -0.96942669 1.00000000 -0.90338659 -0.29608431
22.63985252 -11.09355259 0.66302747 0.93449205 -0.90548879 0.20250323
22.38833237 -11.49734020 3.08843303 0.92411017 -0.93844712 0.94327563
23.75485229 -12.10984707 -0.35014078 0.98051524 -0.98844177 -0.10694072
22.52206612 -11.38782310 3.09733653 0.92963022 -0.92950803 0.94599497
22.72101784 -11.42252064 1.37699854 0.93784225 -0.93234015 0.42056575
22.46551895 -11.59082794 2.21186996 0.92729616 -0.94607788 0.67555392
22.80843544 -11.28751755 1.37806904 0.94145054 -0.92132074 0.42089272
22.93198204 -11.37353134 -0.34165370 0.94655013 -0.92834145 -0.10434859
22.50925064 -11.47939682 2.21075892 0.92910129 -0.93698251 0.67521459
22.64558792 -11.47190571 0.49648556 0.93472880 -0.93637109 0.15163766
22.64319611 -11.36906624 2.21723914 0.93463004 -0.92797703 0.67719376
22.89649391 -10.99945831 -0.34009323 0.94508529 -0.89780849 -0.10387198
23.77668762 -11.23977852 -0.34724274 0.98141652 -0.91742414 -0.10605560
23.91391373 -11.12141991 -0.34783190 0.98708075 -0.90776336 -0.10623554
