6.90427637 -18.34015846 -0.42867532 0.85965019 -0.98717493 -0.17059949
7.01219177 -18.27775192 -0.42837855 0.87308675 -0.98381585 -0.17048138
7.15901279 -18.31525230 -0.42968434 0.89136738 -0.98583430 -0.17100105
7.21938658 -18.21627045 -0.42864564 0.89888453 -0.98050654 -0.17058767
7.51922512 -18.08229828 1.57616556 0.93621737 -0.97329539 0.62726504
7.53818130 -18.01580238 0.22046566 0.93857759 -0.96971619 0.08773850
7.67939663 -18.14473724 1.58663166 0.95616031 -0.97665620 0.63143021
7.56169891 -17.75843811 0.21628290 0.94150579 -0.95586330 0.08607389
7.50844765 -18.12616539 0.90739131 0.93487543 -0.97565657 0.36111361
7.67950344 -17.72524834 0.21657643 0.95617360 -0.95407683 0.08619071
7.60555363 -18.12902451 2.26055288 0.94696611 -0.97581047 0.89963001
7.62918901 -18.09518623 0.90834904 0.94990897 -0.97398907 0.36149475
7.65525341 -17.98311424 -0.42790371 0.95315421 -0.96795672 -0.17029242
7.79718924 -17.69127846 0.21686995 0.97082663 -0.95224839 0.08630752
7.08316946 -18.21572113 -0.54358399 0.88192415 -0.98047698 -0.21632957
7.85413218 -17.90151596 -0.42796308 0.97791660 -0.96356463 -0.17031604
7.19233847 -18.24169159 -0.54491222 0.89551675 -0.98187488 -0.21685818
8.01955032 -17.97046089 -0.42989206 0.99851274 -0.96727562 -0.17108372
7.30755472 -18.19799805 -0.54495376 0.90986234 -0.97952300 -0.21687470
7.53394032 -18.02210045 0.11074914 0.93804955 -0.97005516 0.04407473
7.60695744 -18.02160072 1.47439981 0.94714087 -0.97002828 0.58676541
7.56189919 -17.77373505 0.10797484 0.94153070 -0.95668668 0.04297064
7.67501020 -17.72954369 0.10802574 0.95561415 -0.95430803 0.04299090
7.60388899 -18.05319405 2.14149666 0.94675887 -0.97172880 0.85224932
7.63337803 -18.18253899 0.80203980 0.95043051 -0.97869092 0.31918699
7.65781927 -18.07728958 -0.54541034 0.95347369 -0.97302580 -0.21705641
7.80796528 -17.73040962 0.10871296 0.97216833 -0.95435464 0.04326439
7.06518459 -18.53986931 -0.62902284 0.87968487 -0.99792451 -0.25033158
7.15831423 -18.43549347 -0.62743908 0.89128041 -0.99230641 -0.24970131
7.76671839 -17.78666496 -0.54076147 0.96703267 -0.95738268 -0.21520631
7.29137611 -18.51871300 -0.63055718 0.90784794 -0.99678576 -0.25094220
7.46351290 -18.19964409 0.03870242 0.92928064 -0.97961164 0.01540237
7.51399374 -18.10680199 1.36821663 0.93556601 -0.97461432 0.54450780
7.83459425 -17.63878822 -0.53852004 0.97548389 -0.94942307 -0.21431428
7.35163355 -18.33341217 -0.62684518 0.91535056 -0.98681182 -0.24946496
7.51438475 -18.00111961 0.03723050 0.93561471 -0.96892583 0.01481658
7.66416931 -18.14553261 1.37541878 0.95426434 -0.97669899 0.54737407
8.03149509 -17.78064346 -0.54287833 1.00000000 -0.95705855 -0.21604875
7.59301186 -18.07867241 0.70561719 0.94540453 -0.97310019 0.28081378
7.65293455 -18.09035492 -0.62412304 0.95286548 -0.97372901 -0.24838163
7.06548548 -18.57842827 -0.75842994 0.87972230 -1.00000000 -0.30183160
7.70030546 -18.13633156 2.07726288 0.95876366 -0.97620374 0.82668626
7.10931587 -18.34533310 -0.75212687 0.88517964 -0.98745346 -0.29932317
7.12787294 -18.13852692 -0.74632305 0.88749015 -0.97632194 -0.29701343
7.45298290 -18.20311546 -0.09270687 0.92796957 -0.97979844 -0.03689446
7.26170254 -18.14351463 -0.74800807 0.90415329 -0.97659039 -0.29768404
7.55416059 -18.12453079 -0.09278490 0.94056720 -0.97556859 -0.03692551
7.46500349 -17.74720764 1.22171736 0.92946625 -0.95525885 0.48620564
7.65164948 -17.72689438 -0.09353761 0.95270550 -0.95416546 -0.03722507
7.59914255 -18.27526665 1.95175254 0.94616789 -0.98368204 0.77673703
7.57862139 -18.10190582 0.58041322 0.94361275 -0.97435075 0.23098648
7.64117575 -18.09553719 -0.75112838 0.95140141 -0.97400796 -0.29892582
7.78373623 -17.72610283 -0.09341827 0.96915162 -0.95412284 -0.03717758
7.71304560 -18.22532654 1.95154250 0.96034992 -0.98099399 0.77665341
7.68986416 -18.04841232 0.58019370 0.95746362 -0.97147143 0.23089911
7.76725006 -17.84355736 -0.74544936 0.96709889 -0.96044493 -0.29666573
7.48505735 -18.13789177 1.14282274 0.93196315 -0.97628772 0.45480803
7.84610510 -17.71942520 -0.74289072 0.97691715 -0.95376343 -0.29564747
7.54842329 -18.08510208 2.51275849 0.93985283 -0.97344631 1.00000000
7.44003820 -17.71346474 1.11611354 0.92635781 -0.95344257 0.44417861
8.00559998 -17.77736855 -0.74657267 0.99677581 -0.95688224 -0.29711279
7.65662909 -18.17459488 -0.20342213 0.95332551 -0.97826332 -0.08095570
6.92434454 -18.32085037 -0.29378852 0.86214888 -0.98613566 -0.11691873
7.65850163 -17.86522102 -0.20247781 0.95355862 -0.96161097 -0.08057989
7.04720592 -18.29751968 -0.29396367 0.87744635 -0.98487985 -0.11698843
7.56933594 -18.21705246 1.84755790 0.94245666 -0.98054862 0.73527080
7.09063244 -18.07035446 -0.29240319 0.88285339 -0.97265249 -0.11636741
7.69297075 -18.19111824 1.84996200 0.95785040 -0.97915268 0.73622751
7.68109560 -18.07624245 0.48603806 0.95637184 -0.97296941 0.19342808
7.26124001 -18.25238991 -0.29425028 0.90409565 -0.98245072 -0.11710249
7.52085543 -18.06693077 2.37055421 0.93642032 -0.97246820 0.94340712
7.42929506 -17.73006248 1.00720286 0.92502016 -0.95433599 0.40083551
7.55841589 -18.00344086 -0.29331082 0.94109702 -0.96905082 -0.11672862
7.72334385 -18.11295700 1.03503573 0.96163213 -0.97494560 0.41191214
7.54156733 -18.07517815 0.35154137 0.93899918 -0.97291213 0.13990258
7.50840044 -17.81543541 1.65901673 0.93486959 -0.95893127 0.66023725
7.56533957 -17.81570625 0.34579557 0.94195908 -0.95894581 0.13761592
7.88362551 -17.90495300 -0.29361334 0.98158878 -0.96374959 -0.11684901
