15.54714870 8.80813503 -0.40303463 0.98251837 0.83212531 -0.23886627
15.40660286 8.85671234 -0.40158048 0.97363639 0.83671451 -0.23800443
15.61353016 9.24149704 0.19503883 0.98671341 0.87306601 0.11559353
15.34201908 8.94829178 -0.40143210 0.96955496 0.84536624 -0.23791650
15.60826683 9.37138557 0.19617625 0.98638076 0.88533688 0.11626764
15.48234272 9.38172626 1.44656086 0.97842288 0.88631380 0.85733229
15.31989098 9.06491852 -0.40202564 0.96815658 0.85638422 -0.23826827
15.29648209 9.31505394 0.19074599 0.96667719 0.88001513 0.11304930
15.41460896 9.47359276 1.44568872 0.97414237 0.89499265 0.85681540
15.55563259 9.33731747 -0.40710035 0.98305452 0.88211840 -0.24127589
15.55398655 9.39617157 0.83023787 0.98295045 0.88767850 0.49205652
15.40546989 9.60193062 1.45092177 0.97356480 0.90711701 0.85991687
15.29182529 9.30984783 -0.40353915 0.96638292 0.87952328 -0.23916528
15.35282230 9.37344074 0.82044739 0.97023767 0.88553107 0.48625401
15.50344086 9.04209995 0.09056547 0.97975618 0.85422850 0.05367538
15.49554634 9.59506512 0.83311117 0.97925729 0.90646845 0.49375945
15.43775654 9.63332748 -0.40790161 0.97560519 0.91008317 -0.24175078
15.39935112 8.82092381 -0.50626856 0.97317815 0.83333349 -0.30004984
15.64093971 9.25418663 0.09344158 0.98844558 0.87426484 0.05537996
15.44847393 9.70074749 0.83396256 0.97628248 0.91645247 0.49426404
15.55000496 8.97035217 0.71775997 0.98269886 0.84745032 0.42539433
15.36848068 9.72477913 -0.40775323 0.97122723 0.91872281 -0.24166283
15.39552212 8.94758892 -0.50751382 0.97293615 0.84529984 -0.30078787
15.53958893 9.32659817 0.09280527 0.98204058 0.88110572 0.05500283
15.54882908 9.90077877 0.84417874 0.98262453 0.93534994 0.50031883
15.37601757 8.99939251 0.71128422 0.97170353 0.85019380 0.42155635
15.51630020 9.38568401 1.35673892 0.98056883 0.88668770 0.80409753
15.31831646 9.03198147 -0.50701571 0.96805704 0.85327256 -0.30049267
15.31487274 9.32336807 0.09033640 0.96783942 0.88080055 0.05353961
15.47290134 9.98959827 0.84332734 0.97782624 0.94374090 0.49981424
15.30026150 9.08462715 0.71023667 0.96691608 0.85824615 0.42093548
15.41791821 9.45905972 1.35295939 0.97435153 0.89361966 0.80185753
15.61672783 9.34010696 -0.51560777 0.98691547 0.88238192 -0.30558491
15.41068268 9.58833027 1.35805357 0.97389424 0.90583217 0.80487669
15.35757732 9.31692696 -0.51075143 0.97053820 0.88019204 -0.30270672
15.15579700 9.48965454 0.08972554 0.95778650 0.89651006 0.05317758
15.42656136 9.39020443 0.72290248 0.97489768 0.88711476 0.42844212
15.12244701 9.27234936 -0.50610256 0.95567888 0.87598068 -0.29995146
14.95701218 9.46383953 0.08740938 0.94522405 0.89407122 0.05180486
15.51232243 9.03289127 0.02326515 0.98031747 0.85335851 0.01378854
15.43359852 9.52779961 0.72661650 0.97534245 0.90011370 0.43064332
15.25760460 9.48733330 -0.51083440 0.96422029 0.89629072 -0.30275589
15.46730614 9.13731289 0.02339080 0.97747260 0.86322349 0.01386301
15.62929249 9.78436756 0.74099642 0.98770952 0.92435229 0.43916586
15.51592636 8.94971180 0.63263381 0.98054522 0.84550035 0.37494266
15.34156418 9.67350292 -0.51436257 0.96952623 0.91387862 -0.30484691
15.36921501 8.91783524 -0.57774776 0.97127366 0.84248894 -0.34241340
15.56044960 9.32495213 0.02497043 0.98335892 0.88095021 0.01479921
15.58269787 9.89199448 0.74185354 0.98476493 0.93452007 0.43967384
15.37149429 8.99545288 0.62824965 0.97141767 0.84982163 0.37234429
15.44089603 9.34118843 1.24853742 0.97580361 0.88248408 0.73996985
14.29479599 9.42755032 0.08007912 0.90337461 0.89064288 0.04746044
15.45714951 9.39547825 0.02450372 0.97683078 0.88761300 0.01452260
15.51351261 9.98539066 0.74147260 0.98039269 0.94334340 0.43944809
15.27346325 9.06732941 0.62618649 0.96522254 0.85661197 0.37112153
15.43115616 9.46832085 1.25298142 0.97518808 0.89449459 0.74260366
15.50356388 9.33661938 0.64062840 0.97976398 0.88205242 0.37968081
15.43226910 9.60308647 1.25849795 0.97525841 0.90722620 0.74587315
15.47524643 9.37406254 -0.58576572 0.97797441 0.88558978 -0.34716538
15.12773514 9.45727253 0.02227788 0.95601308 0.89345086 0.01320342
15.36644554 8.84408188 -0.09715886 0.97109860 0.83552128 -0.05758308
15.42073822 9.41923714 0.63942492 0.97452968 0.88985753 0.37896755
14.91441727 9.45451927 0.02064440 0.94253224 0.89319074 0.01223530
15.35032368 8.96360683 -0.09705330 0.97007978 0.84681308 -0.05752051
15.37787914 9.49285221 0.63951087 0.97182119 0.89681214 0.37901849
15.45877743 8.83145714 -0.69371432 0.97693366 0.83432859 -0.41114321
14.73675632 9.43932533 0.01922633 0.93130475 0.89175534 0.01139485
15.32514858 9.04599094 -0.09700739 0.96848881 0.85459608 -0.05749331
15.69027233 9.82296276 0.65842295 0.99156320 0.92799842 0.39022708
15.39720058 9.69446945 -0.58828986 0.97304225 0.91585940 -0.34866136
15.39086819 8.92140865 -0.69327748 0.97264206 0.84282649 -0.41088429
14.54810524 9.44770908 0.01784415 0.91938275 0.89254737 0.01057568
15.42258167 9.79047394 0.64793539 0.97464621 0.92492914 0.38401145
15.36202240 8.97088814 0.51325113 0.97081912 0.84750098 0.30418819
15.54866123 9.37833881 1.14435565 0.98261392 0.88599378 0.67822450
15.25519180 8.97141266 -0.69040674 0.96406782 0.84755051 -0.40918291
15.40527439 9.35598564 -0.09648418 0.97355247 0.88388205 -0.05718321
15.36244106 9.88826656 0.64802134 0.97084558 0.93416786 0.38406238
15.27610207 9.04994774 0.51200742 0.96538925 0.85496992 0.30345109
15.32934761 9.37816238 1.13110983 0.96875417 0.88597709 0.67037410
14.33827782 9.27988720 -0.56067258 0.90612251 0.87669283 -0.33229345
15.40295410 9.18872738 -0.69783312 0.97340584 0.86808074 -0.41358429
15.39219570 9.48086262 -0.09636025 0.97272593 0.89567941 -0.05710977
15.46065426 9.29063320 0.52232313 0.97705227 0.87770802 0.30956492
15.40413857 9.55723476 1.14224195 0.97348070 0.90289450 0.67697179
15.33293533 9.27809334 -0.69739628 0.96898091 0.87652338 -0.41332540
15.21180344 9.50229263 -0.09668612 0.96132588 0.89770401 -0.05730290
15.48021698 8.85432625 -0.19714440 0.97828853 0.83648908 -0.11684144
15.37977314 9.37409401 0.52137208 0.97194088 0.88559276 0.30900124
15.21942902 9.64041519 -0.09650254 0.96180779 0.91075277 -0.05719410
15.41409683 8.91313267 -0.19705130 0.97411001 0.84204465 -0.11678626
15.47506618 9.53226280 0.52737129 0.97796303 0.90053535 0.31255680
14.72205925 9.42358971 -0.09773257 0.93037593 0.89026874 -0.05792309
15.28193951 8.96518993 -0.19675870 0.96575820 0.84696263 -0.11661285
15.64725971 9.77411556 0.53739434 0.98884499 0.92338371 0.31849715
15.40741062 9.69036293 -0.70613325 0.97368747 0.91547143 -0.41850352
14.51313496 9.41917610 -0.09814104 0.91717279 0.88985175 -0.05816519
15.58722878 9.87330341 0.53746754 0.98505127 0.93275428 0.31854054
15.37077522 8.95168114 0.42716861 0.97137225 0.84568644 0.25316975
15.58435154 9.38627148 1.04953587 0.98486942 0.88674319 0.62202775
14.34163857 9.43665504 -0.09844855 0.90633488 0.89150304 -0.05834744
15.43841553 9.32013607 -0.19780943 0.97564685 0.88049525 -0.11723559
15.52151966 9.96888924 0.53732121 0.98089868 0.94178444 0.31845382
15.22479343 8.99510288 0.42386633 0.96214676 0.84978861 0.25121257
15.35657597 9.38081646 1.03663731 0.97047490 0.88622785 0.61438316
15.40682220 9.43369389 -0.19791582 0.97365028 0.89122331 -0.11729864
15.82377434 8.89758968 -0.28238750 1.00000000 0.84057629 -0.16736241
15.32449245 9.97911358 0.53146833 0.96844739 0.94275039 0.31498498
15.43635178 9.56346321 1.04732096 0.97551644 0.90348291 0.62071502
15.40775681 8.79207230 -0.27909139 0.97370934 0.83060777 -0.16540891
15.44853306 9.39169598 0.43644038 0.97628623 0.88725567 0.25866482
15.39698887 9.69594860 -0.19834808 0.97302884 0.91599911 -0.11755482
15.35047913 8.88770771 -0.27907547 0.97008961 0.83964270 -0.16539948
15.38699818 9.45053864 1.67946804 0.97239745 0.89281464 0.99536920
15.40962410 9.50118828 0.43720245 0.97382736 0.89759964 0.25911650
15.24797535 8.92465687 -0.27851814 0.96361178 0.84313339 -0.16506916
15.40818501 9.56394577 1.68728149 0.97373641 0.90352851 1.00000000
15.38332844 9.58534813 0.43790102 0.97216558 0.90555042 0.25953051
15.43051243 9.95589542 -0.19890669 0.97514743 0.94055688 -0.11788590
15.44438648 9.75883198 0.44247341 0.97602421 0.92193985 0.26224041
15.37156105 8.95132446 0.30662417 0.97142190 0.84565270 0.18172674
15.45006943 9.30505657 -0.28144801 0.97638333 0.87907064 -0.16680561
15.35417175 9.83731365 0.44139382 0.97032297 0.92935419 0.26160058
15.28056335 9.02742958 0.30562490 0.96567124 0.85284257 0.18113451
15.45251369 9.42431450 0.94023764 0.97653782 0.89033723 0.55725002
15.37422085 9.39154243 -0.28128877 0.97158998 0.88724118 -0.16671123
15.59938145 9.34791279 0.31656691 0.98581928 0.88311934 0.18761951
15.35391521 9.49710751 0.93750197 0.97030675 0.89721411 0.55562866
15.38475800 9.35141373 0.31202024 0.97225589 0.88345009 0.18492483
15.38039684 9.66258240 -0.28246710 0.97198027 0.91284692 -0.16740958
15.41822624 9.44733620 1.54274356 0.97437096 0.89251214 0.91433680
15.50659275 10.35288334 0.45441240 0.97995538 0.97806132 0.26931629
15.40404224 9.49606895 0.31431857 0.97347456 0.89711601 0.18628697
15.38031197 9.52407360 1.54348421 0.97197491 0.89976168 0.91477579
15.49158096 9.65086651 0.31821573 0.97900671 0.91174012 0.18859671
15.56765079 9.83435440 0.32226276 0.98381400 0.92907465 0.19099526
15.67403221 10.03962994 0.32725912 0.99053687 0.94846749 0.19395645
15.66937160 10.17596340 0.32900783 0.99024236 0.96134728 0.19499286
15.56334686 10.24677372 0.32775876 0.98354203 0.96803689 0.19425257
15.68171978 10.46625233 0.33325472 0.99102271 0.98877156 0.19750986
15.48805237 10.58510685 0.33090645 0.97878373 1.00000000 0.19611810
