5.76578426 0.62596160 2.22504282 0.80791360 0.58165401 0.83490205
6.11932945 0.98367232 1.72579312 0.85745305 0.91404474 0.64756876
6.48888254 0.70658451 1.76741290 0.90923560 0.65657014 0.66318572
6.18513298 0.41219750 1.97271073 0.86667359 0.38302082 0.74021959
6.50670338 0.85085076 1.41781700 0.91173273 0.79062474 0.53200698
5.68951130 0.65413237 2.19671106 0.79722607 0.60783070 0.82427114
6.35798931 0.31048411 2.38642120 0.89089459 0.28850701 0.89545602
6.07889128 1.01627862 1.71595573 0.85178679 0.94434309 0.64387751
6.54179096 0.75378406 1.78338170 0.91664922 0.70042872 0.66917771
5.80568171 0.80801082 1.90964246 0.81350410 0.75081718 0.71655446
6.07238531 0.44266057 1.93696404 0.85087514 0.41132760 0.72680634
5.67418528 0.68856013 2.19235229 0.79507858 0.63982159 0.82263559
6.41749287 0.35401869 2.40989423 0.89923233 0.32896009 0.90426379
6.62882090 0.80575842 1.80893171 0.92884403 0.74872416 0.67876482
6.24663544 0.35348153 1.64189255 0.87529147 0.32846096 0.61608678
6.16239882 0.48847830 1.96716380 0.86348802 0.45390221 0.73813820
5.54215145 0.70836163 2.14222646 0.77657771 0.65822148 0.80382693
6.45058346 0.39662489 2.42340922 0.90386909 0.36855048 0.90933502
6.23444033 0.94613063 2.05702972 0.87358266 0.87916040 0.77185857
6.22886992 0.39170286 1.63775110 0.87280208 0.36397684 0.61453277
6.04549646 0.51707798 1.93018448 0.84710747 0.48047751 0.72426248
6.52793455 0.56818557 1.36717105 0.91470766 0.52796751 0.51300311
5.49878883 0.73810607 2.12697077 0.77050161 0.68586051 0.79810250
6.26776552 0.99138540 2.07025695 0.87825227 0.92121190 0.77682179
6.00424623 0.55144441 1.91785812 0.84132737 0.51241136 0.71963727
6.32761669 0.59021550 1.32492316 0.88663870 0.54843813 0.49715045
5.50448275 0.76525939 2.13060308 0.77129948 0.71109182 0.79946548
6.51479673 0.47274768 2.44972754 0.91286677 0.43928504 0.91921043
6.49191570 0.48083901 1.70970893 0.90966064 0.44680366 0.64153349
5.95992994 0.57556736 1.90429902 0.83511770 0.53482682 0.71454948
5.51432562 0.80192119 2.13641477 0.77267867 0.74515855 0.80164617
6.29372931 0.49579433 2.36650467 0.88189036 0.46070036 0.88798273
6.26826572 0.91332096 1.71418357 0.87832230 0.84867311 0.64321250
6.43293715 0.51695561 1.69469619 0.90139645 0.48036379 0.63590026
5.72537231 0.58845437 1.82910776 0.80225098 0.54680163 0.68633550
5.70456648 0.86549270 2.21341944 0.79933560 0.80423027 0.83054060
6.27745581 0.53417748 2.36152554 0.87961006 0.49636665 0.88611442
6.21663904 0.94587553 1.70140851 0.87108827 0.87892336 0.63841891
6.43918276 0.55822897 1.69728458 0.90227157 0.51871568 0.63687152
5.67807579 0.61951476 1.81493235 0.79562372 0.57566345 0.68101645
5.94494486 0.34388095 1.83585155 0.83301795 0.31953993 0.68886596
6.25536680 0.57184708 2.35441256 0.87651491 0.53136986 0.88344544
6.16294718 0.97752184 1.68810117 0.86356485 0.90832961 0.63342565
6.47208452 0.60219115 1.70712054 0.90688187 0.55956608 0.64056224
5.68918562 0.65697855 1.81986296 0.79718041 0.61047542 0.68286657
5.92552614 0.38018626 1.83045602 0.83029693 0.35327542 0.68684137
6.16424084 0.60230857 2.32098126 0.86374617 0.55967522 0.87090099
6.45856428 0.64185894 1.70453215 0.90498734 0.59642607 0.63959104
5.65096378 0.68844831 1.80876911 0.79182470 0.63971770 0.67870384
5.87542629 0.41421944 1.81546855 0.82327688 0.38489962 0.68121767
6.06554890 0.63084954 2.28470469 0.84991723 0.58619595 0.85728896
6.38801289 0.32187891 2.33947730 0.89510155 0.29909527 0.87784129
5.52874994 0.70052946 2.41521811 0.77469987 0.65094370 0.90626144
6.46016502 0.68305379 1.70608521 0.90521163 0.63470501 0.64017379
6.31213713 0.33437112 1.60064006 0.88446969 0.31070325 0.60060763
5.64464045 0.72369188 1.80815279 0.79093868 0.67246658 0.67847258
5.94501925 0.45643106 1.83824956 0.83302838 0.42412338 0.68976575
6.02721453 0.65546751 2.27118969 0.84454572 0.60907137 0.85221773
6.38080788 0.35168636 2.33738852 0.89409196 0.32679284 0.87705749
6.47415018 0.71545255 1.71074426 0.90717131 0.66481048 0.64192200
6.30275774 0.36369127 1.59863639 0.88315541 0.33794799 0.59985578
5.78352118 0.66494566 2.17943144 0.81039894 0.61787862 0.81778729
6.38408756 0.39209792 2.33947730 0.89455152 0.36434394 0.87784129
6.47336292 0.75657696 1.71177971 0.90706098 0.70302397 0.64231050
6.33127117 0.40516460 1.60665119 0.88715076 0.37648571 0.60286319
5.85788631 0.51487023 1.81247103 0.82081914 0.47842601 0.68009287
6.36941433 0.57449275 1.27593088 0.89249545 0.53382826 0.47876710
6.46195126 0.43739423 2.36941648 0.90546197 0.40643403 0.88907534
6.39235353 0.44921377 1.62318158 0.89570975 0.41741696 0.60906589
5.85073519 0.55132115 1.81127203 0.81981707 0.51229686 0.67964298
6.38128567 0.61595786 1.27914202 0.89415890 0.57235831 0.47997203
6.37865639 0.47228965 2.33947730 0.89379048 0.43885943 0.87784129
6.42223310 0.49177852 1.63169718 0.89989656 0.45696881 0.61226118
5.67678261 0.86439037 1.82479346 0.79544252 0.80320597 0.68471664
5.76169586 0.57977486 1.78429461 0.80734074 0.53873646 0.66952026
6.38313866 0.65662318 1.28034616 0.89441854 0.61014527 0.48042384
6.31387472 0.50759828 2.31650090 0.88471317 0.47166881 0.86921984
6.42866707 0.53288996 1.63420177 0.90079808 0.49517027 0.61320096
5.76173496 0.61635756 1.78549361 0.80734617 0.57272977 0.66997015
6.38473225 0.69733608 1.28155029 0.89464188 0.64797634 0.48087567
6.30682421 0.54694730 2.31510830 0.88372523 0.50823259 0.86869729
6.43483734 0.57410163 1.63670635 0.90166271 0.53346485 0.61414075
5.79680157 0.95782405 1.86793602 0.81225979 0.89002609 0.70090497
5.73498917 0.65004867 1.77829969 0.80359852 0.60403609 0.66727078
5.68530035 0.82594723 2.15026784 0.79663604 0.76748395 0.80684429
6.13795710 0.56199503 2.25314140 0.86006320 0.52221519 0.84544545
5.62221050 0.64275581 2.40186858 0.78779572 0.59725946 0.90125233
6.27024126 0.92268348 1.66363525 0.87859917 0.85737294 0.62424529
6.44941568 0.60599434 1.64121473 0.90370542 0.56310010 0.61583245
5.72048807 0.67576396 1.77470267 0.80156660 0.62793118 0.66592109
6.41365242 0.77182776 1.28917682 0.89869422 0.71719527 0.48373738
5.69662237 0.86423451 2.15666962 0.79822248 0.80306113 0.80924642
6.16790295 0.60372698 2.26567411 0.86425930 0.56099319 0.85014814
5.54326534 0.66931349 2.36941934 0.77673376 0.62193727 0.88907641
6.23187590 0.95697272 1.65483463 0.87322330 0.88923502 0.62094301
6.44355345 0.64631778 1.64071381 0.90288401 0.60056931 0.61564445
5.69718695 0.70940268 1.76870763 0.79830158 0.65918881 0.66367155
6.02809191 0.35845685 1.79852545 0.84466869 0.33308411 0.67486012
6.12294865 0.63832748 2.25035644 0.85796022 0.59314454 0.84440047
6.45862532 0.68878382 1.64572299 0.90499592 0.64002943 0.61752409
5.71533012 0.74807638 1.77590168 0.80084383 0.69512510 0.66637099
5.99708319 0.39434472 1.78980935 0.84032369 0.36643171 0.67158955
5.68632269 0.63039500 2.08882451 0.79677927 0.58577359 0.78378892
5.49980927 0.73442519 2.35438156 0.77064461 0.68244016 0.88343382
6.46186876 0.73019624 1.64772666 0.90545040 0.67851055 0.61827594
5.72375584 0.78574175 1.78009820 0.80202448 0.73012435 0.66794562
6.35897255 0.45952576 1.90079463 0.89103234 0.42699903 0.71323454
5.34767151 0.74888867 2.29027414 0.74932677 0.69587988 0.85937881
6.46292305 0.77145314 1.64922941 0.90559810 0.71684718 0.61883980
5.73382235 0.82380718 1.78489411 0.80343503 0.76549542 0.66974521
6.33065987 0.36657086 1.54355097 0.88706511 0.34062377 0.57918608
6.36931133 0.50056309 1.90486205 0.89248103 0.46513158 0.71476072
6.13775253 0.75697273 2.26080012 0.86003453 0.70339173 0.84831923
5.31922197 0.77910304 2.27998543 0.74534035 0.72395557 0.85551816
6.44022989 0.37526143 2.28808379 0.90241832 0.34869918 0.85855693
6.47524500 0.81416547 1.65373766 0.90732467 0.75653619 0.62053144
5.72286940 0.85898757 1.78309560 0.80190027 0.79818559 0.66907036
6.30499506 0.40477315 1.53775513 0.88346893 0.37612197 0.57701135
6.36604023 0.54057252 1.90486205 0.89202267 0.50230902 0.71476072
6.09504747 0.78101271 2.24617887 0.85405064 0.72573006 0.84283292
5.35001659 0.80925018 2.29502296 0.74965537 0.75196880 0.86116070
6.24688053 0.39293498 2.21895051 0.87532580 0.36512175 0.83261603
5.76026249 0.89222687 1.79628456 0.80713987 0.82907212 0.67401922
6.34753990 0.43769321 1.54886401 0.88943040 0.40671185 0.58117974
6.22386599 0.83684886 2.29630947 0.87210095 0.77761394 0.86164343
5.43014908 0.85597557 2.33222103 0.76088369 0.79538679 0.87511849
6.34750843 0.43965837 2.25622821 0.88942599 0.40853792 0.84660375
6.32964087 0.86708945 1.61817229 0.88692236 0.80571401 0.60718626
6.37755728 0.48014870 1.55707490 0.89363647 0.44616219 0.58426070
6.32249975 0.89024591 2.33529973 0.88592172 0.82723141 0.87627375
6.66914034 0.50510299 2.37348390 0.93449372 0.46935016 0.89060158
6.34516048 0.90979844 1.62368250 0.88909698 0.84539992 0.60925382
6.38988543 0.52152240 1.56093884 0.89536393 0.48460734 0.58571053
5.78861046 0.59061444 1.73170185 0.81111205 0.54880881 0.64978588
5.74706268 0.84793311 2.12154865 0.80529028 0.78791362 0.79606795
6.43897581 0.52768552 2.29147267 0.90224260 0.49033421 0.85982853
6.31632948 0.94627869 1.61767137 0.88505715 0.87929797 0.60699826
6.38068390 0.56113219 1.55948985 0.89407462 0.52141339 0.58516687
5.77907991 0.62633485 1.72995853 0.80977660 0.58200079 0.64913177
6.04040766 0.33843642 1.73805857 0.84639436 0.31448078 0.65217113
6.28470516 0.70043504 1.20088911 0.88062584 0.65085596 0.45060921
6.10482168 0.65557426 2.53088570 0.85542023 0.60917056 0.94966340
6.39634895 0.60309494 1.56431973 0.89626962 0.56040591 0.58697915
6.10138845 0.38011032 1.75662017 0.85493916 0.35320488 0.65913600
6.28018045 0.73990893 1.20088911 0.87999183 0.68753576 0.45060921
6.11721945 0.57778883 2.17760611 0.85715741 0.53689104 0.81710237
6.95919180 0.28927475 2.39850569 0.97513634 0.26879895 0.89999050
5.97046232 0.67868137 2.47610784 0.83659351 0.63064206 0.92910910
5.98652983 0.97497344 1.53451860 0.83884490 0.90596163 0.57579690
6.40594625 0.64467520 1.56770074 0.89761442 0.59904295 0.58824784
6.49724197 0.44443873 1.87361431 0.91040695 0.41297990 0.70303565
6.89550495 0.31936666 2.37673283 0.96621239 0.29676086 0.89182067
5.54775143 0.65568560 2.29943013 0.77736241 0.60927403 0.86281437
6.00861835 1.00756717 1.54153144 0.84193999 0.93624824 0.57842833
6.41827297 0.67653149 1.57156467 0.89934164 0.62864435 0.58969766
6.50656319 0.47585535 1.87698913 0.91171306 0.44217274 0.70430201
6.40684795 0.33852565 2.20650816 0.89774078 0.31456369 0.82794732
5.58378649 0.69569451 2.31640339 0.78241169 0.64645094 0.86918324
5.98117399 1.04171598 1.53602135 0.83809447 0.96797991 0.57636076
6.41196728 0.71662343 1.57108176 0.89845806 0.66589844 0.58951646
6.34878635 0.37733632 1.47907686 0.88960505 0.35062721 0.55499351
6.50535822 0.51687366 1.87755167 0.91154420 0.48028764 0.70451307
6.44016123 0.53754383 1.16861427 0.90240866 0.49949473 0.43849874
5.70069075 0.63663852 2.03052807 0.79879254 0.59157515 0.76191437
6.23305178 0.36917451 2.14646769 0.87338805 0.34304312 0.80541831
6.39963150 0.75596154 1.56914973 0.89672959 0.70245212 0.58879155
6.40066242 0.42061919 1.49204171 0.89687401 0.39084637 0.55985832
6.47902918 0.55584073 1.87080193 0.90785491 0.51649648 0.70198035
6.39747858 0.57460386 1.16129577 0.89642793 0.53393149 0.43575263
5.68350315 0.67085373 2.02578354 0.79638422 0.62336850 0.76013404
6.22307158 0.40786105 2.14382839 0.87198961 0.37899131 0.80442798
6.40438128 0.79738575 1.57156467 0.89739513 0.74094415 0.58969766
6.41148090 0.46176255 1.49528289 0.89838994 0.42907748 0.56107450
5.76972151 0.83720189 1.73518825 0.80846530 0.77794200 0.65109408
6.50599670 0.59925979 1.87980151 0.91163367 0.55684221 0.70535725
6.40940428 0.61624479 1.16422319 0.89809895 0.57262498 0.43685108
5.69037437 0.70798439 2.02985024 0.79734701 0.65787095 0.76166004
6.27501059 0.45069939 2.16296220 0.87926745 0.41879740 0.81160754
6.59656572 0.59729826 2.66503453 0.92432439 0.55501956 1.00000000
6.43561554 0.50407916 1.50176525 0.90177172 0.46839878 0.56350684
5.78704071 0.87695694 1.74216115 0.81089211 0.81488305 0.65371054
5.89070463 0.58185560 1.69981050 0.82541770 0.54066992 0.63781929
5.72870588 0.74948913 2.04543924 0.80271810 0.69643784 0.76750946
6.53187656 0.50957561 2.25401258 0.91526002 0.47350618 0.84577239
6.23129320 0.60484010 2.51700401 0.87314165 0.56202751 0.94445455
6.33811951 0.86996961 1.55755782 0.88811040 0.80839032 0.58444190
6.43813896 0.54497916 1.50315440 0.90212530 0.50640374 0.56402808
6.25545406 0.65631688 1.80836761 0.87652713 0.60986060 0.67855316
6.23600817 0.66938257 1.13311911 0.87380230 0.62200147 0.42517990
6.16018343 0.62747788 2.48905945 0.86317760 0.58306295 0.93396890
6.32050514 0.89787388 1.55417693 0.88564223 0.83431941 0.58317327
6.42774582 0.57464343 1.50130224 0.90066904 0.53396827 0.56333315
6.20839643 0.68111646 1.79543078 0.86993331 0.63290483 0.67369890
6.37434769 0.72430426 1.15983200 0.89318675 0.67303562 0.43520337
5.71267080 0.81134832 2.04272819 0.80047125 0.75391841 0.76649219
6.06500912 0.54174966 2.09236526 0.84984159 0.50340283 0.78511751
5.52770615 0.89241886 2.30483055 0.77455360 0.82925051 0.86484081
6.01798344 0.65168166 2.43241501 0.84325224 0.60555351 0.91271424
6.45113134 0.61752898 1.50778461 0.90394586 0.57381827 0.56576550
6.19064379 0.71860570 1.79149342 0.86744577 0.66774040 0.67222148
6.42044830 0.77027076 1.16934621 0.89964646 0.71574849 0.43877339
5.69629860 0.84552878 2.03866148 0.79817712 0.78567946 0.76496625
5.92236233 0.56700641 2.04354119 0.82985365 0.52687186 0.76679724
5.60700655 0.64422923 2.26550293 0.78566533 0.59862858 0.85008389
6.45486879 0.65881616 1.50963676 0.90446955 0.61218297 0.56646049
5.87967825 1.03365910 1.77760673 0.82387263 0.96049333 0.66701078
6.18981791 0.75794238 1.79261839 0.86733007 0.70429271 0.67264360
5.61756182 0.68117666 2.27154517 0.78714436 0.63296074 0.85235113
6.45060205 0.69936001 1.50963676 0.90387166 0.64985704 0.56646049
5.90317202 1.07617521 1.78690398 0.82716465 1.00000000 0.67049938
6.41535807 0.82574135 1.86067748 0.89893323 0.76729268 0.69818139
5.58053589 0.60629445 1.92609930 0.78195620 0.56337893 0.72272956
5.71609020 0.72921991 2.31383944 0.80095035 0.67760336 0.86822116
6.46735096 0.74225014 1.51473010 0.90621859 0.68971127 0.56837165
6.44048786 0.87004948 1.86967707 0.90245444 0.80846453 0.70155829
5.49470377 0.73686981 2.22471905 0.76992923 0.68471175 0.83478057
6.46062708 0.78264284 1.51426697 0.90527642 0.72724479 0.56819791
5.82461500 0.82609522 1.68912351 0.81615710 0.76762152 0.63380927
5.75248528 0.69755930 1.98943865 0.80605012 0.64818376 0.74649638
5.40923262 0.76033759 2.19148779 0.75795281 0.70651841 0.82231122
6.45172071 0.82274026 1.51334095 0.90402842 0.76450402 0.56785041
5.81930971 0.86267585 1.68912351 0.81541371 0.80161279 0.63380927
5.74538612 0.72420031 1.98811913 0.80505538 0.67293906 0.74600124
5.41475773 0.78711742 2.19526410 0.75872701 0.73140270 0.82372820
6.44777203 0.85313404 1.51334095 0.90347511 0.79274642 0.56785041
5.74072266 0.76028508 1.98811913 0.80440193 0.70646960 0.74600124
5.41520119 0.82193691 2.19752979 0.75878918 0.76375753 0.82457834
6.45963669 0.89598119 1.51750827 0.90513760 0.83256072 0.56941414
5.70215416 0.79178464 1.97624302 0.79899758 0.73573953 0.74154502
5.45568562 0.86301047 2.21641135 0.76446193 0.80192375 0.83166325
6.02139854 0.99847317 1.75380778 0.84373081 0.92779797 0.65808070
5.68958902 0.82653719 1.97360384 0.79723698 0.76803219 0.74055469
6.01122093 1.03564763 1.75268281 0.84230471 0.96234107 0.65765858
5.98947191 1.07074511 1.74818313 0.83925718 0.99495423 0.65597016
7.00141048 0.28983465 2.33838105 0.98105210 0.26931921 0.87742990
6.99188375 0.33343688 2.33581424 0.97971720 0.30983511 0.87646675
6.21450806 0.36263576 2.07336307 0.87078971 0.33696720 0.77798730
6.22344637 0.40244567 2.07721329 0.87204212 0.37395924 0.77943206
6.41120386 0.40054354 1.42432535 0.89835113 0.37219176 0.53444910
7.13663483 0.33368286 1.99468255 1.00000000 0.31006369 0.74846405
6.16601229 0.43747255 2.05860424 0.86399436 0.40650681 0.77244937
6.44552183 0.44347814 1.43274021 0.90315980 0.41208729 0.53760660
6.39870024 0.33738369 1.78536415 0.89659905 0.31350255 0.66992158
6.39788723 0.48046649 1.42255378 0.89648515 0.44645751 0.53378439
6.03162241 0.35488278 1.68152475 0.84516340 0.32976300 0.63095796
6.40535784 0.53624064 2.14202404 0.89753199 0.49828377 0.80375093
6.45693064 0.52591771 1.43672621 0.90475845 0.48869154 0.53910232
6.14635563 0.40079644 1.71486270 0.86124003 0.37242675 0.64346737
6.44335556 0.58034468 2.15614128 0.90285629 0.53926599 0.80904818
6.45349884 0.56647718 1.43672621 0.90427756 0.52638006 0.53910232
6.57419586 0.46124354 1.83728385 0.92118990 0.42859522 0.68940341
5.97112656 0.56470090 1.99636042 0.83668655 0.52472949 0.74909365
6.43328428 0.59521002 1.43274021 0.90144509 0.55307907 0.53760660
6.53089380 0.49933600 1.82580686 0.91512233 0.46399137 0.68509686
5.93731594 0.59906191 1.98609340 0.83194894 0.55665833 0.74524117
6.41583586 0.63423365 1.42963994 0.89900017 0.58934051 0.53644329
6.69838190 0.56260109 2.63346815 0.93859112 0.52277833 0.98815536
6.48929119 0.53706729 1.81487644 0.90929288 0.49905190 0.68099546
5.81293774 0.62301636 1.94502521 0.81452084 0.57891721 0.72983116
6.42141914 0.67558360 1.43185449 0.89978248 0.62776357 0.53727430
6.26349401 0.56441265 2.46146870 0.87765372 0.52446169 0.92361605
6.46279955 0.57570934 1.80831814 0.90558082 0.53495872 0.67853463
6.23721504 0.38159078 2.03813386 0.87397146 0.35458052 0.76476830
6.47130108 0.72214282 1.44425535 0.90677208 0.67102718 0.54192746
6.19693756 0.59748524 2.43637013 0.86832768 0.55519331 0.91419834
6.46862793 0.61724836 1.81105077 0.90639752 0.57355750 0.67955995
6.19680738 0.41833949 2.02553678 0.86830944 0.38872805 0.76004148
6.47438097 0.76372677 1.44602692 0.90720361 0.70966768 0.54259217
6.38426208 0.42007804 1.38151765 0.89457595 0.39034355 0.51838642
6.20599985 0.63778204 2.44153762 0.86959749 0.59263772 0.91613734
6.45692301 0.32092124 2.48438907 0.90475738 0.29820538 0.93221647
6.45888186 0.65727723 1.80941117 0.90503186 0.61075300 0.67894471
5.77762032 0.72954404 1.93732500 0.80957210 0.67790455 0.72694182
6.18837643 0.45686603 2.02364707 0.86712807 0.42452756 0.75933242
6.48106241 0.80587131 1.44868422 0.90813982 0.74882907 0.54358929
6.44578505 0.46461359 1.39577806 0.90319669 0.43172672 0.52373731
6.07545042 0.65289158 2.39060211 0.85130465 0.60667777 0.89702481
6.40323210 0.34867346 2.46404815 0.89723408 0.32399321 0.92458397
6.48248625 0.69064355 1.81706250 0.90833932 0.64175755 0.68181574
5.77975035 0.75752038 1.93924999 0.80987054 0.70390058 0.72766411
6.20697641 0.48759010 2.03057575 0.86973435 0.45307687 0.76193225
6.49846172 0.83921731 1.45355606 0.91057789 0.77981478 0.54541737
6.50000095 0.49914309 1.40831006 0.91079354 0.46381211 0.52843970
5.83492136 0.66335720 2.29611325 0.81760120 0.61640263 0.86156982
6.43068027 0.39061272 2.47567153 0.90108019 0.36296389 0.92894536
6.48566341 0.73224747 1.81924868 0.90878457 0.68041658 0.68263608
5.78237915 0.79487848 1.94181681 0.81023890 0.73861438 0.72862726
5.76675129 0.49092135 1.88507795 0.80804908 0.45617232 0.70733714
6.46408272 0.87601238 1.44691265 0.90576059 0.81400537 0.54292452
6.48311090 0.53888398 1.40528512 0.90842688 0.50073999 0.52730465
5.64616299 0.67720997 2.22229385 0.79115200 0.62927485 0.83387059
6.53249407 0.77929592 1.83400476 0.91534656 0.72413480 0.68817300
5.73707962 0.52481747 1.87625980 0.80389142 0.48766917 0.70402831
6.47765160 0.57943976 1.40485299 0.90766191 0.53842509 0.52714252
5.59755802 0.70692319 2.20457721 0.78434139 0.65688485 0.82722276
6.43641663 0.47217292 2.48003030 0.90188396 0.43875098 0.93058091
6.52365255 0.81983358 1.83291173 0.91410768 0.76180309 0.68776286
6.57095861 0.48633114 1.78444624 0.92073625 0.45190701 0.66957718
6.23624802 0.93891549 2.10095572 0.87383592 0.87245595 0.78834093
5.76201677 0.56352592 1.88570774 0.80738568 0.52363771 0.70757347
6.44860506 0.61778677 1.39923513 0.90359187 0.57405782 0.52503455
5.46960926 0.72525442 2.15511823 0.76641291 0.67391855 0.80866426
6.54665899 0.52127576 2.52434421 0.91733140 0.48437816 0.94720882
6.55431843 0.52656871 1.78072023 0.91840464 0.48929644 0.66817904
5.82824421 0.60674834 1.90901256 0.81666559 0.56380069 0.71631813
5.43918276 0.75592881 2.14478350 0.76214951 0.70242167 0.80478638
6.34083748 0.54563242 2.44516015 0.88849121 0.50701076 0.91749662
6.51629925 0.56485075 1.77113891 0.91307729 0.52486879 0.66458386
5.60914564 0.62034386 1.83720851 0.78596509 0.57643390 0.68937510
6.30827618 0.68486267 1.36984992 0.88392866 0.63638586 0.51400834
5.41533232 0.77856690 2.13666344 0.75880754 0.72345740 0.80173951
6.21382427 0.56461447 2.39648747 0.87069386 0.52464920 0.89923316
5.85558510 0.83682388 1.64545429 0.82049668 0.77759075 0.61742324
6.50204277 0.59453434 1.76794517 0.91107965 0.55245125 0.66338545
6.30886078 0.71500939 1.37071419 0.88401061 0.66439867 0.51433259
5.40482235 0.81172818 2.13444877 0.75733489 0.75427139 0.80090851
6.19345665 0.60207754 2.38994932 0.86783993 0.55946052 0.89677989
5.92438173 0.88493532 1.66676867 0.83013660 0.82229668 0.62542105
6.50201750 0.63573909 1.76900971 0.91107613 0.59073937 0.66378492
5.80935049 0.70646715 1.90649319 0.81401819 0.65646106 0.71537280
6.51178598 0.77880406 1.41695273 0.91244489 0.72367775 0.53168267
5.52625179 0.86598796 2.18538404 0.77434981 0.80469048 0.82002091
5.97447538 0.61941737 2.30568004 0.83715582 0.57557297 0.86515951
6.50173092 0.67696702 1.77007437 0.91103595 0.62904906 0.66418439
5.74263477 0.73521757 1.88570774 0.80466986 0.68317646 0.70757347
6.24016857 0.38651276 1.98996770 0.87438530 0.35915411 0.74669492
6.49319696 0.81803674 1.41392779 0.90984017 0.76013339 0.53054762
5.90005541 0.64943749 2.27807450 0.82672793 0.60346818 0.85480112
6.09500074 0.98950869 1.71923494 0.85404408 0.91946805 0.64510792
6.52801895 0.72109675 1.77859104 0.91471946 0.67005515 0.66738009
5.73602009 0.77103859 1.88507795 0.80374295 0.71646196 0.70733714
6.19966030 0.42299843 1.97764134 0.86870921 0.39305720 0.74206966
6.48986530 0.85906851 1.41435993 0.90937334 0.79826081 0.53070980
