-7.08802605 -2.46429825 1.66968632 -0.86392725 -0.80305004 0.70863116
-7.01937580 -2.47739410 1.65595675 -0.85555977 -0.80731761 0.70280421
-6.96700716 -2.50813580 1.64709890 -0.84917676 -0.81733555 0.69904482
-6.86880493 -2.52138853 1.62716889 -0.83720738 -0.82165426 0.69058633
-7.67824173 -2.68238783 2.27559543 -0.93586594 -0.87411970 0.96578485
-6.77983809 -2.53695059 1.60945332 -0.82636362 -0.82672554 0.68306768
-7.53992653 -2.68699956 2.23897839 -0.91900730 -0.87562251 0.95024425
-6.70733309 -2.55779624 1.59572375 -0.81752628 -0.83351856 0.67724073
-6.65940094 -2.41798353 1.97774041 -0.81168407 -0.78795731 0.83937228
-7.05836105 -2.55116034 1.27383387 -0.86031151 -0.83135611 0.54062748
-6.63665199 -2.57854342 1.58243704 -0.80891132 -0.84027952 0.67160171
-6.71285248 -2.47346902 1.99741518 -0.81819904 -0.80603856 0.84772247
-6.86515999 -2.51741314 1.24018586 -0.83676308 -0.82035875 0.52634698
-6.57367563 -2.58962703 1.57003605 -0.80123538 -0.84389138 0.66633862
-6.69358063 -2.51423478 1.99632215 -0.81585008 -0.81932306 0.84725857
-6.80127287 -2.54242635 1.23125875 -0.82897621 -0.82850993 0.52255821
-6.53919506 -2.62356496 1.56560719 -0.79703271 -0.85495085 0.66445893
-6.67047215 -2.55347037 1.99413610 -0.81303346 -0.83210886 0.84633076
-6.80355644 -2.59217596 1.23469222 -0.82925451 -0.84472203 0.52401543
-6.51536798 -2.66162872 1.56383562 -0.79412854 -0.86735487 0.66370708
-7.78470659 -2.71150160 1.78988600 -0.94884247 -0.88360709 0.75964504
-6.40476513 -2.68034744 2.31656361 -0.78064770 -0.87345481 0.98317218
-6.71741438 -2.60758138 1.22164512 -0.81875509 -0.84974223 0.51847810
-6.51290560 -2.70854592 1.56737876 -0.79382843 -0.88264394 0.66521084
-7.02165604 -2.49737310 1.61487091 -0.85583770 -0.81382823 0.68536693
-6.49498510 -2.57985759 1.95041418 -0.79164416 -0.84070778 0.82777476
-6.31643295 -2.68989539 2.29025435 -0.76988125 -0.87656623 0.97200626
-6.68625641 -2.64389896 1.21889830 -0.81495738 -0.86157721 0.51731229
-6.48140764 -2.74329090 1.56383562 -0.78998929 -0.89396638 0.66370708
-6.92681313 -2.51302290 1.59628916 -0.84427774 -0.81892812 0.67748070
-6.44123793 -2.60535693 1.93893719 -0.78509319 -0.84901732 0.82290381
-7.83366823 -2.70448041 2.25339627 -0.95481014 -0.88131911 0.95636332
-6.28725624 -2.72422147 2.28576255 -0.76632506 -0.88775218 0.97009993
-6.65673351 -2.68066907 1.21649492 -0.81135893 -0.87355959 0.51629227
-6.47298813 -2.78784370 1.56605005 -0.78896308 -0.90848500 0.66464692
-6.84855366 -2.53363228 1.58159649 -0.83473903 -0.82564420 0.67124498
-6.54200935 -2.69447088 1.97500777 -0.79737574 -0.87805724 0.83821255
-7.82562017 -2.75682759 2.25605774 -0.95382923 -0.89837766 0.95749289
-6.17999935 -2.72367501 2.25239468 -0.75325197 -0.88757408 0.95593828
-6.63247538 -2.71943092 1.21512151 -0.80840224 -0.88619107 0.51570940
-6.48032188 -2.83948946 1.57225049 -0.78985691 -0.92531496 0.66727841
-6.77945614 -2.55677819 1.56906450 -0.82631707 -0.83318681 0.66592628
-6.42638826 -2.68199229 1.94330943 -0.78328323 -0.87399077 0.82475948
-7.52729177 -2.69246006 2.17248774 -0.91746736 -0.87740195 0.92202497
-6.03062868 -2.69135976 2.20170116 -0.73504585 -0.87704343 0.93442345
-6.61413479 -2.74837184 1.21409142 -0.80616677 -0.89562213 0.51527226
-7.44761562 -2.66303730 1.30289090 -0.90775597 -0.86781389 0.55295962
-6.48289299 -2.87716222 1.57623661 -0.79017031 -0.93759155 0.66897017
-6.70890617 -2.56653523 1.55523622 -0.81771803 -0.83636636 0.66005743
-6.43770695 -2.73443365 1.95205379 -0.78466278 -0.89108008 0.82847065
-7.01714611 -2.56124830 2.02770400 -0.85528797 -0.83464348 0.86057734
-5.99120665 -2.71895218 2.19335914 -0.73024088 -0.88603503 0.93088299
-6.59129858 -2.78755713 1.21306145 -0.80338341 -0.90839159 0.51483512
-6.71122408 -2.44948745 1.17356110 -0.81800056 -0.79822356 0.49807078
-6.47178841 -2.92106795 1.57800806 -0.78881681 -0.95189929 0.66972202
-6.62525463 -2.58258891 1.53924716 -0.80752212 -0.84159786 0.65327150
-6.40276146 -2.76714492 1.94658852 -0.78040344 -0.90173978 0.82615113
-6.66450834 -2.48114061 1.92869759 -0.81230658 -0.80853850 0.81855804
-5.97743988 -2.75813985 2.19464254 -0.72856295 -0.89880526 0.93142766
-6.59353733 -2.83754015 1.21683824 -0.80365628 -0.92467976 0.51643801
-6.84371376 -2.54620624 1.20022702 -0.83414912 -0.82974172 0.50938803
-6.52234697 -2.99359822 1.59528077 -0.79497916 -0.97553498 0.67705268
-6.56710672 -2.60771012 1.52930808 -0.80043477 -0.84978420 0.64905328
-6.25508928 -2.74964094 1.90614581 -0.76240438 -0.89603573 0.80898684
-6.76607418 -2.56708813 1.96329665 -0.82468599 -0.83654654 0.83324224
-6.13980198 -2.88066435 2.26201987 -0.74835253 -0.93873280 0.96002328
-6.57918406 -2.88050294 1.21752489 -0.80190682 -0.93868017 0.51672941
-6.81281376 -2.58360314 1.19756043 -0.83038288 -0.84192836 0.50825632
-6.50528145 -2.63074946 1.51850462 -0.79289913 -0.85729212 0.64446813
-6.11491060 -2.73355436 1.86788917 -0.74531859 -0.89079350 0.79275036
-6.66046906 -2.75425053 2.35621357 -0.81181425 -0.89753789 1.00000000
-6.60050297 -2.93953013 1.22507858 -0.80450529 -0.95791560 0.51993531
-6.75409317 -2.61012721 1.18989396 -0.82322568 -0.85057187 0.50500262
-6.46512175 -2.66197419 1.51288688 -0.78800428 -0.86746740 0.64208394
-6.04514503 -2.74787664 1.85149348 -0.73681521 -0.89546078 0.78579187
-6.90926361 -2.72064805 2.01546144 -0.84213871 -0.88658768 0.85538149
-6.42758036 -2.70607615 2.27874064 -0.78342849 -0.88183910 0.96711975
-6.76473999 -3.06437182 1.26009989 -0.82452339 -0.99859822 0.53479868
-6.71919060 -2.64534020 1.18656075 -0.81897157 -0.86204684 0.50358796
-6.45007181 -2.70329261 1.51331902 -0.78616989 -0.88093203 0.64226735
-5.96232176 -2.74394441 1.82963252 -0.72672027 -0.89417934 0.77651387
-6.41126060 -2.73485589 2.27748084 -0.78143936 -0.89121765 0.96658504
-6.69014788 -2.67044115 1.18356073 -0.81543165 -0.87022656 0.50231469
-6.43726158 -2.73365760 1.51331902 -0.78460848 -0.89082718 0.64226735
-7.27539492 -2.40959406 1.20640671 -0.88676476 -0.78522336 0.51201075
-7.52828121 -2.66536593 1.67378235 -0.91758794 -0.86857271 0.71036953
-5.95888376 -2.78791761 1.83400476 -0.72630119 -0.90850908 0.77836949
-6.81456661 -2.77049279 1.99629879 -0.83059651 -0.90283078 0.84724867
-6.40266800 -2.77883816 2.28063011 -0.78039205 -0.90555030 0.96792161
-6.66226339 -2.70799923 1.18156087 -0.81203294 -0.88246578 0.50146598
-6.41816330 -2.77328062 1.51288688 -0.78228068 -0.90373927 0.64208394
-7.28814030 -2.46482062 1.21119964 -0.88831824 -0.80322027 0.51404494
-7.36068630 -2.65775776 1.63948202 -0.89716053 -0.86609340 0.69581217
-5.96033287 -2.83445048 1.84001648 -0.72647786 -0.92367291 0.78092092
-6.51548719 -2.87613273 2.32786965 -0.79414308 -0.93725604 0.98797059
-7.89530087 -2.69629335 2.20098901 -0.96232229 -0.87865114 0.93412119
-6.64694118 -2.75055456 1.18189418 -0.81016541 -0.89633346 0.50160742
-6.43641090 -2.82916427 1.52152956 -0.78450483 -0.92195028 0.64575195
-6.98079824 -2.56921077 1.55665934 -0.85085773 -0.83723825 0.66066140
-6.43592310 -2.71240282 1.89356625 -0.78444535 -0.88390076 0.80364799
-6.02045870 -2.70457125 2.15465808 -0.73380631 -0.88134867 0.91445786
-7.73056841 -2.69398689 2.15905690 -0.94224381 -0.87789953 0.91632479
-6.62952805 -2.79226398 1.18189418 -0.80804300 -0.90992546 0.50160742
-6.44885302 -2.88301063 1.52887595 -0.78602135 -0.93949741 0.64886987
-6.85293388 -2.57080793 1.53114331 -0.83527291 -0.83775872 0.64983213
-6.36375952 -2.72939134 1.87706518 -0.77564967 -0.88943690 0.79664475
-5.99124336 -2.73686147 2.15024900 -0.73024541 -0.89187121 0.91258663
-6.97331905 -2.47726798 1.94836032 -0.84994614 -0.80727655 0.82690310
-6.62818575 -2.84080887 1.18489408 -0.80787939 -0.92574495 0.50288057
-6.53029108 -2.96844316 1.55307555 -0.79594743 -0.96733761 0.65914041
-6.77095079 -2.58848882 1.51608455 -0.82528037 -0.84352046 0.64344108
-6.22263908 -2.71571350 1.83980465 -0.75844914 -0.88497967 0.78083104
-5.98254919 -2.77842259 2.15339851 -0.72918570 -0.90541488 0.91392332
-6.70540524 -2.42886186 1.87640250 -0.81729132 -0.79150224 0.79636353
-6.64821291 -2.89884424 1.19189394 -0.81032044 -0.94465715 0.50585139
-6.72178602 -2.61811137 1.50855529 -0.81928790 -0.85317367 0.64024556
-6.17446041 -2.72952342 1.82915878 -0.75257689 -0.88947994 0.77631283
-6.00551653 -2.82343316 2.16662550 -0.73198509 -0.92008269 0.91953695
-6.79713058 -2.49871707 1.90591037 -0.82847130 -0.81426620 0.80888695
-6.65254021 -2.93805742 1.19522715 -0.81084782 -0.95743567 0.50726604
-6.64748430 -2.46986294 1.11374331 -0.81023163 -0.80486339 0.47268352
-6.59490252 -2.60417557 1.48220253 -0.80382264 -0.84863240 0.62906122
-6.91815710 -2.64791656 0.94246280 -0.84322268 -0.86288643 0.39999041
-6.01457214 -2.70466018 1.78604317 -0.73308879 -0.88137764 0.75801414
-6.77948952 -2.54069209 1.90539265 -0.82632113 -0.82794476 0.80866718
-6.76182938 -3.03680992 1.21889317 -0.82416862 -0.98961651 0.51731014
-6.80704546 -2.57851171 1.14409864 -0.82967979 -0.84026921 0.48556662
-6.54578590 -2.63233209 1.47467327 -0.79783607 -0.85780782 0.62586570
-6.93821907 -2.70581365 0.94824296 -0.84566796 -0.88175356 0.40244356
-6.01677275 -2.75115633 1.79189837 -0.73335707 -0.89652956 0.76049912
-6.92203331 -2.64434171 1.95094872 -0.84369510 -0.86172146 0.82800162
-6.75943232 -2.60905671 1.13866663 -0.82387644 -0.85022300 0.48326123
-6.49296188 -2.65848231 1.46630728 -0.79139757 -0.86632949 0.62231511
-6.79431438 -2.69859529 0.92830151 -0.82812804 -0.87940127 0.39398021
-6.06939554 -2.82119846 1.81319010 -0.73977101 -0.91935444 0.76953554
-6.77939796 -2.63838482 1.91471100 -0.82630998 -0.85978025 0.81262201
-6.51539516 -2.70616913 2.25005555 -0.79413188 -0.88186938 0.95494550
-6.73556423 -2.64856505 1.13738847 -0.82096726 -0.86309773 0.48271874
-6.48514557 -2.70301414 1.46839881 -0.79044485 -0.88084126 0.62320274
-7.49121094 -2.68196416 1.59583974 -0.91306961 -0.87398165 0.67728996
-6.80104733 -2.75094485 0.93205857 -0.82894868 -0.89646065 0.39557475
-6.16850424 -2.91410303 1.84885371 -0.75185090 -0.94962960 0.78467155
-6.71425247 -2.66157103 1.90073359 -0.81836969 -0.86733603 0.80668986
-8.20442486 -2.75353646 2.20424962 -1.00000000 -0.89730519 0.93550503
-6.35998392 -2.68812704 2.20136619 -0.77518952 -0.87598997 0.93428129
-6.69132948 -2.67974591 1.13259554 -0.81557572 -0.87325877 0.48068458
-6.46983194 -2.74447703 1.46881711 -0.78857839 -0.89435291 0.62338030
-7.14446211 -2.60953593 1.52399075 -0.87080598 -0.85037917 0.64679652
-6.77997303 -2.79210520 0.93148059 -0.82638007 -0.90987372 0.39532945
-6.06479263 -2.91217041 1.82277131 -0.73920995 -0.94899982 0.77360189
-6.72244740 -2.71390009 1.90798116 -0.81936854 -0.88438869 0.80976582
-7.58017540 -2.59872532 2.03844500 -0.92391306 -0.84685630 0.86513591
-6.26965141 -2.69624567 2.17548060 -0.76417929 -0.87863559 0.92329514
-6.67801189 -2.72323680 1.13323462 -0.81395245 -0.88743132 0.48095581
-6.49012184 -2.80145884 1.47760129 -0.79105139 -0.91292179 0.62710840
-7.08749008 -2.63943958 1.51516008 -0.86386192 -0.86012399 0.64304870
-6.78599501 -2.84466124 0.93523765 -0.82711405 -0.92700034 0.39692396
-6.00473118 -2.93005490 1.80999625 -0.73188937 -0.95482790 0.76818007
-6.63030434 -2.72502804 1.88623846 -0.80813760 -0.88801503 0.80053800
-7.60211182 -2.65963197 2.04896426 -0.92658681 -0.86670417 0.86960042
-6.48237991 -2.83693957 2.25683498 -0.79010779 -0.92448407 0.95782274
-6.65348434 -2.76209354 1.13195646 -0.81096292 -0.90009367 0.48041335
-6.48312235 -2.84693074 1.48011112 -0.79019827 -0.92773992 0.62817359
-7.03042603 -2.66873074 1.50632954 -0.85690665 -0.86966920 0.63930094
-6.85972166 -2.64113426 0.89701414 -0.83610022 -0.86067623 0.38070154
-6.70823145 -2.79438233 1.91264021 -0.81763577 -0.91061574 0.81174314
-6.89187431 -2.44964719 1.85761249 -0.84001917 -0.79827565 0.78838885
-6.39771318 -2.83563828 2.23156595 -0.77978814 -0.92405999 0.94709831
-6.64766550 -2.79649925 1.13323462 -0.81025368 -0.91130561 0.48095581
-6.49462032 -2.88864899 1.48596728 -0.79159969 -0.94133478 0.63065898
-7.00495911 -2.69693804 1.50351977 -0.85380256 -0.87886125 0.63810843
-6.82268953 -2.67628384 0.89394313 -0.83158660 -0.87213057 0.37939817
-6.87088060 -2.49093699 1.85610974 -0.83746034 -0.81173092 0.78775108
-6.00039482 -2.70344257 2.09659147 -0.73136079 -0.88098091 0.88981384
-6.98055792 -2.71745467 2.31844783 -0.85082841 -0.88554704 0.98397183
-6.63540173 -2.84055853 1.13419318 -0.80875891 -0.92566335 0.48136264
-6.48168135 -2.93183184 1.48722219 -0.79002261 -0.95540696 0.63119161
-6.64094591 -2.60590315 1.42725539 -0.80943465 -0.84919536 0.60574108
-6.78732824 -2.71180248 0.89115131 -0.82727653 -0.88370514 0.37821329
-6.84054995 -2.52872825 1.85210240 -0.83376348 -0.82404608 0.78605032
-6.00229073 -2.74986625 2.10337090 -0.73159188 -0.89610916 0.89269114
-6.55141211 -2.59920454 2.17936420 -0.79852182 -0.84701246 0.92494339
-6.66261911 -2.90203047 1.14218140 -0.81207633 -0.94569546 0.48475292
-6.92702961 -2.60051060 1.09604359 -0.84430408 -0.84743804 0.46517158
-6.53056383 -3.00374603 1.50311744 -0.79598069 -0.97884190 0.63793766
-6.58437014 -2.63169456 1.41842484 -0.80253893 -0.85760009 0.60199332
-6.76831913 -2.75365353 0.89087212 -0.82495964 -0.89734334 0.37809482
-6.24977160 -2.74141192 1.79409111 -0.76175618 -0.89335412 0.76142973
-6.83903694 -2.57708001 1.85610974 -0.83357906 -0.83980262 0.78775108
-5.98145008 -2.78590798 2.10213828 -0.72905171 -0.90785420 0.89216799
-6.66408491 -2.95268822 1.14569628 -0.81225497 -0.96220350 0.48624468
-6.59261608 -2.52334046 1.04411113 -0.80354398 -0.82229036 0.44313094
-6.55135298 -2.66641259 1.41481233 -0.79851460 -0.86891377 0.60046011
-6.22009039 -2.77507949 1.79046726 -0.75813848 -0.90432549 0.75989175
-6.87518454 -2.63998342 1.87063646 -0.83798492 -0.86030120 0.79391634
-5.98958540 -2.83572698 2.11138320 -0.73004329 -0.92408890 0.89609158
-6.71551275 -3.02633023 1.15815783 -0.81852329 -0.98620147 0.49153346
-6.75550222 -2.63387489 1.07339859 -0.82339740 -0.85831058 0.45556083
-6.51997232 -2.70156479 1.41160119 -0.79468977 -0.88036895 0.59909731
-7.49064255 -2.55242085 1.51142132 -0.91300035 -0.83176684 0.64146191
-6.83087206 -2.86673641 0.90511048 -0.83258390 -0.93419403 0.38413772
-5.99597120 -2.70828080 1.72834551 -0.73082161 -0.88255751 0.73352671
-6.90421057 -2.68839765 1.88215756 -0.84152281 -0.87607813 0.79880601
-6.14935017 -2.56473470 2.05826545 -0.74951631 -0.83577961 0.87354791
-6.77246571 -2.67722726 1.07822955 -0.82546502 -0.87243801 0.45761111
-6.53610802 -2.74431252 1.41802335 -0.79665643 -0.89429933 0.60182291
-7.30033827 -2.53837895 1.47538424 -0.88980502 -0.82719100 0.62616748
-6.92145014 -2.63570786 0.86310518 -0.84362406 -0.85890794 0.36631024
-6.06824160 -2.78729701 1.75474727 -0.73963034 -0.90830684 0.74473184
-6.27380466 -2.66253376 2.10622549 -0.76468551 -0.86764979 0.89390260
-6.74633026 -2.71606040 1.07671988 -0.82227951 -0.88509268 0.45697042
-6.52595186 -2.78838444 1.41962898 -0.79541856 -0.90866119 0.60250437
-7.47830772 -2.65362000 1.51563847 -0.91149688 -0.86474502 0.64325172
-6.88260412 -2.67048001 0.85988688 -0.83888930 -0.87023926 0.36494437
-6.05235672 -2.82619238 1.75526500 -0.73769420 -0.92098182 0.74495155
-6.61286783 -2.67194796 1.81052589 -0.80601233 -0.87071759 0.76840484
-6.20608711 -2.68011594 2.08884001 -0.75643170 -0.87337935 0.88652408
-7.97783375 -2.68007350 2.05987239 -0.97238183 -0.87336552 0.87422991
-6.73096323 -2.75913978 1.07702184 -0.82040650 -0.89913112 0.45709857
-6.53708887 -2.84174871 1.42605126 -0.79677600 -0.92605120 0.60523003
-7.25126839 -2.62385988 1.47193384 -0.88382411 -0.85504699 0.62470305
-6.91908312 -2.73494601 0.86766446 -0.84333557 -0.89124703 0.36824524
-6.05887794 -2.87583566 1.76251245 -0.73848903 -0.93715924 0.74802744
-6.61566925 -2.72149158 1.81603611 -0.80635381 -0.88686258 0.77074343
-6.21361399 -2.72972751 2.09723282 -0.75734913 -0.88954645 0.89008605
-7.64716864 -2.62172699 1.97728026 -0.93207860 -0.85435194 0.83917701
-6.72628164 -2.80667067 1.07913530 -0.81983584 -0.91462022 0.45799553
-6.51731062 -2.88197875 1.42564988 -0.79436535 -0.93916112 0.60505968
-7.17576694 -2.64747024 1.45966601 -0.87462157 -0.86274099 0.61949646
-6.81544542 -2.74334359 0.85505939 -0.83070362 -0.89398360 0.36289555
-6.04937601 -2.91807055 1.76510096 -0.73733091 -0.95092249 0.74912602
-6.19968987 -2.59736514 1.70433068 -0.75565195 -0.84641302 0.72333455
-6.18587399 -2.76407552 2.09363604 -0.75396800 -0.90073955 0.88855952
-7.62505436 -2.66778684 1.97583127 -0.92938316 -0.86936164 0.83856207
-6.72673321 -2.85655475 1.08215463 -0.81989092 -0.93087614 0.45927697
-6.53843641 -2.94043875 1.43448043 -0.79694027 -0.95821172 0.60880744
-7.09658670 -2.66884446 1.44663131 -0.86497062 -0.86970627 0.61396444
-6.11547804 -2.60761523 1.68529570 -0.74538779 -0.84975326 0.71525592
-6.91966248 -2.46794224 1.79374230 -0.84340614 -0.80423748 0.76128173
-6.74317694 -2.91356730 1.08789134 -0.82189512 -0.94945502 0.46171167
-7.07784653 -2.71267319 1.44624794 -0.86268651 -0.88398892 0.61380172
-6.68948174 -2.90003181 1.85160148 -0.81535047 -0.94504416 0.78583771
-6.03097057 -2.78673220 2.05227065 -0.73508757 -0.90812278 0.87100369
-6.89490891 -2.50802827 1.79132724 -0.84038907 -0.81730050 0.76025671
-6.49186420 -2.51263595 2.07860351 -0.79126376 -0.81880200 0.88217956
-6.76822853 -2.97485137 1.09513772 -0.82494855 -0.96942586 0.46478713
-6.96629143 -2.70733142 1.42554569 -0.84908956 -0.88224816 0.60501546
-7.34226084 -2.41993427 1.40463877 -0.89491475 -0.78859299 0.59614235
-6.67396641 -2.93074942 1.85110056 -0.81345940 -0.95505422 0.78562510
-6.87573814 -2.53778362 1.78939533 -0.83805245 -0.82699698 0.75943685
-6.40877628 -2.51502562 2.05536056 -0.78113657 -0.81958073 0.87231505
-6.79572821 -3.02509165 1.10208225 -0.82830036 -0.98579788 0.46773446
-6.62098074 -2.62010026 1.35653853 -0.80700123 -0.85382181 0.57572818
-7.32504606 -2.46539664 1.40427279 -0.89281654 -0.80340797 0.59598708
-6.59523630 -2.94594502 1.83406925 -0.80386335 -0.96000606 0.77839684
-6.90139246 -2.59676981 1.80050421 -0.84117931 -0.84621900 0.76415151
-6.22422934 -2.48726749 2.00015831 -0.75864297 -0.81053513 0.84888667
-6.60256910 -2.66091013 1.35615516 -0.80475712 -0.86712068 0.57556546
-7.07675886 -2.43212152 1.35853171 -0.86255395 -0.79256445 0.57657409
-6.82301474 -2.71658540 0.80276996 -0.83162624 -0.88526380 0.34070340
-6.94467783 -2.66317701 1.81644297 -0.84645516 -0.86785942 0.77091610
-5.90397072 -2.40133882 1.90021348 -0.71960813 -0.78253323 0.80646914
-6.57120895 -2.69633961 1.35308826 -0.80093473 -0.87866622 0.57426387
-6.98147821 -2.44877315 1.34279668 -0.85094059 -0.79799080 0.56989598
-5.99269867 -2.76957893 1.67327356 -0.73042274 -0.90253299 0.71015358
-6.86821651 -2.68328810 1.80050421 -0.83713567 -0.87441307 0.76415151
-6.17305899 -2.55716944 1.99376655 -0.75240606 -0.83331430 0.84617394
-6.70828962 -2.37131715 2.05023050 -0.81764287 -0.77274996 0.87013781
-6.55051994 -2.73605084 1.35232151 -0.79841304 -0.89160705 0.57393843
-6.95483589 -2.48864627 1.34060109 -0.84769326 -0.81098443 0.56896418
-6.79935408 -2.80662036 0.80429631 -0.82874233 -0.91460383 0.34135118
-5.98395395 -2.81126690 1.67577827 -0.72935688 -0.91611797 0.71121663
-7.86543322 -2.65595150 1.94117880 -0.95868188 -0.86550480 0.82385522
-6.45273924 -2.72171378 2.09138703 -0.78649503 -0.88693500 0.88760501
-6.77820349 -2.44377446 2.07666659 -0.82616436 -0.79636186 0.88135755
-6.54582930 -2.78256631 1.35500503 -0.79784131 -0.90676522 0.57507735
-6.00991821 -2.86953282 1.68830121 -0.73252159 -0.93510532 0.71653146
-6.54288960 -2.65049553 1.72225904 -0.79748303 -0.86372685 0.73094350
-7.65712595 -2.63984752 1.89302385 -0.93329221 -0.86025691 0.80341774
-6.25109053 -2.68241286 2.03037429 -0.76191700 -0.87412786 0.86171061
-6.80599308 -2.50208735 2.09016609 -0.82955152 -0.81536448 0.88708687
-6.54621077 -2.83148360 1.35883880 -0.79788786 -0.92270607 0.57670444
-7.46535540 -2.77593493 1.44818437 -0.90991819 -0.90460426 0.61462355
-6.39349461 -2.63641238 1.68651748 -0.77927393 -0.85913748 0.71577448
-7.00845623 -2.46737266 1.73374224 -0.85422885 -0.80405188 0.73581707
-6.24111938 -2.72472024 2.03269863 -0.76070166 -0.88791472 0.86269712
-6.55613852 -2.87260771 1.36382270 -0.79909790 -0.93610734 0.57881963
-7.47981310 -2.82142282 1.45367336 -0.91168040 -0.91942751 0.61695313
-6.35596037 -2.65596151 1.67975557 -0.77469909 -0.86550808 0.71290463
-6.94723368 -2.48282886 1.72124052 -0.84676671 -0.80908865 0.73051125
-6.22296619 -2.75176287 2.03095531 -0.75848901 -0.89672720 0.86195725
-6.71162128 -2.55172205 2.06935453 -0.81804895 -0.83153915 0.87825423
-6.55944777 -2.92339373 1.36842310 -0.79950124 -0.95265716 0.58077210
-6.62054539 -2.54738736 1.28607762 -0.80694813 -0.83012658 0.54582387
-6.26601315 -2.66448760 1.65995276 -0.76373583 -0.86828649 0.70450014
-6.92600727 -2.52444673 1.71985137 -0.84417951 -0.82265085 0.72992170
-6.06088543 -2.72522640 1.98272610 -0.73873371 -0.88807964 0.84148830
-6.68321371 -2.61956620 1.30181265 -0.81458652 -0.85364777 0.55250198
-6.28116894 -2.71777320 1.66864669 -0.76558310 -0.88565087 0.70818990
-6.92461443 -2.57329583 1.72355568 -0.84400976 -0.83856946 0.73149383
-6.01931095 -2.75203896 1.97459102 -0.73366642 -0.89681715 0.83803564
-6.51995945 -2.57360387 2.01929450 -0.79468817 -0.83866984 0.85700828
-6.64468479 -2.65281987 1.29742146 -0.80989039 -0.86448425 0.55063832
-6.82270336 -2.58459640 1.70179331 -0.83158827 -0.84225202 0.72225767
-5.93778229 -2.75976133 1.95309126 -0.72372925 -0.89933366 0.82891095
-6.53396845 -2.62660098 2.02885652 -0.79639566 -0.85594022 0.86106646
-6.60053205 -2.68348718 1.29193246 -0.80450881 -0.87447792 0.54830873
-6.70820808 -2.58985019 1.67678988 -0.81763297 -0.84396410 0.71164596
-5.66633987 -2.67605495 1.86767328 -0.69064438 -0.87205595 0.79265875
-6.46576452 -2.64666796 2.01254487 -0.78808260 -0.86247951 0.85414368
-6.58536005 -2.72565293 1.29229844 -0.80265957 -0.88821864 0.54846406
-6.16355991 -2.80573320 1.65077579 -0.75124824 -0.91431469 0.70060533
-6.65011215 -2.61568618 1.66614020 -0.81055188 -0.85238338 0.70712614
-6.07144785 -2.91586018 2.01003671 -0.74002117 -0.95020217 0.85307914
-6.46319771 -2.69310546 2.01704454 -0.78776973 -0.87761229 0.85605335
-6.58333492 -2.76118731 1.29449403 -0.80241275 -0.89979839 0.54939586
-6.18195248 -2.84946537 1.65946972 -0.75349003 -0.92856586 0.70429510
-6.61238194 -2.63697720 1.65965784 -0.80595315 -0.85932153 0.70437497
-6.23122215 -3.02946091 2.06872511 -0.75949532 -0.98722172 0.87798709
-6.42565107 -2.71315289 2.00917006 -0.78319335 -0.88414520 0.85271138
-6.58758307 -2.81169748 1.29888523 -0.80293053 -0.91625834 0.55125958
-6.14637709 -2.87996387 1.65463984 -0.74915391 -0.93850452 0.70224530
-6.56861115 -2.66756797 1.65271235 -0.80061811 -0.86929029 0.70142722
-6.10412550 -3.01483989 2.03211737 -0.74400407 -0.98245710 0.86245042
-6.40847683 -2.75347257 2.00917006 -0.78110009 -0.89728433 0.85271138
-6.57159233 -2.85381079 1.29925108 -0.80098146 -0.92998195 0.55141485
-6.47971392 -2.67925739 1.63419127 -0.78978282 -0.87309957 0.69356668
-6.11580515 -3.06867337 2.04257679 -0.74542767 -1.00000000 0.86688948
-6.50726509 -2.84408116 2.04629326 -0.79314095 -0.92681128 0.86846679
-6.61295843 -2.92109537 1.31132674 -0.80602342 -0.95190823 0.55653983
-6.36759043 -2.68019247 1.60965073 -0.77611661 -0.87340426 0.68315148
-6.19952631 -2.75709462 1.95348537 -0.75563204 -0.89846468 0.82907826
-6.34167099 -2.71634412 1.60733569 -0.77295738 -0.88518518 0.68216890
-6.03148603 -2.72842550 1.90511274 -0.73515040 -0.88912219 0.80854839
-6.25392628 -2.67711020 2.34176421 -0.76226258 -0.87239987 0.99386758
-6.28876019 -2.74069548 1.59807503 -0.76650834 -0.89312065 0.67823863
-6.04565430 -2.78060818 1.91523719 -0.73687726 -0.90612710 0.81284535
-6.17013025 -2.67596602 2.31471300 -0.75204909 -0.87202698 0.98238677
-6.23656511 -2.75313020 1.58788848 -0.76014656 -0.89717275 0.67391533
-5.97150135 -2.78089619 1.89555073 -0.72783911 -0.90622097 0.80449021
-6.12206030 -2.70105720 2.30283689 -0.74619007 -0.88020355 0.97734642
-6.21914339 -2.79226112 1.58788848 -0.75802308 -0.90992451 0.67391533
-5.94696140 -2.81509781 1.89330077 -0.72484803 -0.91736639 0.80353528
-6.06357098 -2.72104454 2.28700185 -0.73906106 -0.88671690 0.97062588
-6.17134714 -2.81763458 1.58001697 -0.75219738 -0.91819304 0.67057461
-6.07387495 -2.77154565 2.29755855 -0.74031699 -0.90317386 0.97510624
-6.19593573 -2.87588787 1.59112966 -0.75519443 -0.93717629 0.67529094
