6.74385881 -0.22477823 1.28369772 0.95410275 -0.39519525 0.50251335
6.29467297 0.05026414 2.30187941 0.89055318 0.08837221 0.90108842
5.80834532 -0.17588934 1.72937751 0.82174885 -0.30924094 0.67697811
6.71933365 -0.19234319 1.27871382 0.95063299 -0.33816937 0.50056237
6.63183165 0.08312112 2.42720580 0.93825346 0.14613992 0.95014840
6.02340317 -0.31333384 2.13693929 0.85217464 -0.55088985 0.83652133
5.45234251 -0.18130368 2.24465227 0.77138257 -0.31876019 0.87868643
6.78252316 -0.30964243 1.65512276 0.95957291 -0.54439974 0.64791054
5.85120153 -0.14944503 1.74216115 0.82781202 -0.26274770 0.68198240
6.71059704 -0.14993136 1.27679694 0.94939697 -0.26360273 0.49981198
6.61805582 0.12458154 2.42233205 0.93630451 0.21903381 0.94824052
5.90681505 -0.27046677 2.09423923 0.83568007 -0.47552285 0.81980604
5.46997643 -0.14742796 2.25159574 0.77387732 -0.25920138 0.88140446
6.35243607 0.13653910 1.60915577 0.89872533 0.24005707 0.62991643
6.75330210 -0.26589245 1.64739490 0.95543879 -0.46748045 0.64488542
5.98667717 -0.42719823 1.72399676 0.84697878 -0.75108123 0.67487180
6.73495913 -0.10807157 1.28139746 0.95284367 -0.19000669 0.50161290
5.73915911 -0.22724703 2.03323913 0.81196058 -0.39953578 0.79592711
5.67927217 -0.11658953 2.33877754 0.80348796 -0.20498261 0.91553247
6.35725975 0.17659241 1.61065853 0.89940780 0.31047705 0.63050467
5.98274517 -0.07714229 1.78167427 0.84642249 -0.13562819 0.69745010
5.96243620 -0.38773972 1.71612215 0.84354919 -0.68170696 0.67178923
6.70409966 -0.06554095 1.27526343 0.94847775 -0.11523124 0.49921167
5.70661879 -0.19017507 2.02103925 0.80735689 -0.33435747 0.79115134
5.75554180 -0.08171018 2.37040973 0.81427836 -0.14365926 0.92791516
6.28635263 0.21438201 1.59262538 0.88937604 0.37691706 0.62344545
6.79009581 -0.53806537 1.58649933 0.96064425 -0.94600296 0.62104738
5.95631981 -0.03946429 1.77353919 0.84268391 -0.06938439 0.69426554
5.94559860 -0.34907889 1.71049750 0.84116709 -0.61373520 0.66958743
5.72275019 -0.15466905 2.02646136 0.80963910 -0.27193233 0.79327387
6.28101206 0.25373206 1.59162354 0.88862044 0.44610059 0.62305331
6.21377230 -0.12905034 1.51215637 0.87910753 -0.22689067 0.59194523
6.70215893 -0.48846844 1.56473708 0.94820315 -0.85880381 0.61252838
5.89138365 -0.00223899 1.75378263 0.83349687 -0.00393650 0.68653172
5.89785099 -0.30893308 1.69587326 0.83441186 -0.54315263 0.66386265
5.73301601 -0.11887080 2.02985024 0.81109148 -0.20899343 0.79460049
6.43957949 -0.09252942 1.56818378 0.91105413 -0.16268118 0.61387759
6.71091890 -0.44675347 1.56612611 0.94944251 -0.78546238 0.61307210
5.94294977 0.03526086 1.76947165 0.84079236 0.06199409 0.69267327
5.86517096 -0.27016079 1.68574870 0.82978839 -0.47498488 0.65989929
6.79413033 -0.29992840 1.23155415 0.96121502 -0.52732098 0.48210135
5.88403273 -0.09373081 2.08407259 0.83245689 -0.16479340 0.81582624
6.67960596 -0.45689166 2.30415630 0.94501245 -0.80328691 0.90197968
5.82576418 -0.28618154 2.34253931 0.82421321 -0.50315183 0.91700506
6.46323347 -0.06233403 1.57397974 0.91440064 -0.10959296 0.61614650
6.73236513 -0.41638380 1.57075644 0.95247668 -0.73206776 0.61488467
6.77230549 -0.25627100 1.22716296 0.95812732 -0.45056444 0.48038238
5.93907261 -0.05709645 2.10372806 0.84024382 -0.10038448 0.82352054
6.71968365 -0.02177827 1.63773501 0.95068252 -0.03828960 0.64110398
6.74650240 -0.37475771 1.57353461 0.95447677 -0.65888256 0.61597222
6.39566231 0.10983315 1.90718639 0.90484089 0.19310383 0.74658281
5.98477602 -0.21016088 1.72005951 0.84670979 -0.36949566 0.67333055
6.77967739 -0.21391828 1.22826076 0.95917028 -0.37610176 0.48081213
6.15519714 -0.34175974 2.11875653 0.87082052 -0.60086703 0.82940352
5.52728033 -0.20087954 2.21943235 0.78198457 -0.35317761 0.86881387
6.77596998 0.02078447 1.65174186 0.95864576 0.03654235 0.64658707
6.67683268 -0.32860360 1.55640256 0.94462007 -0.57773644 0.60926574
6.47710705 0.15220733 1.93217266 0.91636342 0.26760426 0.75636387
5.87088156 -0.16884443 1.68631113 0.83059633 -0.29685488 0.66011947
6.75337124 -0.17053862 1.22313774 0.95544857 -0.29983354 0.47880667
6.25919533 0.01957865 2.21895051 0.88553387 0.03442232 0.86862522
6.02147150 -0.29594782 2.07125211 0.85190135 -0.52032250 0.81080759
5.49881935 -0.16514790 2.20734811 0.77795798 -0.29035580 0.86408341
6.79899359 0.06364613 1.65753782 0.96190310 0.11189984 0.64885592
6.98002529 -0.30049375 1.62817192 0.98751497 -0.52831495 0.63736045
6.77003574 -0.12844847 1.22606528 0.95780617 -0.22583248 0.47995269
6.39253569 0.06059705 2.26707268 0.90439850 0.10653908 0.88746303
5.97606182 -0.25592831 2.05475736 0.84547693 -0.44996193 0.80435055
5.72744799 -0.13684398 2.30024481 0.81030375 -0.24059309 0.90044850
6.82041216 -0.25022960 1.58974063 0.96493334 -0.43994272 0.62231618
5.88213444 -0.09524591 1.68912351 0.83218837 -0.16745719 0.66122037
6.74908304 -0.08556946 1.22203994 0.95484185 -0.15044448 0.47837692
6.56510973 0.10404027 2.32942843 0.92881382 0.18291904 0.91187268
5.97566509 -0.21829948 2.05409765 0.84542078 -0.38380459 0.80409235
5.83558178 -0.10312701 2.34404993 0.82560217 -0.18131340 0.91759640
6.79851484 -0.20659208 1.58418429 0.96183532 -0.36322114 0.62014115
5.89988852 -0.05851659 1.69418573 0.83470017 -0.10288130 0.66320205
6.53821087 0.13435322 2.31993937 0.92500824 0.23621395 0.90815812
5.89737892 -0.18734647 2.02638674 0.83434510 -0.32938436 0.79324466
5.75823307 -0.07434758 2.31232905 0.81465912 -0.13071465 0.90517902
6.77218485 -0.17377219 1.57770181 0.95811027 -0.30551866 0.61760354
5.90585661 -0.03076329 1.69587326 0.83554447 -0.05408667 0.66386265
5.98336601 -0.15274552 2.05607700 0.84651029 -0.26855049 0.80486715
6.75952673 -0.13091345 1.57446063 0.95631939 -0.23016630 0.61633474
5.96543074 0.00620368 1.71330988 0.84397286 0.01090705 0.67068833
5.99553299 -0.11540458 2.06003571 0.84823167 -0.20289928 0.80641681
6.77188826 -0.08862761 1.57723880 0.95806831 -0.15582119 0.61742228
5.96911240 0.04370024 1.71443474 0.84449375 0.07683185 0.67112869
5.96404743 -0.07720660 2.04881930 0.84377718 -0.13574126 0.80202609
6.74701929 -0.04582907 1.57121944 0.95454991 -0.08057467 0.61506593
6.50608969 0.08668389 1.87192690 0.92046380 0.15240382 0.73278022
6.11356211 -0.04123427 2.10094237 0.86493009 -0.07249629 0.82243007
6.97676086 -0.00424464 1.62585676 0.98705310 -0.00746274 0.63645416
6.13258076 -0.00289259 2.10754037 0.86762083 -0.00508562 0.82501292
6.80154085 0.03910820 1.58418429 0.96226346 0.06875832 0.62014115
6.03623629 0.02591745 2.07389116 0.85399026 0.04556692 0.81184065
6.79738998 0.07113007 1.58325815 0.96167618 0.12505779 0.61977857
6.18321753 0.06490489 2.12535453 0.87478477 0.11411294 0.83198637
6.65284300 0.11185725 1.54899406 0.94122607 0.19666252 0.60636562
6.53949404 0.10856749 2.25005388 0.92518979 0.19087860 0.88080090
6.66368055 0.15388973 1.55177224 0.94275934 0.27056217 0.60745317
6.56888533 0.15025122 2.26061058 0.92934799 0.26416513 0.88493341
6.49920321 0.19145417 1.51287794 0.91948956 0.33660632 0.59222770
6.56982327 0.23463261 1.53000998 0.92948067 0.41252077 0.59893417
5.96266317 -0.38435867 1.98866010 0.84358132 -0.67576259 0.77847630
5.94738674 -0.35529757 1.98288488 0.84142005 -0.62466860 0.77621555
6.74441910 -0.41559106 1.50005949 0.95418203 -0.73067397 0.58720982
6.21367025 -0.48432082 1.73563063 0.87909311 -0.85151166 0.67942595
6.12544823 -0.32672206 2.04256201 0.86661172 -0.57442838 0.79957664
6.75663567 -0.37371600 1.50227392 0.95591038 -0.65705109 0.58807671
6.00247812 -0.28276819 2.00021052 0.84921426 -0.49715063 0.78299779
6.76079893 -0.33134532 1.50271678 0.95649940 -0.58255684 0.58825004
5.97006369 -0.24377304 1.98866010 0.84462833 -0.42859107 0.77847630
6.77249146 -0.28924659 1.50493133 0.95815361 -0.50854069 0.58911693
5.96045256 -0.35255727 1.66130340 0.84326857 -0.61985075 0.65033001
6.13051844 -0.21120887 2.04256201 0.86732906 -0.37133816 0.79957664
6.80926180 -0.24786066 1.51290333 0.96335578 -0.43577775 0.59223765
5.93564892 -0.31377015 1.65365207 0.83975941 -0.55165690 0.64733481
6.11846876 -0.17235644 2.03807020 0.86562425 -0.30302954 0.79781824
6.79313803 -0.20459627 1.50891733 0.96107465 -0.35971218 0.59067732
5.91987133 -0.27836972 2.31752086 0.83752728 -0.48941746 0.90721136
6.14193964 -0.14397950 2.04577041 0.86894488 -0.25313845 0.80083257
6.76867867 -0.17201422 1.50315976 0.95761418 -0.30242786 0.58842343
5.74132681 -0.23444995 2.24591613 0.81226724 -0.41219965 0.87918115
6.08590031 -0.10459927 2.02651978 0.86101657 -0.18390186 0.79329675
6.74817467 -0.12913640 1.49828792 0.95471334 -0.22704196 0.58651632
5.99930382 -0.06569980 1.99700212 0.84876513 -0.11551051 0.78174186
6.68109131 -0.24583115 1.13100147 0.94522256 -0.43220955 0.44273922
6.73520088 -0.08659980 1.49518764 0.95287788 -0.15225597 0.58530271
6.08673429 -0.02811535 2.02651978 0.86113459 -0.04943117 0.79329675
6.03608704 -0.34198880 1.97073889 0.85396916 -0.60126972 0.77146089
6.61947775 -0.20211734 1.12001443 0.93650568 -0.35535386 0.43843827
6.75901604 -0.04436304 1.50050235 0.95624715 -0.07799715 0.58738321
6.81205893 -0.39955491 1.47572327 0.96375149 -0.70247996 0.57768321
5.87481833 -0.12859032 2.29758978 0.83115327 -0.22608186 0.89940917
6.11709881 0.01028074 2.03678679 0.86543047 0.01807515 0.79731584
6.60485792 -0.16018856 1.11726761 0.93443727 -0.28163651 0.43736300
6.87033081 -0.00159093 1.52574706 0.97199565 -0.00279711 0.59726542
6.77543926 -0.35458785 1.46708047 0.95857066 -0.62342083 0.57429993
5.95171499 -0.09260066 2.32785559 0.84203243 -0.16280642 0.91125697
5.98053503 0.04717555 1.99058521 0.84610981 0.08294199 0.77922988
6.61558485 -0.11883277 1.11898434 0.93595493 -0.20892656 0.43803504
6.79609489 0.04090848 1.50891733 0.96149296 0.07192350 0.59067732
6.78143454 -0.31220108 1.46794474 0.95941889 -0.54889828 0.57463825
5.89632320 -0.06413872 2.30570984 0.83419573 -0.11276589 0.90258783
5.99918652 0.07566062 1.99700212 0.84874856 0.13302319 0.78174186
6.60819054 -0.08757617 1.11761093 0.93490881 -0.15397260 0.43749741
6.69636869 0.07156867 1.48632991 0.94738400 0.12582889 0.58183527
6.85501146 -0.28343987 1.48393381 0.96982831 -0.49833158 0.58089733
5.92844915 -0.03377958 1.64927995 0.83874083 -0.05938978 0.64562333
6.46825361 0.12382066 2.15614128 0.91511089 0.21769606 0.84403807
6.64801598 -0.04620757 1.12447786 0.94054317 -0.08124013 0.44018552
6.66263771 0.11297818 1.47880077 0.94261181 0.19863330 0.57888794
6.82153273 -0.23902769 1.47615540 0.96509182 -0.42024803 0.57785237
6.32231903 0.01214689 2.47475624 0.89446443 0.02135613 0.96876240
5.97086954 0.00364036 1.66130340 0.84474236 0.00640033 0.65033001
6.49006987 0.16510846 2.16384149 0.91819739 0.29028645 0.84705240
6.66374588 0.15488954 1.47924364 0.94276857 0.27232000 0.57906133
6.78971958 -0.19510940 1.46880901 0.96059102 -0.34303281 0.57497656
6.44293070 0.05325060 2.52273893 0.91152829 0.09362287 0.98754555
5.90194654 -0.26156864 2.26717758 0.83499128 -0.45987850 0.88750410
6.60557508 0.04769473 1.84165609 0.93453872 0.08385478 0.72093046
5.92304850 -0.12084436 1.93042791 0.83797675 -0.21246326 0.75568086
6.76348209 -0.15174937 1.46275914 0.95687902 -0.26679909 0.57260829
5.76197672 -0.21861236 2.21196651 0.81518877 -0.38435468 0.86589134
6.73979807 0.09143063 1.87991273 0.95352823 0.16074933 0.73590630
5.91989517 -0.08355998 1.92916811 0.83753061 -0.14691150 0.75518769
6.74868250 -0.10895120 1.45930207 0.95478517 -0.19155324 0.57125503
5.94118261 -0.04659802 1.93609655 0.84054232 -0.08192660 0.75789988
6.76290226 -0.06672207 1.46232700 0.95679694 -0.11730781 0.57243913
5.82554674 -0.01784156 1.89767516 0.82418245 -0.03136826 0.74285954
6.86077595 -0.03564877 1.48393381 0.97064388 -0.06267611 0.58089733
6.08530474 -0.12677096 2.33691764 0.86093235 -0.22288315 0.91480440
6.19883490 0.18962952 1.72688627 0.87699425 0.33339831 0.67600292
5.99068975 0.01871683 1.95247293 0.84754646 0.03290712 0.76431054
6.00640297 -0.37503934 1.91416013 0.84976953 -0.65937775 0.74931270
6.71885920 -0.13821183 1.10189629 0.95056587 -0.24299799 0.43134579
6.94873857 0.00729422 1.50337994 0.98308861 0.01282437 0.58850962
5.77298021 -0.08293418 2.21487236 0.81674552 -0.14581124 0.86702883
6.18022013 0.22787905 1.72196746 0.87436068 0.40064695 0.67407739
5.97716665 0.05627694 1.94806397 0.84563327 0.09894365 0.76258463
6.19687748 -0.48797080 1.63102126 0.87671733 -0.85792887 0.63847584
5.95544004 -0.33448675 1.89690316 0.84255940 -0.58807993 0.74255735
6.78466177 -0.09712005 1.11289597 0.95987546 -0.17075221 0.43565169
6.76499796 0.05014524 1.46275914 0.95709348 0.08816317 0.57260829
7.06827307 -0.38433158 1.47969282 1.00000000 -0.67571497 0.57923716
6.16137028 0.26590216 1.71704876 0.87169385 0.46749753 0.67215192
6.62535810 -0.05181778 1.79455984 0.93733758 -0.09110375 0.70249426
5.95362282 -0.29688472 1.89567053 0.84230232 -0.52196968 0.74207479
6.71768618 0.09214876 1.45238793 0.95039994 0.16201191 0.56854844
6.63290310 -0.32013360 1.38599443 0.93840504 -0.56284487 0.54255819
6.21518612 -0.01273411 2.38704348 0.87930757 -0.02238856 0.93442655
6.32673693 -0.00881189 1.71205437 0.89508951 -0.01549267 0.67019683
6.47133970 0.14058596 2.11245751 0.91554749 0.24717207 0.82693774
5.86221504 -0.25573105 1.86547077 0.82937020 -0.44961512 0.73025286
6.75992918 0.13508424 1.46189487 0.95637637 0.23749919 0.57226998
6.82825851 -0.28597811 1.42740571 0.96604341 -0.50279421 0.55876893
6.44993162 0.02654290 2.47857738 0.91251874 0.04666656 0.97025818
6.45776176 0.03115976 1.74825037 0.91362655 0.05478373 0.68436605
6.53295088 0.18280078 2.13324285 0.92426407 0.32139233 0.83507431
5.88272190 -0.21953672 1.87163401 0.83227146 -0.38597986 0.73266554
6.92374754 -0.24612918 1.44748402 0.97955292 -0.43273354 0.56662875
5.41599417 -0.18578582 2.34756351 0.76624006 -0.32664049 0.91897178
6.86045885 0.06416469 1.85949957 0.97059900 0.11281155 0.72791541
5.89129829 -0.19203442 1.87409925 0.83348483 -0.33762652 0.73363060
6.80361986 -0.21011829 1.42154956 0.96255761 -0.36942077 0.55647653
6.55359268 0.09870831 2.51925898 0.92718440 0.17354463 0.98618329
6.23432446 -0.31340361 2.33947515 0.88201523 -0.55101252 0.91580558
5.42254496 -0.15188587 2.34997988 0.76716685 -0.26703909 0.91991770
6.80208921 0.10653584 1.84353077 0.96234101 0.18730664 0.72166431
5.80488873 -0.15301493 1.84574842 0.82125986 -0.26902413 0.72253245
6.73050404 -0.16576067 1.40565431 0.95221335 -0.29143316 0.55025417
5.91306019 -0.26107264 2.21641922 0.83656365 -0.45900646 0.86763436
5.57165146 -0.12047680 2.41521811 0.78826207 -0.21181703 0.94545573
6.51259708 -0.46530586 2.01630068 0.92138445 -0.81808037 0.78929639
6.76465702 -0.12397799 1.41276538 0.95704526 -0.21797267 0.55303788
5.89590263 -0.22327191 2.20930624 0.83413625 -0.39254689 0.86484993
5.88898087 -0.08916821 2.55455446 0.83315694 -0.15677164 1.00000000
6.20661974 0.17701866 1.67958450 0.87809563 0.31122646 0.65748626
5.85962534 -0.08060630 1.86300540 0.82900381 -0.14171846 0.72928780
6.72618866 -0.08111878 1.40439951 0.95160282 -0.14261949 0.54976302
5.61878300 -0.17839168 2.10332179 0.79493010 -0.31364045 0.82336152
5.92280340 -0.04403908 1.88334405 0.83794206 -0.07742758 0.73724949
6.77937126 -0.03900094 1.41569352 0.95912695 -0.06856973 0.55418414
5.60858011 -0.14283964 2.09905386 0.79348660 -0.25113440 0.82169080
6.25261211 -0.47521126 1.58761621 0.88460249 -0.83549565 0.62148458
5.94769812 -0.00676795 1.89135623 0.84146410 -0.01189912 0.74038595
6.89682770 0.00400987 1.44079125 0.97574437 0.00704998 0.56400883
5.90653944 -0.11221998 2.21215153 0.83564109 -0.19730026 0.86596376
6.47755384 -0.45211548 1.64522207 0.91642666 -0.79488963 0.64403486
5.97996712 0.03087945 1.90183377 0.84602946 0.05429090 0.74448746
6.76759195 0.04607683 1.41318369 0.95746046 0.08101027 0.55320162
6.06774759 -0.08612777 2.27332377 0.85844839 -0.15142606 0.88991010
6.70885515 -0.45434216 2.46132255 0.94915056 -0.79880446 0.96350366
5.81826210 -0.26154536 2.47309923 0.82315189 -0.45983759 0.96811372
6.45643139 -0.42000464 1.63921094 0.91343832 -0.73843378 0.64168173
5.98926783 0.05918524 1.90491533 0.84734529 0.10405690 0.74569374
6.74187708 0.07759842 1.40774584 0.95382237 0.13643014 0.55107296
5.89620113 -0.04721759 2.20788360 0.83417845 -0.08301589 0.86429304
6.65170479 -0.40832171 2.43904209 0.94106507 -0.71789336 0.95478177
6.61934471 -0.38935852 1.68078744 0.93648684 -0.68455309 0.65795720
6.04584694 0.09793194 1.92340493 0.85534996 0.17217965 0.75293165
6.01417589 -0.21017778 1.85563493 0.85086918 -0.36952537 0.72640258
6.75885487 0.12032333 1.41151047 0.95622438 0.21154721 0.55254662
6.82852459 -0.22387381 1.36544108 0.96608102 -0.39360511 0.53451240
6.29851007 -0.34584263 2.30675316 0.89109606 -0.60804534 0.90299630
5.45030689 -0.17511471 2.31322622 0.77109456 -0.30787900 0.90553021
6.63913107 0.00110104 1.74439359 0.93928617 0.00193579 0.68285632
6.39128208 0.14486520 2.03557563 0.90422118 0.25469565 0.79684174
5.92765331 -0.16957498 1.82805800 0.83862823 -0.29813930 0.71560735
6.71033096 -0.17744347 1.34095621 0.94935930 -0.31197333 0.52492762
5.94106197 -0.28762469 2.17307186 0.84052527 -0.50568914 0.85066569
5.50086975 -0.14233214 2.33459544 0.77824807 -0.25024211 0.91389537
6.47673798 -0.29890370 1.64271748 0.91631120 -0.52551937 0.64305443
6.50624895 0.18874776 2.07317114 0.92048633 0.33184806 0.81155878
5.89236116 -0.13139407 1.81666756 0.83363521 -0.23101130 0.71114850
6.70347834 -0.13509631 1.33935070 0.94838983 -0.23752041 0.52429914
6.24368572 0.06889345 2.34018636 0.88333964 0.12112544 0.91608393
5.79104280 -0.24338120 2.11667490 0.81930095 -0.42790216 0.82858866
5.65773582 -0.11140104 2.40186858 0.80044103 -0.19586042 0.94022995
6.45914364 -0.25737172 1.63770819 0.91382205 -0.45249969 0.64109349
6.77863789 -0.09423298 1.35460353 0.95902318 -0.16567631 0.53026998
6.42066956 0.11177530 2.40776038 0.90837884 0.19651844 0.94253635
5.65944242 -0.20176981 2.06724072 0.80068249 -0.35474285 0.80923730
5.68219805 -0.07625633 2.41215754 0.80390191 -0.13407053 0.94425762
6.48965740 -0.21784826 1.64522207 0.91813904 -0.38301125 0.64403486
6.80064726 -0.05186879 1.35901892 0.96213704 -0.09119344 0.53199840
6.42567778 0.14217243 2.40989423 0.90908736 0.24996133 0.94337165
5.66220427 -0.17516288 2.06793690 0.80107319 -0.30796370 0.80950981
5.75228500 -0.05033635 2.44223261 0.81381762 -0.08849916 0.95603073
6.18537378 0.14540757 1.62325609 0.87508982 0.25564921 0.63543606
6.48480606 -0.18707845 1.64371932 0.91745269 -0.32891312 0.64344656
5.90710735 -0.02967992 1.82086408 0.83572143 -0.05218194 0.71279126
6.31570435 -0.56877768 1.54355097 0.89352864 -1.00000000 0.60423487
6.74987507 -0.01952023 1.34858274 0.95495391 -0.03431961 0.52791309
