1.65804696 4.91249943 2.02298141 0.95769554 0.97432888 0.91611099
1.51980078 4.87611246 1.69476616 0.87784392 0.96711200 0.76747811
1.64501727 4.97760201 2.04586554 0.95016950 0.98724109 0.92647409
1.36562598 4.80149508 1.65562308 0.78879184 0.95231259 0.74975210
1.35051715 4.83527422 1.66524851 0.78006488 0.95901227 0.75411099
1.66266072 4.99633884 -0.04125096 0.96036047 0.99095726 -0.01868058
1.32632065 4.82286072 1.10145855 0.76608890 0.95655018 0.49879763
1.61532021 4.95719147 -0.04220493 0.93301636 0.98319292 -0.01911258
1.37087381 4.82270288 1.95506752 0.79182297 0.95651889 0.88535607
1.66723204 4.89756250 1.98095250 0.96300089 0.97136629 0.89707816
1.69765139 5.04193163 0.14543504 0.98057121 1.00000000 0.06586053
1.25867212 4.85803509 1.66460681 0.72701478 0.96352655 0.75382036
1.64717174 4.94730473 -0.21524039 0.95141393 0.98123199 -0.09747202
1.56793773 4.91574097 -0.04319559 0.90564805 0.97497177 -0.01956120
1.33956552 4.82763481 1.95359111 0.77373916 0.95749706 0.88468748
1.65852094 5.02970982 0.14415802 0.95796931 0.99757594 0.06528223
1.33603871 4.79352522 1.37875092 0.77170211 0.95073187 0.62436998
1.24135113 4.91916466 1.68321574 0.71701008 0.97565079 0.76224744
1.61972880 4.96897888 -0.21541844 0.93556279 0.98553079 -0.09755266
1.35356116 4.82662916 0.83950001 0.78182316 0.95729762 0.38016918
1.52819836 4.89682722 -0.04374595 0.88269436 0.97122049 -0.01981044
1.60809374 4.98104000 0.14085905 0.92884231 0.98792297 0.06378829
1.19974935 4.88267469 1.66781521 0.69298071 0.96841353 0.75527328
1.46571660 4.88333464 1.65643859 0.84660465 0.96854442 0.75012136
1.58247209 4.95998240 -0.21512169 0.91404313 0.98374647 -0.09741826
1.32679462 4.84835625 0.84190339 0.76636267 0.96160692 0.38125756
1.49106336 4.88526869 -0.04414955 0.86124504 0.96892798 -0.01999321
1.56788111 4.93520069 0.13787933 0.90561533 0.97883135 0.06243892
1.43724442 4.87200260 1.65014005 0.83015895 0.96629685 0.74726909
1.54607058 4.92535734 -0.21446879 0.89301747 0.97687906 -0.09712260
1.45441532 4.84621954 -0.04503013 0.84007698 0.96118313 -0.02039198
1.65945494 4.97098255 -0.07115844 0.95850879 0.98592818 -0.03222423
1.52396631 4.90294552 0.13553812 0.88024992 0.97243398 0.06137870
1.40553868 4.87729311 1.64888024 0.81184560 0.96734613 0.74669856
1.50640261 4.90626431 -0.21402363 0.87010503 0.97309220 -0.09692101
1.40839612 4.80147123 -0.04605748 0.81349605 0.95230788 -0.02085722
1.61561501 4.94334221 -0.07166748 0.93318665 0.98044610 -0.03245476
1.47879958 4.86459541 0.13287766 0.85416144 0.96482772 0.06017390
1.34774888 4.79111814 1.61612749 0.77846593 0.95025450 0.73186642
1.45625639 4.85043335 -0.21301463 0.84114039 0.96201885 -0.09646408
1.37005568 4.78135777 -0.04660784 0.79135042 0.94831866 -0.02110645
1.56972134 4.90773916 -0.07227834 0.90667826 0.97338474 -0.03273139
1.35689640 4.79399872 1.06821918 0.78374958 0.95082581 0.48374510
1.44090986 4.84887409 0.13149422 0.83227617 0.96170962 0.05954741
1.66770172 5.02054358 0.11418284 0.96327215 0.99575794 0.05170792
1.35415328 4.79986954 0.29825965 0.78216517 0.95199019 0.13506745
1.33240914 4.85251617 1.63439345 0.76960564 0.96243197 0.74013817
1.41853297 4.83451271 -0.21262884 0.81935114 0.95886123 -0.09628937
1.32990050 4.75324106 -0.04730497 0.76815665 0.94274205 -0.02142215
1.53159690 4.89463091 -0.07258376 0.88465738 0.97078484 -0.03286970
1.32305455 4.78926897 1.06519413 0.76420236 0.94988775 0.48237520
1.39449012 4.80214643 0.12840809 0.80546391 0.95244181 0.05814985
1.61987054 4.98159075 0.11170682 0.93564463 0.98803216 0.05058665
1.31927860 4.79097605 0.29668975 0.76202136 0.95022631 0.13435651
1.30438638 4.86994982 1.63754272 0.75341958 0.96588969 0.74156433
1.38432670 4.82985783 -0.21242110 0.79959345 0.95793796 -0.09619530
1.30519617 4.78081560 -0.04693806 0.75388730 0.94821113 -0.02125599
1.49251390 4.87741804 -0.07294010 0.86208290 0.96737093 -0.03303106
1.38727176 4.83693933 1.92574155 0.80129451 0.95934248 0.87207574
1.35623407 4.78195953 0.12681180 0.78336704 0.94843799 0.05742697
1.57566118 4.95174313 0.10970696 0.91010910 0.98211229 0.04968101
1.37232661 4.79835558 1.34317541 0.79266214 0.95168996 0.60825956
1.27181411 4.87071085 1.63502336 0.73460567 0.96604061 0.74042344
1.34333062 4.79990101 -0.21182756 0.77591395 0.95199645 -0.09592652
1.40327084 4.90239906 0.82790369 0.81053567 0.97232556 0.37491778
1.44441533 4.82928991 -0.07370367 0.83430094 0.95782536 -0.03337685
1.30685949 4.65791178 0.45156386 0.75484806 0.92383480 0.20449156
1.36087525 4.83088207 1.92065632 0.78604776 0.95814115 0.86977291
1.32946062 4.77288866 0.12596045 0.76790255 0.94663888 0.05704143
1.53116095 4.89246750 0.10637386 0.88440561 0.97035581 0.04817161
1.35075760 4.80847692 1.34424007 0.78020376 0.95369738 0.60874170
1.32278478 4.81389999 -0.21194628 0.76404655 0.95477295 -0.09598028
1.37961209 4.90706110 0.82757032 0.79687029 0.97325021 0.37476680
1.41935492 4.82837725 -0.07380548 0.81982589 0.95764434 -0.03342295
1.31473517 4.80405331 0.46900922 0.75939709 0.95282000 0.21239172
1.30047739 4.78500605 0.12617330 0.75116169 0.94904226 0.05713782
1.49387586 4.88100433 0.10532632 0.86286956 0.96808219 0.04769722
1.37947440 4.80456161 -0.07423817 0.79679072 0.95292079 -0.03361890
1.67103314 5.00772476 -0.09046810 0.96519643 0.99321550 -0.04096865
1.04040492 4.85710859 1.93661273 0.60094267 0.96334279 0.87699878
1.66866338 4.88857794 1.92976320 0.96382761 0.96958435 0.87389696
1.44286919 4.82338810 0.10199321 0.83340788 0.95665479 0.04618782
1.35516095 4.78252888 0.27149838 0.78274721 0.94855094 0.12294856
1.62971544 4.98767090 -0.09075531 0.94133109 0.98923808 -0.04109871
1.64142919 4.90961647 1.93403101 0.94809705 0.97375703 0.87582964
1.41082990 4.82661295 0.10170752 0.81490183 0.95729440 0.04605844
1.33047688 4.81013823 0.27314171 0.76848954 0.95402688 0.12369274
1.70192242 5.03168964 0.09054501 0.98303819 0.99796861 0.04100348
1.58149433 4.94440985 -0.09125791 0.91347837 0.98065788 -0.04132632
1.46879792 4.85591030 2.19534063 0.84838444 0.96310514 0.99416423
1.37046421 4.80084467 0.09999335 0.79158640 0.95218360 0.04528218
1.64853716 4.97581196 0.08753628 0.95220262 0.98688602 0.03964097
1.53919029 4.91794062 -0.09159897 0.88904339 0.97540802 -0.04148077
1.33069265 4.79673719 0.44066885 0.76861417 0.95136893 0.19955774
1.44644976 4.89316511 2.20822740 0.83547604 0.97049415 1.00000000
1.34190524 4.81512737 0.10027905 0.77509063 0.95501637 0.04541156
1.61480439 4.97845984 0.08719242 0.93271840 0.98741120 0.03948526
1.49439263 4.88156319 -0.09202978 0.86316806 0.96819305 -0.04167586
1.70934391 5.02296543 -0.12566990 0.98732489 0.99623829 -0.05690985
1.42236793 4.89640713 2.20661640 0.82156622 0.97113717 0.99927044
1.58472466 4.96504927 0.08624682 0.91534424 0.98475140 0.03905703
1.46511590 4.86746025 -0.09222723 0.84625769 0.96539593 -0.04176528
1.67151642 4.98929834 -0.12577087 0.96547556 0.98956090 -0.05695558
1.36054146 4.79416943 2.15587568 0.78585500 0.95085967 0.97629243
1.53526473 4.91570950 0.08358193 0.88677597 0.97496551 0.03785024
1.42114305 4.83046865 -0.09265804 0.82085872 0.95805913 -0.04196037
1.62625861 4.95794773 -0.12587184 0.93933445 0.98334289 -0.05700130
1.32991064 4.80085707 2.15507007 0.76816249 0.95218605 0.97592759
1.49455404 4.89273310 0.08212055 0.86326128 0.97040844 0.03718844
1.32802391 4.82059622 1.58442807 0.76707268 0.95610106 0.71751130
1.37932730 4.79889154 -0.09303500 0.79670578 0.95179623 -0.04213108
1.32239950 4.82371998 1.03546202 0.76382399 0.95672065 0.46891096
1.57094145 4.89389563 -0.12605083 0.90738297 0.97063905 -0.05708236
1.08922815 4.88019371 1.91339171 0.62914318 0.96792144 0.86648309
1.37090158 4.79927349 0.58958590 0.79183906 0.95187199 0.26699510
1.44516742 4.83876991 0.07928374 0.83473533 0.95970559 0.03590379
1.65657461 4.97124958 0.05387150 0.95684510 0.98598117 0.02439581
1.35493755 4.78916454 0.24421364 0.78261817 0.94986701 0.11059261
1.34116006 4.77854776 -0.09330425 0.77466023 0.94776130 -0.04225301
1.53105867 4.87508392 -0.12611969 0.88434649 0.96690798 -0.05711354
1.05532873 4.87238455 1.90758002 0.60956270 0.96637261 0.86385125
1.69086421 4.90149164 1.88969493 0.97665089 0.97214562 0.85575199
1.31714809 4.72191334 0.57658058 0.76079077 0.93652862 0.26110563
1.56221926 4.87847996 2.17076516 0.90234500 0.96758151 0.98303515
1.40700758 4.82086945 0.07808024 0.81269401 0.95615524 0.03535879
1.61401546 4.94740200 0.05255459 0.93226272 0.98125130 0.02379945
1.32848036 4.81105328 0.24528630 0.76733637 0.95420837 0.11107837
1.51784408 4.88831997 0.22334346 0.87671369 0.96953315 0.10114151
1.36118519 4.81804419 0.77632082 0.78622681 0.95559490 0.35155836
1.31267047 4.79267311 -0.09325040 0.75820446 0.95056289 -0.04222862
1.49325931 4.86169386 -0.12617476 0.86251342 0.96425223 -0.05713848
1.36119556 4.81222057 1.86716831 0.78623283 0.95443988 0.84555072
1.66164756 4.89167643 1.88273227 0.95977527 0.97019887 0.85259891
1.31959343 4.81978941 0.59045291 0.76220322 0.95594102 0.26738772
1.54424238 4.90153456 2.17788815 0.89196146 0.97215408 0.98626083
1.37341440 4.78898716 0.07636096 0.79329044 0.94983184 0.03458021
1.33898056 4.76018333 1.29038656 0.77340132 0.94411898 0.58435404
1.57522476 4.90743780 0.05072556 0.90985703 0.97332495 0.02297117
1.48180747 4.85349226 0.22024336 0.85589880 0.96262556 0.09973763
1.33482516 4.81107283 0.77408409 0.77100116 0.95421225 0.35054547
1.35431564 4.79250193 0.42138830 0.78225893 0.95052892 0.19082649
1.33583415 4.83871651 1.87428141 0.77158391 0.95969498 0.84877193
1.34117377 4.78981638 0.07601710 0.77466810 0.94999629 0.03442449
1.31509018 4.79088259 1.29659879 0.75960213 0.95020777 0.58716726
1.52131629 4.84486914 0.04794543 0.87871927 0.96091527 0.02171218
1.43624961 4.81306219 0.21657962 0.82958436 0.95460677 0.09807850
1.30711067 4.82890415 0.77568179 0.75499314 0.95774883 0.35126898
1.41733372 4.80309820 -0.12635376 0.81865847 0.95263058 -0.05721954
1.32625937 4.80858898 0.42228243 0.76605350 0.95371962 0.19123140
1.19248629 4.86510134 2.16715121 0.68878555 0.96492809 0.98139858
1.30949581 4.79235983 0.07575922 0.75637078 0.95050079 0.03430771
1.48906207 4.84860754 0.04772595 0.86008906 0.96165675 0.02161279
1.39522231 4.78564453 0.21390225 0.80588681 0.94916886 0.09686604
1.37982404 4.78695583 -0.12641342 0.79699272 0.94942898 -0.05724656
1.68949795 5.01260090 -0.15543476 0.97586179 0.99418265 -0.07038893
1.15688586 4.85110855 2.15748644 0.66822261 0.96215278 0.97702187
1.37243497 4.77484798 0.56115723 0.79272473 0.94702750 0.25412112
1.44633734 4.81771755 0.04618956 0.83541107 0.95553011 0.02091703
1.35348821 4.75406981 0.21094306 0.78178102 0.94290644 0.09552597
1.66275191 5.01998186 0.20708804 0.96041316 0.99564654 0.09378021
1.34862018 4.79168510 -0.12642260 0.77896917 0.95036691 -0.05725072
1.63504589 4.95275831 -0.15518869 0.94441003 0.98231363 -0.07027750
1.12557042 4.85471153 2.15587568 0.65013462 0.96286738 0.97629243
1.33534896 4.75861740 0.55752784 0.77130371 0.94380838 0.25247756
1.37579894 4.78539991 2.10903215 0.79466778 0.94912034 0.95507926
1.40520084 4.79031467 0.04479950 0.81165045 0.95009512 0.02028754
1.32901216 4.78167963 0.21235220 0.76764351 0.94838250 0.09616410
1.36402428 4.81323576 1.53670168 0.78786665 0.95464122 0.69589829
1.62326992 5.00562000 0.20539428 0.93760812 0.99279809 0.09301320
1.33085191 4.84437084 -0.12631704 0.76870614 0.96081644 -0.05720291
1.34830892 4.80486345 0.98813325 0.77878940 0.95298070 0.44747803
1.59903395 4.94769001 -0.15513550 0.92360932 0.98130840 -0.07025341
1.37670314 4.76175261 0.38489538 0.79519004 0.94443023 0.17430061
1.35325873 4.82044506 2.12090373 0.78164846 0.95607108 0.96045530
1.36725807 4.77218199 0.04377524 0.78973454 0.94649875 0.01982370
1.33685195 4.83273220 1.54029870 0.77217180 0.95850807 0.69752723
1.67400455 5.01791763 0.03013314 0.96691269 0.99523717 0.01364585
1.57986009 4.97762918 0.20278850 0.91253442 0.98724645 0.09183316
1.56073546 4.90746260 -0.15496925 0.90148795 0.97332984 -0.07017812
1.35314620 4.76436520 0.38447526 0.78158343 0.94494838 0.17411035
1.34475458 4.77857208 0.04377524 0.77673644 0.94776613 0.01982370
1.63061643 4.96489906 0.02810097 0.94185150 0.98472160 0.01272558
1.53935266 4.92970514 0.19901013 0.88913715 0.97774136 0.09012212
1.51168537 4.85789919 -0.15476309 0.87315643 0.96349961 -0.07008476
1.73128819 5.00099564 -0.17998528 1.00000000 0.99188089 -0.08150668
1.58367491 4.92550516 0.02644983 0.91473788 0.97690839 0.01197786
1.48878574 4.87430525 0.19458032 0.85992950 0.96675354 0.08811607
1.29544020 4.55535650 0.68934023 0.74825221 0.90349430 0.31216905
1.47596133 4.85006046 -0.15470324 0.85252202 0.96194494 -0.07005766
1.68489027 4.96827078 -0.17961906 0.97320032 0.98539037 -0.08134083
1.37659514 4.81191874 1.82285416 0.79512769 0.95437998 0.82548296
1.35295546 4.77573586 1.24949455 0.78147328 0.94720364 0.56583601
1.54558706 4.91244793 0.02568777 0.89273816 0.97431862 0.01163276
1.44968021 4.85484457 0.19262597 0.83734196 0.96289378 0.08723104
1.66042995 4.98732471 0.17507349 0.95907193 0.98916942 0.07928237
1.31136465 4.72133398 0.71440065 0.75745022 0.93641371 0.32351771
1.43420780 4.82085371 -0.15457024 0.82840502 0.95615214 -0.06999743
1.63833463 4.93326616 -0.17923690 0.94630957 0.97844768 -0.08116777
1.34684563 4.82227707 1.82355046 0.77794421 0.95643443 0.82579833
1.61366630 4.87995195 2.11272240 0.93206108 0.96787351 0.95675039
1.32396948 4.78787041 1.25049639 0.76473087 0.94961035 0.56628966
1.50366342 4.88571739 0.02448117 0.86852288 0.96901697 0.01108634
1.41308355 4.84275818 0.19119281 0.81620353 0.96049660 0.08658203
1.60213983 4.91614151 0.16995892 0.92540330 0.97505122 0.07696622
1.39287996 4.79131460 -0.15443723 0.80453384 0.95029342 -0.06993719
1.59541523 4.90737247 -0.17893435 0.92151916 0.97331196 -0.08103076
1.05582917 4.84814072 1.85223091 0.60985178 0.96156412 0.83878630
1.58521843 4.89702511 2.11580849 0.91562945 0.97125971 0.95814794
1.46100032 4.85482264 0.02314755 0.84388047 0.96288943 0.01048241
1.66388977 4.97291374 -0.00684698 0.96107036 0.98631120 -0.00310067
1.36914682 4.80350304 0.18793558 0.79082549 0.95271087 0.08510698
1.56139302 4.89571619 0.16805582 0.90186775 0.97100013 0.07610440
1.35359561 4.76722717 -0.15432419 0.78184301 0.94551605 -0.06988601
1.55595565 4.89065218 -0.17871143 0.89872712 0.96999574 -0.08092982
1.02913451 4.87298346 1.85934401 0.59443283 0.96649140 0.84200752
1.64957011 4.88164806 1.82041669 0.95279926 0.96820986 0.82437921
1.32858670 4.73205805 0.52598697 0.76739776 0.93854070 0.23819421
1.41711628 4.81782579 0.02162343 0.81853288 0.95555156 0.00979221
1.60678792 4.90546942 -0.00889549 0.92808807 0.97293454 -0.00402834
1.33524859 4.79853678 0.18702355 0.77124572 0.95172590 0.08469398
1.51313782 4.85022974 0.16460645 0.87399536 0.96197850 0.07454234
1.32846916 4.76390934 -0.15429093 0.76732987 0.94485795 -0.06987094
1.51293004 4.83502340 -0.17818597 0.87387532 0.95896250 -0.08069186
1.15574574 4.87346315 2.12169528 0.66756403 0.96658653 0.96081376
1.62126541 4.87327719 1.81431675 0.93645036 0.96654963 0.82161683
1.32910132 4.82243061 0.53778744 0.76769501 0.95646489 0.24353807
1.38673544 4.79753399 0.02073435 0.80098474 0.95152700 0.00938959
1.56813133 4.86547375 -0.01014458 0.90575987 0.96500194 -0.00459399
1.31987453 4.83175802 0.18884760 0.76236558 0.95831484 0.08552000
1.48967171 4.85539961 0.16448751 0.86044121 0.96300387 0.07448848
1.47422028 4.81769371 -0.17796305 0.85151637 0.95552540 -0.08059090
1.11502576 4.83771420 2.10270047 0.64404398 0.95949620 0.95221192
1.36422324 4.80151463 0.36399934 0.78798163 0.95231646 0.16483779
1.34318519 4.75800180 0.01914672 0.77582991 0.94368631 0.00867063
1.52656901 4.84095144 -0.01104392 0.88175327 0.96013826 -0.00500126
1.43356073 4.78062487 0.15925400 0.82803124 0.94817328 0.07211848
1.43404555 4.79432821 -0.17769235 0.82831126 0.95089114 -0.08046832
1.33297968 4.80615234 0.36359864 0.76993519 0.95323634 0.16465634
1.32006323 4.79142857 0.01997229 0.76247460 0.95031607 0.00904449
1.48597419 4.81800842 -0.01189330 0.85830551 0.95558780 -0.00538590
1.39723361 4.76848841 0.15794562 0.80704856 0.94576615 0.07152598
1.39365423 4.76873207 -0.17740573 0.80498105 0.94581449 -0.08033852
1.37843418 4.77438736 0.49826929 0.79618990 0.94693613 0.22564220
1.44221842 4.78327656 -0.01304246 0.83303195 0.94869924 -0.00590630
1.35725880 4.79394007 1.47777212 0.78395891 0.95081419 0.66921192
1.36000144 4.75225019 0.15639935 0.78554308 0.94254553 0.07082575
1.34056485 4.78497601 0.93636155 0.77431643 0.94903630 0.42403311
1.36551285 4.80183125 2.05100083 0.78872651 0.95237929 0.92879963
1.33857930 4.74862576 0.49369034 0.77316952 0.94182670 0.22356862
1.68353224 4.94282007 2.09330416 0.97241592 0.98034257 0.94795680
1.40411484 4.76542616 -0.01374195 0.81102318 0.94515884 -0.00622307
1.32409775 4.79129314 1.47428572 0.76480496 0.95028919 0.66763312
1.32793498 4.75301933 0.15592358 0.76702136 0.94269812 0.07061029
1.33470953 4.78971672 -0.17743757 0.77093434 0.94997650 -0.08035295
1.10798299 4.87116003 1.81937289 0.63997608 0.96612972 0.82390648
1.33191121 4.79785633 2.04560018 0.76931804 0.95159090 0.92635393
1.62516940 4.87259626 2.05856228 0.93870533 0.96641457 0.93222386
1.36292756 4.73577261 -0.01474122 0.78723323 0.93927741 -0.00667559
1.08252800 4.86535645 1.81519532 0.62527311 0.96497864 0.82201469
1.35652936 4.74919510 0.32076421 0.78353757 0.94193959 0.14525869
1.33949196 4.73829937 -0.01484115 0.77369672 0.93977857 -0.00672084
1.36774433 4.77645111 1.75399446 0.79001540 0.94734550 0.79429972
1.34297717 4.79831409 1.20545471 0.77570975 0.95168173 0.54589248
1.34219897 4.80127859 1.76009440 0.77526027 0.95226967 0.79706210
1.63457322 4.87660313 1.76181269 0.94413698 0.96720928 0.79784024
1.59853780 4.87065315 1.75587463 0.92332274 0.96602917 0.79515117
1.36955750 4.75936031 0.88758051 0.79106271 0.94395572 0.40194252
1.37278128 4.81189299 1.43151140 0.79292476 0.95437491 0.64826268
1.35688114 4.79977942 0.89416724 0.78374076 0.95197231 0.40492535
1.39362335 4.82825661 2.01324677 0.80496323 0.95762038 0.91170263
1.34378648 4.79615688 1.42476177 0.77617723 0.95125383 0.64520609
1.35663462 4.81377220 2.00342846 0.78359836 0.95474762 0.90725642
1.06686378 4.82965422 2.03171301 0.61622542 0.95789760 0.92006510
1.38494170 4.80019379 1.71034944 0.79994869 0.95205450 0.77453500
1.35190451 4.80364132 1.15310526 0.78086627 0.95273829 0.52218592
1.10239029 4.84071922 1.75263894 0.63674569 0.96009219 0.79368591
1.35475397 4.80880070 1.71034944 0.78251213 0.95376158 0.77453500
1.17699957 4.84176779 1.70573092 0.67984033 0.96030015 0.77244353
1.08266950 4.84854317 1.98983383 0.62535489 0.96164399 0.90110004
1.15539372 4.88577938 1.71892667 0.66736072 0.96902931 0.77841926
1.04858732 4.83897543 1.98303652 0.60566884 0.95974636 0.89802188
