-1.60721135 5.80200815 2.00406075 -0.95673889 0.93337256 0.88017839
-1.65253055 5.82274437 2.01496935 -0.98371643 0.93670839 0.88496941
-1.62549174 5.77814531 1.32866108 -0.96762085 0.92953372 0.58354455
-1.50967503 5.79062748 1.00876999 -0.89867759 0.93154174 0.44304919
-1.35181808 6.05717754 -0.22996004 -0.80470872 0.97442180 -0.10099787
-1.52334654 5.69735384 0.99366277 -0.90681595 0.91653675 0.43641415
-1.59846640 5.79285479 1.67223394 -0.95153320 0.93190008 0.73444086
-1.36350441 5.93560886 -0.22823879 -0.81166530 0.95486498 -0.10024189
-1.58179367 5.76930141 1.00842667 -0.94160831 0.92811102 0.44289842
-1.63642108 5.78824568 1.67387342 -0.97412682 0.93115860 0.73516095
-1.45488048 6.15250015 -0.23168129 -0.86605954 0.98975641 -0.10175383
-1.66331768 5.91843271 1.03726780 -0.99013782 0.95210183 0.45556536
-1.48106349 6.09275484 -0.23090969 -0.88164574 0.98014516 -0.10141495
-1.49624586 5.99221468 -0.22951488 -0.89068347 0.96397120 -0.10080235
-1.48999369 5.66494703 -0.03039044 -0.88696170 0.91132343 -0.01334740
-1.37485695 5.99494314 -0.05957764 -0.81842321 0.96441013 -0.02616635
-1.52758014 5.74803162 0.38233700 -0.90933615 0.92468935 0.16792144
-1.60898459 5.92023563 2.00034237 -0.95779449 0.95239186 0.87854528
-1.51046717 5.93088150 -0.22868393 -0.89914912 0.95410448 -0.10043740
-1.50828099 5.62698841 -0.03097750 -0.89784777 0.90521705 -0.01360524
-1.41118801 6.02347231 -0.05911950 -0.84005034 0.96899962 -0.02596513
-1.56212187 5.78266382 1.29120123 -0.92989808 0.93026060 0.56709230
-1.56843913 5.75560474 0.38390690 -0.93365860 0.92590761 0.16861093
-1.62853611 5.84594917 1.97829723 -0.96943307 0.94044137 0.86886311
-1.52721643 5.84395027 -0.22749688 -0.90911961 0.94011980 -0.09991605
-1.40154231 6.20290041 -0.26988226 -0.83430845 0.99786437 -0.11853160
-1.53555787 5.58850574 -0.03152786 -0.91408509 0.89902627 -0.01384696
-1.42960227 5.93276596 -0.06018850 -0.85101199 0.95440763 -0.02643464
-1.60202730 5.78592062 1.29422617 -0.95365292 0.93078452 0.56842083
-1.52480042 5.81034088 0.59427679 -0.90768141 0.93471307 0.26100484
-1.51910257 5.74781942 0.17874402 -0.90428960 0.92465520 0.07850391
-1.65957248 5.81550312 1.97136879 -0.98790836 0.93554348 0.86582017
-1.54555500 5.76669502 -0.22645819 -0.92003620 0.92769170 -0.09945986
-1.43646801 6.17643070 -0.26950869 -0.85509902 0.99360615 -0.11836753
-1.55582678 5.52682829 -0.03251851 -0.92615074 0.88910419 -0.01428205
-1.44456220 5.83235455 -0.06138476 -0.85991728 0.93825442 -0.02696003
-1.56545734 5.81596756 0.59621513 -0.93188363 0.93561822 0.26185617
-1.55095470 5.72275448 0.17789267 -0.92325050 0.92062300 0.07813001
-1.56405663 5.69329596 -0.22547886 -0.93104982 0.91588396 -0.09902974
-1.45367658 6.07581234 -0.26755783 -0.86534292 0.97741961 -0.11751071
-1.54018366 5.76680994 0.97489971 -0.91683871 0.92771018 0.42817345
-1.57874644 5.47663546 -0.03328903 -0.93979436 0.88102967 -0.01462046
-1.45637190 5.72423458 -0.06268282 -0.86694735 0.92086107 -0.02753014
-1.60090005 5.80219316 0.59573054 -0.95298189 0.93340230 0.26164332
-1.59407759 5.81932640 1.63114583 -0.94892067 0.93615854 0.71639508
-1.58608544 5.63527918 -0.22473693 -0.94416308 0.90655077 -0.09870388
-1.47721708 6.00631762 -0.26627108 -0.87935609 0.96623993 -0.11694558
-1.57792997 5.76273012 0.97589970 -0.93930829 0.92705387 0.42861265
-1.49530089 5.72659111 -0.06253011 -0.89012098 0.92124015 -0.02746306
-1.63215411 5.81476927 1.63274276 -0.97158676 0.93542546 0.71709645
-1.60688698 5.57529259 -0.22396535 -0.95654583 0.89690071 -0.09836501
-1.43662143 5.68259430 -0.25954685 -0.85519034 0.91416240 -0.11399231
-1.60884404 5.73369694 0.97256643 -0.95771080 0.92238331 0.42714870
-1.50877917 5.63200808 -0.06365001 -0.89814430 0.90602458 -0.02795492
-1.36649001 6.09789228 -0.08176219 -0.81344259 0.98097163 -0.03590975
-1.50278413 5.83079863 -0.26286745 -0.89457560 0.93800408 -0.11545071
-1.51866698 5.56304073 -0.06446449 -0.90403032 0.89492971 -0.02831264
-1.39566326 6.09333324 -0.08174424 -0.83080882 0.98023820 -0.03590186
-1.51335716 5.77006102 0.55559903 -0.90086949 0.92823321 0.24401768
-1.51869881 5.74191284 -0.26116565 -0.90404928 0.92370498 -0.11470328
-1.53975880 5.50326633 -0.06512624 -0.91658580 0.88531381 -0.02860328
-1.34221101 6.07821608 -0.29197335 -0.79898977 0.97780627 -0.12823395
-1.41159689 5.99107981 -0.08260585 -0.84029377 0.96378863 -0.03628028
-1.53276753 5.69707394 0.54796785 -0.91242409 0.91649175 0.24066608
-1.54449677 5.76830959 0.14665678 -0.91940624 0.92795146 0.06441128
-1.54337621 5.68976164 -0.26025248 -0.91873920 0.91531539 -0.11430223
-1.56124818 5.44729757 -0.06573710 -0.92937797 0.87631005 -0.02887157
-1.36148524 5.98784065 -0.28989464 -0.81046337 0.96326756 -0.12732099
-1.44109786 5.94907570 -0.08291101 -0.85785502 0.95703143 -0.03641431
-1.58209360 5.73717022 0.55398029 -0.94178683 0.92294204 0.24330673
-1.55529296 5.59317684 -0.25838462 -0.92583299 0.89977777 -0.11348186
-1.42495191 6.08810377 -0.29266626 -0.84824371 0.97939694 -0.12853827
-1.45837927 5.86040115 -0.08364698 -0.86814231 0.94276631 -0.03673754
-1.52764344 5.35999680 -0.25356972 -0.90937382 0.86226594 -0.11136717
-1.42002439 5.90227747 -0.28816238 -0.84531045 0.94950294 -0.12656018
-1.48212898 5.80078697 -0.08411369 -0.88227999 0.93317610 -0.03694252
-1.43227530 5.79433298 -0.28563821 -0.85260314 0.93213785 -0.12545158
-1.49850798 5.71598101 -0.08481374 -0.89203006 0.91953331 -0.03724998
-1.58449721 5.75365353 1.24210048 -0.94321764 0.92559373 0.54552734
-1.41791892 6.21617603 -0.12321442 -0.84405714 1.00000000 -0.05411546
-1.53341568 5.78642893 0.32175222 -0.91280991 0.93086630 0.14131275
-1.61964571 5.80198336 1.91600919 -0.96414083 0.93336856 0.84150636
-1.49078238 5.90955114 -0.28875628 -0.88743120 0.95067304 -0.12682103
-1.51287711 5.66252804 -0.08524455 -0.90058374 0.91093433 -0.03743919
-1.61266208 5.74988556 1.24293709 -0.95998359 0.92498755 0.54589480
-1.40063047 6.00670528 -0.12369175 -0.83376569 0.96630234 -0.05432510
-1.55989575 5.79831648 0.73755723 -0.92857295 0.93277866 0.32393324
-1.56603622 5.76322222 0.32067955 -0.93222821 0.92713302 0.14084163
-1.67988503 5.87393332 1.94374359 -1.00000000 0.94494319 0.85368723
-1.47863817 5.71248341 -0.28395543 -0.88020200 0.91897064 -0.12471250
-1.36938155 6.09123087 -0.33281690 -0.81516385 0.97990000 -0.14617233
-1.52755916 5.57775640 -0.08594462 -0.90932363 0.89729702 -0.03774666
-1.42500436 5.94134140 -0.12382484 -0.84827495 0.95578718 -0.05438355
-1.59203601 5.77315331 0.73524517 -0.94770533 0.92873067 0.32291779
-1.51069462 5.74792957 0.11770963 -0.89928454 0.92467290 0.05169777
-1.53477454 5.77837467 -0.28588569 -0.91361880 0.92957062 -0.12556027
-1.56431663 5.74922466 0.93033373 -0.93120456 0.92488128 0.40860021
-1.37874317 5.95582104 -0.32876047 -0.82073665 0.95811653 -0.14439076
-1.55108500 5.52765274 -0.08632158 -0.92332804 0.88923687 -0.03791222
-1.45002913 5.88174105 -0.12394418 -0.86317164 0.94619924 -0.05443597
-1.53636611 5.75446177 0.53113919 -0.91456622 0.92572373 0.23327498
-1.54519987 5.73254156 0.11745173 -0.91982478 0.92219740 0.05158450
-1.58716726 5.76992512 1.56889951 -0.94480705 0.92821133 0.68905663
-1.55615604 5.71465206 -0.28449985 -0.92634678 0.91931951 -0.12495161
-1.60040891 5.73928261 0.93033373 -0.95268953 0.92328185 0.40860021
-1.44444621 6.06770372 -0.33262968 -0.85984826 0.97611517 -0.14609011
-1.57012749 5.46403360 -0.08682419 -0.93466365 0.87900239 -0.03813296
-1.47048652 5.80653906 -0.12410022 -0.87534952 0.93410146 -0.05450450
-1.57514822 5.75427055 0.53225678 -0.93765241 0.92569298 0.23376583
-1.64024556 5.85218668 2.27688026 -0.97640347 0.94144481 1.00000000
-1.59250140 5.76312733 0.11925698 -0.94798237 0.92711776 0.05237736
-1.62922347 5.78027248 1.57459402 -0.96984226 0.92987591 0.69155765
-1.57353389 5.63934755 -0.28281710 -0.93669140 0.90720522 -0.12421255
-1.46472692 5.98466396 -0.33025822 -0.87192094 0.96275651 -0.14504857
-1.58500481 5.38889647 -0.08743449 -0.94351983 0.86691505 -0.03840101
-1.49452615 5.74875069 -0.12421497 -0.88965976 0.92480499 -0.05455490
-1.67333090 5.82920074 2.27190113 -0.99609846 0.93774706 0.99781317
-1.54609382 5.41233444 -0.27722436 -0.92035693 0.87068552 -0.12175623
-1.48209786 5.89385080 -0.32763717 -0.88226151 0.94814736 -0.14389741
-1.49449551 5.60191822 -0.12454084 -0.88964152 0.90118396 -0.05469802
-1.52955949 5.75460720 0.70019025 -0.91051441 0.92574716 0.30752176
-1.49515069 5.82866096 -0.32576495 -0.89003158 0.93766022 -0.14307514
-1.54573452 5.68753958 -0.12432053 -0.92014307 0.91495794 -0.05460126
-1.49800766 5.63325882 1.15992880 -0.89173228 0.90622574 0.50943774
-1.38805723 6.14483070 -0.15879308 -0.82628107 0.98852265 -0.06974152
-1.56414366 5.73914576 0.69935274 -0.93110162 0.92325985 0.30715394
-1.51717615 5.76304007 -0.32395518 -0.90314287 0.92710376 -0.14228028
-1.52526093 5.47329473 -0.12480704 -0.90795553 0.88049221 -0.05481493
-1.57662177 5.78456306 1.19404697 -0.93852955 0.93056613 0.52442241
-1.44133341 6.19827795 -0.15900588 -0.85799527 0.99712074 -0.06983498
-1.51673174 5.74237108 0.48866633 -0.90287828 0.92377871 0.21462101
-1.61454797 5.83879948 1.86822450 -0.96110624 0.93929118 0.82051945
-1.53586423 5.68771601 -0.32183334 -0.91426748 0.91498631 -0.14134838
-1.54715216 5.41932535 -0.12491260 -0.92098695 0.87181014 -0.05486129
-1.61345661 5.77643156 1.19444847 -0.96045655 0.92925805 0.52459872
-1.41849208 5.93448353 -0.15813471 -0.84439832 0.95468396 -0.06945236
-1.55226851 5.73080635 0.48845628 -0.92403257 0.92191827 0.21452875
-1.65428555 5.83956480 1.87182140 -0.98476118 0.93941432 0.82209921
-1.55208659 5.60660219 -0.31952429 -0.92392427 0.90193748 -0.14033425
-1.52682865 5.79359674 0.88106745 -0.90888876 0.93201941 0.38696256
-1.42576599 5.80513477 -0.15772240 -0.84872830 0.93387556 -0.06927127
-1.53556764 5.41193247 -0.31353325 -0.91409093 0.87062085 -0.13770300
-1.59681773 5.90997171 0.90099502 -0.95055181 0.95074075 0.39571470
-1.45874166 5.78249884 -0.15767585 -0.86835802 0.93023407 -0.06925083
-1.57523632 5.80112171 1.52049279 -0.93770486 0.93322998 0.66779655
-1.60055339 5.77776718 0.88167131 -0.95277554 0.92947292 0.38722777
-1.51425159 5.88393164 -0.15804826 -0.90140194 0.94655162 -0.06941439
-1.36591840 6.13596153 -0.18789913 -0.81310230 0.98709583 -0.08252481
-1.61146319 5.88512278 2.23016500 -0.95926994 0.94674325 0.97948277
-1.60255587 5.79363441 1.52049279 -0.95396757 0.93202549 0.66779655
-1.62405026 5.75682831 0.87955779 -0.96676272 0.92610443 0.38629952
-1.48241794 5.61734724 -0.15716378 -0.88245201 0.90366608 -0.06902593
-1.41545737 6.17602873 -0.18829721 -0.84259182 0.99354148 -0.08269966
-1.64140153 5.84958553 2.22041726 -0.97709161 0.94102639 0.97520161
-1.54709888 5.79006720 0.67188376 -0.92095524 0.93145162 0.29508963
-1.55376446 5.76295471 0.25151655 -0.92492312 0.92708999 0.11046543
-1.54890728 5.72171545 -0.15755615 -0.92203170 0.92045581 -0.06919826
-1.43657660 6.09104109 -0.18767621 -0.85516363 0.97986948 -0.08242691
-1.58079755 5.77068377 0.67054284 -0.94101530 0.92833340 0.29450071
-1.57887244 5.69069147 -0.15748300 -0.93986934 0.91546500 -0.06916613
-1.45807934 6.01186991 -0.18710297 -0.86796379 0.96713316 -0.08217515
-1.52883005 5.75919533 0.46136725 -0.91008019 0.92648524 0.20263132
-1.52067924 5.68976688 0.04918475 -0.90522814 0.91531622 0.02160181
-1.55372107 5.46925020 -0.15675148 -0.92489725 0.87984157 -0.06884485
-1.48198509 5.94626665 -0.18664120 -0.88219434 0.95657951 -0.08197234
-1.56604409 5.75331259 0.46176794 -0.93223292 0.92553890 0.20280731
-1.56014323 5.69358253 0.04962929 -0.92872024 0.91593009 0.02179706
-1.49778354 5.85151625 -0.18594058 -0.89159882 0.94133693 -0.08166463
-1.50024426 5.78169250 0.62698889 -0.89306366 0.93010437 0.27537191
-1.51586938 5.80759382 -0.18563803 -0.90236497 0.93427116 -0.08153175
-1.57204056 5.94539547 0.64962929 -0.93580246 0.95643938 0.28531551
-1.58207786 5.82583094 1.79794431 -0.94177747 0.93720496 0.78965253
-1.57869661 5.75168276 1.13073182 -0.93976468 0.92527670 0.49661452
-1.52577341 5.69740582 -0.18481003 -0.90826058 0.91654509 -0.08116809
-1.61654460 5.96222925 0.65319067 -0.96229476 0.95914745 0.28687969
-1.61034179 5.78630495 1.78864717 -0.95860237 0.93084639 0.78556925
-1.55056155 5.64716864 -0.18447563 -0.92301649 0.90846342 -0.08102123
-1.59886611 5.75108242 0.62648010 -0.95177114 0.92518014 0.27514845
-1.65303695 5.79813576 1.79562008 -0.98401791 0.93274963 0.78863174
-1.52823842 5.42919159 -0.18275593 -0.90972799 0.87339735 -0.08026594
-1.56433415 5.80019712 1.46047592 -0.93121499 0.93308121 0.64143729
-1.60127020 5.79212236 1.46095896 -0.95320225 0.93178225 0.64164943
-1.60599136 5.80209398 2.13287258 -0.95601267 0.93338639 0.93675220
-1.64512420 5.80806494 1.46772087 -0.97930759 0.93434691 0.64461929
-1.63589823 5.80350828 2.13626146 -0.97381562 0.93361390 0.93824059
-1.50389838 5.81303740 1.08335280 -0.89523888 0.93514687 0.47580579
-1.57325983 5.92901421 1.10750413 -0.93652827 0.95380408 0.48641297
-1.58600509 5.82786179 1.08993948 -0.94411528 0.93753165 0.47869864
-1.59014130 5.78941250 1.72455931 -0.94657743 0.93134630 0.75742203
-1.62676585 5.83294773 1.09286690 -0.96837926 0.93834984 0.47998434
-1.63008142 5.79225159 1.72849655 -0.97035295 0.93180299 0.75915128
-1.65324187 5.78665543 1.08591425 -0.98413992 0.93090278 0.47693077
-1.56733608 5.76752615 1.38786042 -0.93300200 0.92782545 0.60954475
-1.58415830 5.83645010 2.07784986 -0.94301593 0.93891329 0.91258633
-1.60973108 5.78007746 1.39341676 -0.95823884 0.92984456 0.61198509
-1.61829889 5.81727839 2.07455111 -0.96333909 0.93582910 0.91113752
