-1.43915725 9.71491909 0.04233105 -0.84100670 0.99393946 0.03385011
-1.49119234 9.64839363 0.04126701 -0.87141466 0.98713320 0.03299925
-1.41411018 9.65881920 -0.28272524 -0.82636982 0.98819983 -0.22608186
-1.52707708 9.58203697 0.04016628 -0.89238483 0.98034424 0.03211905
-1.47385132 9.64381504 -0.28263620 -0.86128104 0.98666477 -0.22601065
-1.57830858 9.51900864 0.03917563 -0.92232317 0.97389573 0.03132688
-1.52772415 9.59290600 -0.28201300 -0.89276296 0.98145622 -0.22551231
-1.63018310 9.46359539 0.03833173 -0.95263731 0.96822637 0.03065205
-1.66114283 9.41429043 0.69858646 -0.97072941 0.96318197 0.55862617
-1.57869828 9.52789593 -0.28118205 -0.92255092 0.97480500 -0.22484784
-1.68213606 9.41184425 0.03756122 -0.98299730 0.96293169 0.03003591
-1.39849699 9.74644089 -0.01254179 -0.81724590 0.99716449 -0.01002907
-1.63269401 9.48429775 -0.28067756 -0.95410466 0.97034448 -0.22444442
-1.45005882 9.67217541 -0.01338172 -0.84737730 0.98956633 -0.01070072
-1.68157887 9.41481590 -0.27978724 -0.98267174 0.96323574 -0.22373247
-1.38296127 9.74486256 -0.34218866 -0.80816722 0.99700302 -0.27363190
-1.50257182 9.60950947 -0.01406893 -0.87806457 0.98315495 -0.01125025
-1.67113817 9.38529015 1.02459610 -0.97657043 0.96021491 0.81932050
-1.69232059 9.40702438 0.37125504 -0.98894888 0.96243858 0.29687491
-1.42114007 9.68480492 -0.34106794 -0.83047795 0.99085850 -0.27273571
-1.53841496 9.54307175 -0.01483250 -0.89901036 0.97635764 -0.01186084
-1.47628915 9.63811874 -0.34027931 -0.86270565 0.98608196 -0.27210510
-1.59148800 9.49178410 -0.01536700 -0.93002492 0.97111040 -0.01228825
-1.52593136 9.55951977 -0.33882654 -0.89171529 0.97804046 -0.27094337
-1.63957167 9.41458607 -0.01623238 -0.95812374 0.96321219 -0.01298026
-1.66777670 9.38427925 0.64748722 -0.97460610 0.96011150 0.51776457
-1.57917273 9.50830555 -0.33795488 -0.92282820 0.97280073 -0.27024636
-1.63015187 9.44694519 -0.33687568 -0.95261908 0.96652287 -0.26938337
-1.42456162 9.67263317 -0.05009782 -0.83247739 0.98961318 -0.04006083
-1.65812302 9.37166882 0.96907020 -0.96896470 0.95882130 0.77491909
-1.48007309 9.62989807 -0.05040298 -0.86491686 0.98524094 -0.04030485
-1.40070820 9.71911907 -0.38096234 -0.81853807 0.99436915 -0.30463737
-1.51528442 9.55962944 -0.05097739 -0.88549346 0.97805166 -0.04076418
-1.45480752 9.66466713 -0.37982398 -0.85015231 0.98879814 -0.30372706
-1.56773722 9.50455093 -0.05139025 -0.91614556 0.97241658 -0.04109432
-1.50670743 9.60004807 -0.37843817 -0.88048130 0.98218697 -0.30261892
-1.61750579 9.43736935 -0.05191081 -0.94522905 0.96554321 -0.04151059
-1.65916514 9.44287586 0.59850061 -0.96957368 0.96610653 0.47859231
-1.55883265 9.54107761 -0.37720084 -0.91094196 0.97615367 -0.30162948
-1.66720116 9.37387753 -0.05239546 -0.97426975 0.95904732 -0.04189815
-1.38897157 9.75341511 -0.11523757 -0.81167948 0.99787802 -0.09214997
-1.68194461 9.36740398 1.25054371 -0.98288542 0.95838499 1.00000000
-1.71123159 9.39304352 0.59543580 -1.00000000 0.96100819 0.47614154
-1.61129355 9.48774529 -0.37611198 -0.94159877 0.97069716 -0.30075878
-1.43948436 9.67127991 -0.11540738 -0.84119785 0.98947471 -0.09228577
-1.66033566 9.41838551 -0.37462720 -0.97025770 0.96360093 -0.29957145
-1.49386430 9.62052822 -0.11550377 -0.87297612 0.98428226 -0.09236284
-1.65634811 9.41066837 0.93594331 -0.96792752 0.96281141 0.74842912
-1.67830765 9.40318680 0.27296054 -0.98076010 0.96204597 0.21827349
-1.53138161 9.56399441 -0.11561851 -0.89490026 0.97849828 -0.09245460
-1.45176327 9.75343037 0.22302036 -0.84837335 0.99787956 0.17833872
-1.58527839 9.51668739 -0.11570571 -0.92639619 0.97365826 -0.09252433
-1.50303125 9.67892075 0.22060604 -0.87833303 0.99025649 0.17640810
-1.63493598 9.44739628 -0.11584341 -0.95541477 0.96656907 -0.09263443
-1.54995561 9.58244324 0.21738695 -0.90575445 0.98038578 0.17383395
-1.66071415 9.41410542 0.53701746 -0.97047889 0.96316302 0.42942718
-1.69600928 9.44678307 -0.11582046 -0.99110448 0.96650630 -0.09261608
-1.68853748 9.36417484 1.20216095 -0.98673815 0.95805460 0.96131063
-1.60162055 9.52125263 0.21548475 -0.93594611 0.97412533 0.17231286
-1.40839863 9.76659584 -0.17065692 -0.82303214 0.99922657 -0.13646618
-1.65427709 9.46964073 0.21394837 -0.96671724 0.96884489 0.17108428
-1.44484341 9.69656944 -0.17044412 -0.84432954 0.99206209 -0.13629600
-1.66260958 9.38921928 0.86845958 -0.97158653 0.96061695 0.69446558
-1.49609017 9.62605572 -0.17023796 -0.87427688 0.98484778 -0.13613115
-1.42473459 9.77415562 0.17587793 -0.83257848 1.00000000 0.14064117
-1.55136359 9.58488750 -0.17013155 -0.90657723 0.98063588 -0.13604607
-1.47209680 9.67413330 0.17295668 -0.86025572 0.98976666 0.13830519
-1.60315430 9.52566242 -0.16996530 -0.93684238 0.97457653 -0.13591312
-1.52301741 9.60350895 0.17098801 -0.89001244 0.98254102 0.13673094
-1.65321684 9.46025848 -0.16977909 -0.96609765 0.96788496 -0.13576423
-1.66987431 9.39156628 1.15168047 -0.97583187 0.96085703 0.92094380
-1.57047200 9.51685715 0.16851130 -0.91774368 0.97367561 0.13475043
-1.69906807 9.43120670 0.48746970 -0.99289197 0.96491265 0.38980621
-1.40087175 9.65695572 -0.21554182 -0.81863362 0.98800921 -0.17235848
-1.62168646 9.45756340 0.16692367 -0.94767213 0.96760923 0.13348088
-1.44285560 9.62650585 -0.21535075 -0.84316790 0.98489386 -0.17220569
-1.66061544 9.41833019 0.16590759 -0.97042120 0.96359527 0.13266836
-1.49721706 9.57771778 -0.21503229 -0.87493539 0.97990233 -0.17195104
-1.43691730 9.73496246 0.10801916 -0.83969772 0.99599010 0.08637775
-1.55070555 9.52665424 -0.21469790 -0.90619266 0.97467798 -0.17168364
-1.49084818 9.67830181 0.10682004 -0.87121356 0.99019313 0.08541888
-1.60427082 9.47924423 -0.21439536 -0.93749487 0.96982741 -0.17144172
-1.54005885 9.59567642 0.10497139 -0.89997101 0.98173970 0.08394060
-1.65730166 9.43153763 -0.21409282 -0.96848476 0.96494657 -0.17119978
-1.67760575 9.36709976 1.08132327 -0.98034990 0.95835388 0.86468250
-1.59056628 9.52662754 0.10347248 -0.92948627 0.97467524 0.08274199
-1.64229226 9.46914959 0.10227335 -0.95971364 0.96879464 0.08178311
-1.64435482 9.36817455 0.74586493 -0.96091890 0.95846385 0.59643251
-1.68828332 9.46918201 0.10247321 -0.98658961 0.96879798 0.08194292
