-6.31442881 9.03426456 1.88670802 -0.95265973 0.91906422 0.80065966
-6.40646505 9.04418850 1.89735174 -0.96654528 0.92007381 0.80517650
-6.44326639 9.00589657 1.89563501 -0.97209752 0.91617835 0.80444801
-6.45469475 9.73392773 -0.31118521 -0.97382170 0.99024165 -0.13205723
-6.52059412 8.99390984 1.90181530 -0.98376393 0.91495889 0.80707073
-6.36115599 9.25384045 0.84476244 -0.95970947 0.94140190 0.35849068
-6.45197153 9.59869003 -0.30949363 -0.97341084 0.97648376 -0.13133939
-6.61673546 9.00667763 1.91348910 -0.99826884 0.91625780 0.81202471
-6.34246016 9.18338966 0.06691399 -0.95688885 0.93423486 0.02839620
-6.38834238 9.16960716 0.84005272 -0.96381110 0.93283278 0.35649201
-6.45119333 9.46882534 -0.30789110 -0.97329342 0.96327251 -0.13065931
-6.33910227 9.05664349 0.06496937 -0.95638222 0.92134088 0.02757096
-6.39849329 9.33519745 0.46500972 -0.96534258 0.94967842 0.19733553
-6.42163563 9.09515285 0.83638960 -0.96883404 0.92525846 0.35493749
-6.28156948 9.09775352 -0.30192608 -0.94770223 0.92552304 -0.12812795
-6.45039845 9.09319210 0.06669384 -0.97317350 0.92505896 0.02830277
-6.34314919 9.16616154 1.22158360 -0.95699281 0.93248224 0.51840174
-6.37019920 9.17031002 0.45692191 -0.96107382 0.93290424 0.19390331
-6.49376535 9.07566166 0.83865726 -0.97971630 0.92327559 0.35589981
-6.37309504 9.10719681 -0.30281636 -0.96151072 0.92648369 -0.12850575
-6.52846766 9.08167171 0.06735428 -0.98495185 0.92388701 0.02858304
-6.31328964 9.03216362 1.20607650 -0.95248789 0.91885048 0.51182103
-6.42139339 9.15161896 0.45766684 -0.96879750 0.93100280 0.19421944
-6.56102943 9.07882690 0.84232038 -0.98986441 0.92359757 0.35745433
-6.43792868 9.10805035 -0.30338022 -0.97129220 0.92657053 -0.12874505
-6.39039469 9.24204159 1.86520910 -0.96412075 0.94020158 0.79153621
-6.44930363 9.10395145 1.22279501 -0.97300833 0.92615354 0.51891583
-6.45556068 9.07858086 0.45553845 -0.97395235 0.92357254 0.19331622
-6.52771807 9.11288166 -0.30421117 -0.98483872 0.92706203 -0.12909767
-6.40431452 9.13864326 1.85220945 -0.96622080 0.92968279 0.78601956
-6.49012804 9.04070187 1.21940291 -0.97916752 0.91971910 0.51747632
-6.53822708 9.07344055 0.45787966 -0.98642427 0.92304963 0.19430976
-6.35776091 9.23710155 0.78618246 -0.95919728 0.93969905 0.33363116
-6.46145344 9.61947536 -0.37842488 -0.97484136 0.97859830 -0.16059165
-6.45249605 9.08534527 1.84954286 -0.97349000 0.92426074 0.78488791
-6.37621164 9.20800209 0.00468941 -0.96198094 0.93673873 0.00199004
-6.59129381 9.06066990 1.22861016 -0.99443042 0.92175049 0.52138358
-6.37927580 9.14459419 0.78092384 -0.96244323 0.93028814 0.33139956
-6.44656229 9.46781540 -0.37564385 -0.97259474 0.96316975 -0.15941146
-6.52439070 9.06545830 1.85387611 -0.98433673 0.92223758 0.78672683
-6.37894106 9.08908463 0.00346770 -0.96239269 0.92464113 0.00147158
-6.34512043 9.23392105 1.16539955 -0.95729017 0.93937546 0.49455899
-6.27565718 9.15525436 0.39111599 -0.94681025 0.93137264 0.16597734
-6.41135740 9.06847858 0.77730858 -0.96728337 0.92254484 0.32986537
-6.25103712 9.05638695 -0.36630464 -0.94309580 0.92131478 -0.15544818
-6.61251640 9.06736279 1.86287582 -0.99763227 0.92243135 0.79054600
-6.49026012 9.12551975 0.00466396 -0.97918743 0.92834771 0.00197924
-6.35658550 9.12694931 1.15591848 -0.95901990 0.92849314 0.49053553
-6.36147785 9.15671158 0.39349678 -0.95975804 0.93152088 0.16698769
-6.50410461 9.07831097 0.78240281 -0.98127615 0.92354512 0.33202720
-6.34439707 9.06943035 -0.36763287 -0.95718104 0.92264169 -0.15601185
-6.38584375 9.07737064 1.15314341 -0.96343410 0.92344946 0.48935786
-6.39311123 9.11025906 0.39254445 -0.96453059 0.92679524 0.16658354
-6.55380583 9.05726242 0.78338879 -0.98877460 0.92140383 0.33244562
-6.43655300 9.10974407 -0.36941770 -0.97108465 0.92674285 -0.15676928
-6.45885611 9.05974388 1.15638089 -0.97444952 0.92165625 0.49073175
-6.46523905 9.09110165 0.39378247 -0.97541249 0.92484629 0.16710892
-6.45891571 9.78793526 -0.42817897 -0.97445852 0.99573588 -0.18170571
-6.39206743 9.15331268 2.35351396 -0.96437311 0.93117511 0.99875742
-6.52261448 9.02865791 1.15776837 -0.98406875 0.91849387 0.49132055
-6.53621244 9.06977463 0.39492524 -0.98612028 0.92267668 0.16759387
-6.34953308 9.25136852 0.72400278 -0.95795590 0.94115043 0.30724406
-6.45898676 9.65586472 -0.42545685 -0.97446924 0.98230022 -0.18055053
-6.44531918 9.34835625 -0.03593502 -0.97240722 0.95101708 -0.01524969
-6.40754175 9.05397892 2.33803701 -0.96670771 0.92106980 0.99218953
-6.38437605 9.22786331 1.49937832 -0.96321267 0.93875921 0.63628912
-6.38127613 9.17368698 0.72047830 -0.96274501 0.93324780 0.30574837
-6.46215487 9.53079510 -0.42293268 -0.97494721 0.96957678 -0.17947936
-6.33969927 9.07354259 -0.03850191 -0.95647228 0.92306000 -0.01633900
-6.45973206 9.00719166 2.33636379 -0.97458166 0.91631007 0.99147946
-6.38527393 9.10665226 1.48492801 -0.96334815 0.92642832 0.63015682
-6.44339752 9.13992214 0.72109121 -0.97211730 0.92981285 0.30600849
-6.40043068 9.31390572 -0.41763690 -0.96563488 0.94751239 -0.17723200
-6.36493778 9.14356709 1.76909709 -0.96028006 0.93018365 0.75074929
-6.43482208 9.08732128 -0.03790955 -0.97082353 0.92446172 -0.01608762
-6.52311420 8.97590637 2.33887362 -0.98414415 0.91312742 0.99254453
-6.38498116 9.26571178 1.12683380 -0.96330398 0.94260955 0.47819290
-6.46764994 9.10179710 1.49128616 -0.97577626 0.92593437 0.63285506
-6.27921629 9.06628132 0.33648792 -0.94734722 0.92232132 0.14279491
-6.47513056 9.06360626 0.71771997 -0.97690487 0.92204916 0.30457783
-6.37519264 9.15388870 -0.41402388 -0.96182716 0.93123370 -0.17569874
-6.39145422 9.05989361 1.76046979 -0.96428061 0.92167151 0.74708813
-6.53504324 9.10675240 -0.03724539 -0.98594391 0.92643851 -0.01580577
-6.62821007 9.00079823 2.35644197 -1.00000000 0.91565967 1.00000000
-6.47249222 9.72479153 -0.11103802 -0.97650683 0.98931217 -0.04712105
-6.36254787 9.14102936 1.11386931 -0.95991945 0.92992550 0.47269118
-6.51393986 9.07603550 1.49215317 -0.98276001 0.92331362 0.63322294
-6.36665869 9.10036182 0.33984050 -0.96053964 0.92578834 0.14421764
-6.54818392 9.07498169 0.72170419 -0.98792642 0.92320645 0.30626860
-6.36174393 9.04371834 -0.41159871 -0.95979816 0.92002594 -0.17466958
-6.44096851 9.03930855 1.76238704 -0.97175080 0.91957736 0.74790174
-6.47038507 9.62273216 -0.11123538 -0.97618890 0.97892958 -0.04720480
-6.41985655 9.10087204 1.11386931 -0.96856564 0.92584026 0.47269118
-6.59300852 9.06529713 1.49764431 -0.99468911 0.92222118 0.63555324
-6.42834663 9.06669140 0.34018436 -0.96984655 0.92236304 0.14436357
-6.49407530 9.10925293 -0.41481578 -0.97976303 0.92669284 -0.17603479
-6.49995422 9.00185776 1.76302600 -0.98065001 0.91576743 0.74817288
-6.44729900 9.75443554 -0.50293732 -0.97270590 0.99232793 -0.21343081
-6.45432138 9.46937370 -0.11154748 -0.97376537 0.96332830 -0.04733725
-6.49197578 9.08134747 1.11677516 -0.97944629 0.92385399 0.47392431
-6.49336958 9.03746605 0.34078613 -0.97965658 0.91938990 0.14461893
-6.34139204 9.23833561 0.65327126 -0.95672768 0.93982458 0.27722782
-6.60780954 9.03085327 1.77708530 -0.99692219 0.91871721 0.75413924
-6.40857553 9.56409550 -0.49732071 -0.96686369 0.97296441 -0.21104729
-6.43205309 9.31001186 -0.11187793 -0.97040576 0.94711626 -0.04747748
-6.58163595 9.08538532 1.12303388 -0.99297333 0.92426479 0.47658032
-6.37241316 9.20868015 1.43946636 -0.96140784 0.93680769 0.61086434
-6.37317610 9.16059494 0.65003026 -0.96152294 0.93191594 0.27585244
-6.44613647 9.49052811 -0.49607259 -0.97253048 0.96548033 -0.21051763
-6.39316607 9.12998295 -0.11226805 -0.96453881 0.92880177 -0.04764304
-6.39780283 9.24466228 2.26897311 -0.96523839 0.94046819 0.96288097
-6.37003422 9.08241653 1.42466974 -0.96104896 0.92396277 0.60458511
-6.41111469 9.09261703 0.64763474 -0.96724677 0.92500049 0.27483585
-6.31569290 9.17287922 -0.48558828 -0.95285046 0.93316561 -0.20606843
-6.46310377 9.10759830 -0.11221757 -0.97509038 0.92652452 -0.04762161
-6.38506508 9.10309601 2.24368548 -0.96331662 0.92606652 0.95214969
-6.34755230 9.20347881 1.04218137 -0.95765710 0.93627858 0.44226906
-6.44642925 9.06969070 1.42941582 -0.97257465 0.92266816 0.60659921
-6.37651777 9.19786072 0.27174577 -0.96202713 0.93570703 0.11532038
-6.48315763 9.07328510 0.64946663 -0.97811592 0.92303383 0.27561325
-6.37548494 9.13629913 -0.48571309 -0.96187127 0.92944431 -0.20612139
-6.54116583 9.09607601 -0.11213496 -0.98686761 0.92535239 -0.04758656
-6.42854786 9.04360962 2.23886871 -0.96987689 0.92001492 0.95010561
-6.46556950 9.82985115 -0.17696789 -0.97546238 1.00000000 -0.07509962
-6.35910130 9.12771225 1.03629959 -0.95939946 0.92857075 0.43977302
-6.50637722 9.06337547 1.43360353 -0.98161906 0.92202568 0.60837632
-6.43579912 9.19065952 0.27277005 -0.97097093 0.93497443 0.11575504
-6.56077862 9.09122944 0.65369403 -0.98982662 0.92485934 0.27740723
-6.42765713 9.11924171 -0.48621234 -0.96974254 0.92770904 -0.20633325
-6.47223330 9.01480961 2.23927021 -0.97646773 0.91708505 0.95027596
-6.48048306 9.71922588 -0.17668860 -0.97771239 0.98874599 -0.07498109
-6.41861486 9.09083080 1.03671980 -0.96837831 0.92481875 0.43995133
-6.58759880 9.05599213 1.43946636 -0.99387294 0.92127460 0.61086434
-6.49341822 9.15004063 0.27277005 -0.97966391 0.93084222 0.11575504
-6.53118563 9.14382744 -0.48870862 -0.98536187 0.93021017 -0.20739259
-6.26388836 9.00059509 1.64073014 -0.94503468 0.91563898 0.69627434
-6.54944229 9.00252247 2.24649525 -0.98811626 0.91583508 0.95334208
-6.46843863 9.57073689 -0.17625633 -0.97589523 0.97364008 -0.07479765
-6.48830557 9.06813812 1.03903043 -0.97889256 0.92251021 0.44093189
-6.38964510 9.05974388 1.65914798 -0.96400762 0.92165625 0.70409030
-6.28480625 9.17559338 -0.17482655 -0.94819057 0.93344176 -0.07419090
-6.56495142 9.05460262 1.04260147 -0.99045616 0.92113322 0.44244733
-6.37230921 9.24390888 1.38018072 -0.96139216 0.94039154 0.58570534
-6.35908222 9.18033695 0.59091908 -0.95939660 0.93392432 0.25076750
-6.46134949 9.04035568 1.66307306 -0.97482568 0.91968387 0.70575601
-6.38121367 9.19171143 -0.17505266 -0.96273559 0.93508142 -0.07428686
-6.36539555 9.11119843 1.36489367 -0.96034908 0.92689079 0.57921803
-6.40744066 9.12715054 0.58987677 -0.96669245 0.92851359 0.25032517
-6.52959156 9.01561260 1.66609240 -0.98512137 0.91716677 0.70703733
-6.44460964 9.15960407 -0.17508590 -0.97230017 0.93181515 -0.07430096
-6.39956903 9.31517410 0.99929500 -0.96550488 0.94764143 0.42406943
-6.43974018 9.09525585 1.36891663 -0.97156549 0.92526895 0.58092523
-6.46814108 9.09158325 0.59026760 -0.97585034 0.92489529 0.25049105
-6.51325512 9.16495228 -0.17523222 -0.98265672 0.93235922 -0.07436305
-6.44204378 9.79069614 -0.23116250 -0.97191304 0.99601674 -0.09809811
-6.35353470 9.15592194 0.98346770 -0.95855963 0.93144053 0.41735283
-6.48946381 9.07446861 1.37052572 -0.97906733 0.92315423 0.58160812
-6.31571722 9.06824684 0.21315557 -0.95285410 0.92252129 0.09045653
-6.52725792 9.08366299 0.59209168 -0.98476934 0.92408955 0.25126511
-6.43702030 9.65008450 -0.23020712 -0.97115517 0.98171216 -0.09769268
-6.44192553 9.15971279 0.98887700 -0.97189522 0.93182617 0.41964835
-6.56967020 9.06556892 1.37588966 -0.99116808 0.92224884 0.58388436
-6.40377474 9.07242298 0.21487021 -0.96613938 0.92294610 0.09118418
-6.44948101 9.53812504 -0.22952241 -0.97303510 0.97032243 -0.09740210
-6.47734976 9.08830738 0.98507047 -0.97723967 0.92456204 0.41803297
-6.50962210 9.10020447 0.21753743 -0.98210859 0.92577237 0.09231606
-6.32117701 9.23589802 0.52869278 -0.95367783 0.93957657 0.22436062
-6.27451706 8.97184849 2.10411620 -0.94663823 0.91271460 0.89292085
-6.26456738 9.13900280 -0.22606708 -0.94513714 0.92971933 -0.09593577
-6.55885410 9.08126259 0.98927772 -0.98953623 0.92384541 0.41981840
-6.38049984 9.24386120 1.30136752 -0.96262789 0.94038671 0.55225950
-6.33141518 9.12701416 0.52369720 -0.95522249 0.92849976 0.22224066
-6.39790773 9.02660942 2.12673521 -0.96525425 0.91828549 0.90251964
-6.34348869 9.13070774 -0.22636962 -0.95704401 0.92887551 -0.09606416
-6.36926937 9.10430908 1.28584993 -0.96093357 0.92618990 0.54567432
-6.41726780 9.12793541 0.52667075 -0.96817505 0.92859346 0.22350253
-6.48204994 9.02444458 2.13593626 -0.97794878 0.91806525 0.90642428
-6.42255259 9.12178040 -0.22667216 -0.96897238 0.92796731 -0.09619255
-6.33593559 9.21638203 0.90138954 -0.95590448 0.93759120 0.38252142
-6.42062521 9.05600834 1.28457808 -0.96868163 0.92127627 0.54513460
-6.35963297 9.19742203 0.14154468 -0.95947969 0.93566239 0.06006712
-6.46640444 9.07603836 0.52583814 -0.97558832 0.92331392 0.22314920
-6.54877090 9.02711964 2.14398718 -0.98801500 0.91833735 0.90984088
-6.48743200 9.12242031 -0.22697470 -0.97876078 0.92803240 -0.09632093
-6.36683416 9.16840744 0.89935291 -0.96056616 0.93271071 0.38165715
-6.48050976 9.04987621 1.28839386 -0.97771639 0.92065239 0.54675388
-6.40861368 9.17555714 0.14179450 -0.96686941 0.93343806 0.06017314
-6.53003931 9.07467270 0.52797914 -0.98518896 0.92317498 0.22405776
-6.40145159 9.09561062 0.89564997 -0.96578890 0.92530501 0.38008574
-6.56862116 9.05238724 1.29526234 -0.99100983 0.92090786 0.54966867
-6.47074699 9.14164543 0.14199436 -0.97624350 0.92998821 0.06025795
-6.47692871 9.08118439 0.89861232 -0.97717613 0.92383742 0.38134286
-6.56990433 9.15937138 0.14379305 -0.99120337 0.93179148 0.06102125
-6.53734970 9.04515743 0.89916778 -0.98629189 0.92017239 0.38157856
-6.39216614 9.24364185 2.05745673 -0.96438795 0.94036436 0.87312007
-6.35255051 9.09398365 2.03037810 -0.95841116 0.92513949 0.86162871
-6.39823246 9.03782082 2.02671885 -0.96530318 0.91942602 0.86007583
-6.47318363 9.02303791 2.03257370 -0.97661114 0.91792214 0.86256045
-6.54935408 9.00926018 2.03879452 -0.98810297 0.91652054 0.86520040
