9.46564102 5.68562317 1.89014149 0.98180962 0.97552484 0.83274364
9.56587029 5.82827091 1.91795266 0.99220574 1.00000000 0.84499651
9.14362240 5.18961811 -0.29388368 0.94840866 0.89042157 -0.12947696
9.17834377 5.28601933 -0.29504108 0.95201010 0.90696186 -0.12998688
9.46252823 5.66388273 0.82714456 0.98148674 0.97179466 0.36441684
9.05354214 5.28993654 -0.29346821 0.93906522 0.90763396 -0.12929392
9.12534237 5.48862553 0.05752110 0.94651264 0.94172448 0.02534220
9.26344299 5.62366199 0.81039888 0.96083689 0.96489370 0.35703915
9.05277348 5.36615467 -0.29403207 0.93898553 0.92071128 -0.12954234
9.17432976 5.00002098 -0.35476550 0.95159376 0.85789096 -0.15629980
9.44446373 5.69339943 1.20704579 0.97961301 0.97685909 0.53179073
9.21428108 5.57643986 0.43585104 0.95573765 0.95679146 0.19202383
9.04942894 5.51918077 -0.29515979 0.93863863 0.94696707 -0.13003917
9.33419132 5.62298918 1.80787730 0.96817517 0.96477830 0.79650038
9.04877949 5.21179438 -0.35464096 0.93857121 0.89422649 -0.15624492
9.48800850 5.68756580 0.77369332 0.98412961 0.97585815 0.34086773
9.19077873 5.54548597 -0.00124097 0.95329988 0.95148045 -0.00054674
9.36342430 5.69338274 0.76514810 0.97120732 0.97685623 0.33710292
9.20127010 5.45416403 -0.35991246 0.95438808 0.93581170 -0.15856740
9.38031483 5.61347485 1.13371861 0.97295928 0.96314585 0.49948484
9.06388378 5.45024157 -0.35742199 0.94013792 0.93513870 -0.15747017
9.45196819 5.73704386 1.14828730 0.98039138 0.98434746 0.50590336
9.31395912 5.63885260 0.38102144 0.96607661 0.96750009 0.16786742
9.09953308 5.54963684 -0.35912380 0.94383556 0.95219266 -0.15821993
9.08330154 5.07182503 -0.39541438 0.94215196 0.87021095 -0.17420855
9.12403011 5.22723961 -0.39818603 0.94637650 0.89687657 -0.17542967
9.54986572 5.67405987 1.48290503 0.99054569 0.97354084 0.65332663
9.43003654 5.63502979 0.70592064 0.97811657 0.96684420 0.31100896
9.22395611 5.36209011 -0.40199700 0.95674115 0.92001390 -0.17710868
9.18826485 5.51619816 -0.04166117 0.95303917 0.94645536 -0.01835475
9.50894642 5.73087740 1.48203802 0.98630136 0.98328948 0.65294468
9.30416393 5.63921928 0.69779903 0.96506059 0.96756297 0.30743080
9.14535618 5.39344645 -0.40071017 0.94858849 0.92539394 -0.17654173
9.58330345 5.73150063 1.77325094 0.99401397 0.98339641 0.78124493
9.51506519 5.77208662 1.76717997 0.98693603 0.99036002 0.77857023
9.50535393 5.70441341 1.10805774 0.98592877 0.97874886 0.48817936
9.19145298 5.54533815 0.32385123 0.95336986 0.95145512 0.14267983
8.95051861 5.43094492 -0.39704767 0.92837930 0.93182778 -0.17492814
9.12955189 5.11171675 -0.46455726 0.94694924 0.87705547 -0.20467098
9.44441795 5.72846603 1.10358715 0.97960824 0.98287570 0.48620975
8.82779026 5.41329670 -0.39422655 0.91564947 0.92879975 -0.17368524
9.11270714 5.23461485 -0.46599260 0.94520205 0.89814198 -0.20530336
9.50904942 5.13639450 -0.17378248 0.98631203 0.88128960 -0.07656372
9.15398693 5.33490705 -0.46867609 0.94948375 0.91534990 -0.20648563
9.26321411 5.57567978 -0.11303453 0.96081316 0.95666105 -0.04979986
9.50913620 5.73269081 1.42606556 0.98632103 0.98360062 0.62828475
9.26943398 5.62041426 0.62748408 0.96145833 0.96433645 0.27645200
9.19091702 5.43389511 -0.47123474 0.95331424 0.93233401 -0.20761290
9.09469891 5.55273485 -0.11339252 0.94333416 0.95272422 -0.04995759
9.63150120 5.80671835 2.26977587 0.99901319 0.99630207 1.00000000
9.31713581 5.54870653 0.25901571 0.96640611 0.95203304 0.11411510
9.08279324 5.44746542 -0.46855128 0.94209927 0.93466234 -0.20643064
9.47464752 5.69178629 1.02873743 0.98274380 0.97658229 0.45323303
9.26153660 5.59477520 0.25813779 0.96063918 0.95993739 0.11372831
9.08771229 5.52824640 -0.46998662 0.94260949 0.94852257 -0.20706300
8.82457447 5.42593575 -0.46131212 0.91531593 0.93096834 -0.20324126
9.39130592 5.61521482 1.63710690 0.97409928 0.96344435 0.72126371
9.50307655 5.76303339 1.66337502 0.98569256 0.98880672 0.73283666
9.52055359 5.71586227 1.36355281 0.98750532 0.98071319 0.60074335
9.26793575 5.59220076 0.56850940 0.96130288 0.95949566 0.25046939
9.19647980 5.56201553 -0.17358297 0.95389122 0.95431656 -0.07647582
9.12965488 5.40388250 0.19912089 0.94695991 0.92718452 0.08772711
9.45980644 5.65858269 0.97124660 0.98120439 0.97088534 0.42790419
9.18795967 5.51688194 0.20255017 0.95300752 0.94657266 0.08923797
9.39731503 5.68141127 0.96703935 0.97472256 0.97480220 0.42605060
9.24550056 5.61109447 0.20566194 0.95897585 0.96273744 0.09060892
9.47617531 5.69572783 2.12520170 0.98290223 0.97725856 0.93630463
9.40313911 5.53253889 -0.22471361 0.97532666 0.94925904 -0.09900256
9.55477238 5.74468136 1.29068327 0.99105459 0.98565793 0.56863910
9.32011127 5.63360834 0.51073235 0.96671474 0.96660030 0.22501445
9.13076878 5.52841854 -0.22283466 0.94707549 0.94855207 -0.09817474
9.31209087 5.57544851 0.87065494 0.96588284 0.95662135 0.38358632
9.07966232 5.47027969 0.12700529 0.94177455 0.93857676 0.05595499
9.38634872 5.67991066 0.88157868 0.97358513 0.97454470 0.38839900
9.64101505 5.72552681 2.05269980 1.00000000 0.98237145 0.90436232
9.43624210 5.68483591 2.01610684 0.97876024 0.97538978 0.88824052
