10.78450584 5.69881535 0.92953753 0.97917348 0.90205884 0.37736279
10.76564980 5.71926069 0.08580983 0.97746146 0.90529513 0.03483608
10.72417545 5.73167324 0.92622328 0.97369581 0.90725988 0.37601730
10.91104984 5.86297035 0.08940555 0.99066299 0.92804277 0.03629582
10.71940804 5.59971189 1.33715916 0.97326297 0.88637185 0.54284430
10.93713760 5.96598625 0.09072643 0.99303162 0.94434899 0.03683206
10.77863407 5.71734571 1.35024321 0.97864038 0.90499198 0.54815596
10.76068306 5.73234129 0.51162100 0.97701055 0.90736562 0.20770192
10.94488049 6.05984545 0.09168039 0.99373466 0.95920587 0.03721933
10.80187511 5.81705952 1.35848129 0.98075056 0.92077559 0.55150038
10.81837845 5.75060177 2.03687119 0.98224896 0.91025603 0.82690519
10.93445683 6.14421272 0.09226745 0.99278826 0.97256029 0.03745766
10.70870113 5.92700100 -0.31949469 0.97229087 0.93817806 -0.12970473
10.91646194 6.22471428 0.09270774 0.99115437 0.98530275 0.03763641
10.77098942 5.69591522 0.86621153 0.97794628 0.90159976 0.35165444
10.75311947 6.04033470 -0.32088950 0.97632378 0.95611757 -0.13027097
10.91690731 6.31627798 0.09355163 0.99119484 0.99979627 0.03797900
10.77228546 5.73560333 0.01746647 0.97806394 0.90788198 0.00709083
10.83108902 5.60868406 1.28102350 0.98340303 0.88779205 0.52005500
10.94604492 5.89406061 0.02036803 0.99384034 0.93296397 0.00826877
10.73227978 5.64344788 1.27269864 0.97443169 0.89329481 0.51667535
10.81922054 5.91394854 0.01906996 0.98232543 0.93611205 0.00774180
10.84219456 5.78818083 1.29189217 0.98441130 0.91620439 0.52446729
10.77108860 5.73432589 0.44368377 0.97795528 0.90767974 0.18012156
10.83300686 6.09932947 0.02036803 0.98357713 0.96545577 0.00826877
10.96827316 6.26619816 0.02291326 0.99585855 0.99186921 0.00930206
10.81981850 5.67239523 1.64474869 0.98237967 0.89787686 0.66771585
10.82650948 6.27598143 0.02141157 0.98298723 0.99341780 0.00869242
10.78130245 5.71608067 -0.02832408 0.97888267 0.90479177 -0.01149868
10.77200603 5.71215868 1.64128053 0.97803861 0.90417093 0.66630793
10.76013279 5.74090099 0.79893631 0.97696060 0.90872055 0.32434285
10.69261360 5.73364067 -0.02895234 0.97083020 0.90757132 -0.01175373
10.72827244 5.57713032 1.22116148 0.97406781 0.88279748 0.49575290
10.78987312 5.80889940 1.65023983 0.97966081 0.91948390 0.66994512
10.74703598 5.73866081 1.93780839 0.97577143 0.90836596 0.78668880
10.83187103 5.89662075 -0.02715731 0.98347402 0.93336922 -0.01102501
10.83877277 5.72167873 1.23971403 0.98410064 0.90567786 0.50328463
10.82588005 5.74814987 0.38935575 0.98293006 0.90986794 0.15806611
10.83658123 5.98784542 -0.02672650 0.98390168 0.94780910 -0.01085011
10.81836033 5.79814291 1.24172580 0.98224729 0.91778129 0.50410134
10.76737499 6.03815556 -0.02704961 0.97761810 0.95577264 -0.01098128
10.80563259 6.14933777 -0.02625979 0.98109168 0.97337151 -0.01066064
10.85073757 5.68573570 1.58771241 0.98518699 0.89998847 0.64456093
10.79273605 6.23215342 -0.02599054 0.97992074 0.98648030 -0.01055134
10.79048538 5.73064470 -0.10980799 0.97971642 0.90709710 -0.04457857
10.77128315 5.70906925 1.57933700 0.97797298 0.90368193 0.64116079
10.78530693 5.75105095 0.72513729 0.97924626 0.91032714 0.29438278
10.82155514 5.81256390 -0.10965653 0.98253739 0.92006397 -0.04451708
10.77117157 5.70960283 2.46324635 0.97796285 0.90376639 1.00000000
10.76258755 5.59679890 1.14259136 0.97718346 0.88591075 0.46385589
10.80152988 5.81218386 1.58994591 0.98071921 0.92000383 0.64546770
10.85863686 5.92053270 -0.10946377 0.98590422 0.93715423 -0.04443882
10.64503574 5.65401840 0.30327830 0.96651042 0.89496797 0.12312138
11.01388645 6.09485149 -0.10895890 1.00000000 0.96474695 -0.04423386
10.80720615 5.79342842 1.15645540 0.98123455 0.91703504 0.46948427
10.84700871 5.84845209 0.31315506 0.98484844 0.92574465 0.12713103
10.81828976 6.07604551 -0.10937197 0.98224092 0.96177018 -0.04440156
10.84514427 5.93562317 0.31461829 0.98467916 0.93954289 0.12772506
10.82120609 5.79360914 1.84060955 0.98250568 0.91706365 0.74722916
10.79381275 6.15179825 -0.10933525 0.98001850 0.97376096 -0.04438665
10.74332428 5.60887527 1.50086737 0.97543442 0.88782233 0.60930461
10.81288242 6.00655079 0.31483778 0.98174995 0.95076990 0.12781417
10.80866909 6.25044584 -0.10919297 0.98136741 0.98937577 -0.04432889
10.84809971 5.72907352 1.52098191 0.98494750 0.90684837 0.61747050
10.78620148 6.05841446 0.31491092 0.97932744 0.95897937 0.12784386
10.78342438 5.72608709 0.65892988 0.97907531 0.90637565 0.26750466
10.78817654 5.74307346 -0.17848413 0.97950679 0.90906441 -0.07245890
10.82477379 5.60786009 1.08884943 0.98282963 0.88766164 0.44203839
10.83981133 5.81215191 1.52527297 0.98419493 0.91999876 0.61921251
10.84003830 6.17836952 0.31878847 0.98421556 0.97796690 0.12941802
10.88082314 5.72409058 1.09926736 0.98791862 0.90605962 0.44626772
10.78195477 6.23538160 0.31798372 0.97894186 0.98699129 0.12909132
10.78404522 5.69679594 0.24954414 0.97913170 0.90173918 0.10130702
10.97968864 6.02387619 -0.17948830 0.99689502 0.95351237 -0.07286657
10.87270164 5.80739021 1.10247290 0.98718119 0.91924500 0.44756907
10.79380035 5.78908253 0.25119528 0.98001742 0.91634715 0.10197733
10.94860649 6.09664774 -0.17951490 0.99407291 0.96503127 -0.07287736
10.98874855 5.98334599 0.25957799 0.99771762 0.94709688 0.10538045
10.97966862 6.20479059 -0.17978090 0.99689323 0.98214906 -0.07298535
10.76277542 5.71256638 2.34564137 0.97720051 0.90423548 0.95225608
10.82895947 5.65804052 1.42779768 0.98320967 0.89560467 0.57964063
10.97715759 6.06681824 0.26053056 0.99666524 0.96030957 0.10576715
10.80630779 6.17387962 -0.17922895 0.98115301 0.97725624 -0.07276127
10.81095409 5.71362782 1.42906964 0.98157489 0.90440351 0.58015698
10.95193291 6.12043571 0.26065758 0.99437493 0.96879667 0.10581872
10.76605034 5.72193813 0.58828354 0.97749788 0.90571892 0.23882449
10.79718399 5.74816942 -0.23523885 0.98032463 0.90987104 -0.09549952
10.79583549 5.79266214 1.43212223 0.98020220 0.91691375 0.58139628
10.97927666 6.22670698 0.26307079 0.99685764 0.98561817 0.10679841
10.80840111 5.84149170 -0.23566878 0.98134309 0.92464292 -0.09567406
10.97801781 6.31756496 0.26446790 0.99674332 1.00000000 0.10736559
10.75125599 5.69341326 0.16612674 0.97615463 0.90120375 0.06744219
10.92066002 5.99080420 -0.23702225 0.99153554 0.94827741 -0.09622353
10.97613430 5.90053844 0.17352134 0.99657232 0.93398935 0.07044417
10.97899532 6.11265373 -0.23789802 0.99683207 0.96756482 -0.09657906
10.97046280 5.98657417 0.17442068 0.99605739 0.94760787 0.07080927
10.98568439 6.20702171 -0.23831204 0.99743938 0.98250222 -0.09674714
10.97114468 6.07663488 0.17551988 0.99611926 0.96186346 0.07125551
11.00000572 6.16041374 0.17716868 0.99873972 0.97512472 0.07192487
10.96456146 6.23137712 0.17726861 0.99552155 0.98635745 0.07196544
10.81088352 5.72556925 2.24261713 0.98156846 0.90629369 0.91043150
10.94946289 6.31409025 0.17796810 0.99415070 0.99944997 0.07224941
