-6.49446535 5.70321321 1.92833400 -0.95243299 0.98167515 0.93874693
-6.51245260 5.64700413 1.92301929 -0.95507085 0.97200006 0.93615961
-6.54047346 5.61751986 1.92346227 -0.95918018 0.96692502 0.93637526
-6.48969126 5.77542019 1.47984195 -0.95173281 0.99410385 0.72041309
-6.60544920 5.60147238 1.93232000 -0.96870911 0.96416283 0.94068736
-6.48580742 5.69950867 1.47057164 -0.95116323 0.98103750 0.71590012
-6.81881618 5.70843410 1.98502398 -1.00000000 0.98257381 0.96634459
-6.50806904 5.64705467 1.46748149 -0.95442802 0.97200876 0.71439582
-6.15898085 5.74128246 -0.26281217 -0.90323317 0.98822784 -0.12794158
-6.54192257 5.60477352 1.46713817 -0.95939273 0.96473104 0.71422869
-6.17576313 5.68491125 -0.26242638 -0.90569431 0.97852486 -0.12775378
-6.60112572 5.58386230 1.47263169 -0.96807504 0.96113163 0.71690303
-6.46560049 5.77193880 0.62043989 -0.94819987 0.99350464 0.30204105
-6.26172161 5.70949936 -0.26361343 -0.91830039 0.98275715 -0.12833166
-6.68789577 5.60316610 1.48636556 -0.98080015 0.96445435 0.72358888
-6.30158138 5.60132074 0.01683083 -0.92414594 0.96413672 0.00819354
-6.51481867 5.79305696 1.89489496 -0.95541787 0.99713963 0.92246819
-6.41037989 5.65104914 0.60979939 -0.94010156 0.97269630 0.29686105
-6.30789709 5.67938471 -0.26382115 -0.92507219 0.97757363 -0.12843278
-6.41044855 5.62607336 0.01862869 -0.94011164 0.96839732 0.00906877
-6.51155043 5.71712971 1.88322735 -0.95493853 0.98407054 0.91678822
-6.40563297 5.73438549 0.32006776 -0.93940544 0.98704070 0.15581462
-6.48943138 5.64849138 0.61485797 -0.95169473 0.97225606 0.29932368
-6.32847977 5.62638807 -0.26352441 -0.92809069 0.96845150 -0.12828831
-6.43961382 5.58046103 0.01848192 -0.94438881 0.96054620 0.00899732
-6.52231121 5.65429926 1.87588096 -0.95651662 0.97325575 0.91321182
-6.51061678 5.77540398 0.92331600 -0.95480162 0.99410111 0.44948646
-6.41754436 5.67291784 0.31836507 -0.94115227 0.97646052 0.15498571
-6.52933550 5.61149120 0.61538130 -0.95754677 0.96588731 0.29957843
-6.42846489 5.64308882 -0.26480049 -0.94275379 0.97132611 -0.12890953
-6.13353205 5.77849436 -0.31280121 -0.89950103 0.99463302 -0.15227713
-6.48977470 5.55285358 0.01884883 -0.95174509 0.95579422 0.00917594
-6.58139753 5.63358021 1.88279521 -0.96518183 0.96968943 0.91657782
-6.49888992 5.69263601 0.91556251 -0.95308185 0.97985452 0.44571194
-6.39124393 5.57878494 0.31400189 -0.93729526 0.96025771 0.15286164
-6.58273077 5.58578157 0.61747450 -0.96537733 0.96146202 0.30059746
-6.47590828 5.61303616 -0.26503792 -0.94971150 0.96615326 -0.12902512
-6.18286419 5.75213194 -0.31317478 -0.90673572 0.99009538 -0.15245900
-6.36641026 5.62156820 1.40155494 -0.93365330 0.96762186 0.68230158
-6.52453566 5.51196814 0.01884883 -0.95684290 0.94875675 0.00917594
-6.62708330 5.60096550 1.88582015 -0.97188181 0.96407557 0.91805041
-6.52414083 5.66065025 0.91532022 -0.95678496 0.97434890 0.44559398
-6.48407412 5.60591984 0.31868431 -0.95090908 0.96492833 0.15514113
-6.49164438 5.57336378 -0.26483017 -0.95201927 0.95932460 -0.12892398
-6.20256615 5.71613932 -0.31296724 -0.90962505 0.98390007 -0.15235795
-6.48911142 5.67612505 1.42322099 -0.95164782 0.97701252 0.69284904
-6.57317495 5.63113880 0.91750091 -0.96397597 0.96926922 0.44665557
-6.54047775 5.58317137 0.32017416 -0.95918083 0.96101272 0.15586641
-6.36606693 5.66361237 0.56417155 -0.93360293 0.97485876 0.27464864
-6.55404806 5.55567646 -0.26536435 -0.96117097 0.95628011 -0.12918404
-6.25016403 5.68784952 -0.31329930 -0.91660547 0.97903061 -0.15251961
-6.53656244 5.64558125 1.42588758 -0.95860666 0.97175515 0.69414717
-6.40568590 5.66658974 -0.02900943 -0.93941319 0.97537124 -0.01412230
-6.65550852 5.62936211 0.92501211 -0.97605044 0.96896338 0.45031217
-6.62286329 5.58175468 0.32347313 -0.97126293 0.96076888 0.15747240
-6.44187403 5.65911627 0.56860846 -0.94472027 0.97408485 0.27680859
-6.28577852 5.64846659 -0.31329930 -0.92182839 0.97225177 -0.15251961
-6.57490015 5.60696602 1.42655420 -0.96422899 0.96510839 0.69447166
-6.42012119 5.60776138 -0.02936576 -0.94153017 0.96524531 -0.01429577
-6.38331032 5.68785715 0.85645247 -0.93613178 0.97903192 0.41693613
-6.47245836 5.78119850 0.27569544 -0.94920558 0.99509847 0.13421339
-6.46378040 5.60674238 0.56712949 -0.94793296 0.96506995 0.27608863
-6.42860174 5.70467281 -0.31628788 -0.94277388 0.98192638 -0.15397450
-6.65667105 5.60502863 1.43688726 -0.97622091 0.96477497 0.69950199
-6.44767237 5.56076336 -0.02949303 -0.94557065 0.95715570 -0.01435772
-6.46654940 5.68974352 0.86385238 -0.94833899 0.97935665 0.42053854
-6.42642069 5.66754580 0.27045771 -0.94245404 0.97553581 0.13166358
-6.53514004 5.59722328 0.57107341 -0.95839804 0.96343142 0.27800858
-6.41779375 5.62320757 -0.31500113 -0.94118887 0.96790403 -0.15334809
-6.53566647 5.56564856 -0.02860220 -0.95847523 0.95799661 -0.01392405
-6.48421192 5.63332367 0.86107743 -0.95092928 0.96964526 0.41918764
-6.44536591 5.61258554 0.26941016 -0.94523239 0.96607572 0.13115361
-6.58840656 5.57153940 0.57304537 -0.96620971 0.95901054 0.27896857
-6.46959829 5.59720325 -0.31545770 -0.94878614 0.96342796 -0.15357035
-6.01294661 5.63111830 -0.34181312 -0.88181680 0.96926570 -0.16640064
-6.53501606 5.80227661 1.83482647 -0.95837986 0.99872661 0.89322579
-6.52571344 5.61569881 0.86338991 -0.95701557 0.96661156 0.42031339
-6.49589729 5.60308456 0.27093387 -0.95264298 0.96444035 0.13189538
-6.53075266 5.59666252 -0.31641239 -0.95775461 0.96333492 -0.15403512
-6.17310715 5.72613192 -0.34631702 -0.90530479 0.98562002 -0.16859321
-6.50047874 5.71731281 1.81725800 -0.95331484 0.98410207 0.88467318
-6.58957529 5.59909391 0.86778361 -0.96638113 0.96375340 0.42245233
-6.54463434 5.57384920 0.27179095 -0.95979041 0.95940810 0.13231261
-6.48755217 5.79991055 0.53046280 -0.95141912 0.99831933 0.25823861
-6.21339607 5.69127321 -0.34646550 -0.91121334 0.97961992 -0.16866550
-6.42104053 5.71655893 -0.06068851 -0.94166499 0.98397231 -0.02954424
-6.52443552 5.66612530 1.81391156 -0.95682818 0.97529131 0.88304406
-6.51346445 5.77931118 1.13234007 -0.95521927 0.99477363 0.55124307
-6.38754368 5.63925934 0.51651812 -0.93675256 0.97066694 0.25145009
-6.24903250 5.65212107 -0.34646550 -0.91643947 0.97288078 -0.16866550
-6.41017199 5.63527870 -0.06124497 -0.94007111 0.96998179 -0.02981513
-6.54503107 5.61232376 1.80972862 -0.95984858 0.96603066 0.88100773
-6.11817360 5.75835514 -0.11856508 -0.89724863 0.99116653 -0.05771957
-6.46164513 5.66153383 1.11528873 -0.94761980 0.97450101 0.54294217
-6.47707605 5.64605761 0.52203470 -0.94988281 0.97183710 0.25413567
-6.29787207 5.62470007 -0.34691095 -0.92360198 0.96816093 -0.16888236
-6.46828079 5.70622921 1.36201727 -0.94859290 0.98219424 0.66305399
-6.38340282 5.54128885 -0.06198094 -0.93614531 0.95380366 -0.03017341
-6.60858202 5.59503365 1.81767631 -0.96916854 0.96305454 0.88487679
-6.19515991 5.75802279 -0.11843657 -0.90853894 0.99110931 -0.05765701
-6.42593288 5.72353029 0.82909828 -0.94238245 0.98517227 0.40361962
-6.51058722 5.63244390 1.11788976 -0.95479727 0.96949387 0.54420841
-6.44516325 5.71294641 0.23255749 -0.94520265 0.98335046 0.11321308
-6.51545191 5.60784435 0.52234113 -0.95551074 0.96525961 0.25428486
-6.44128656 5.67997408 -0.35047445 -0.94463414 0.97767508 -0.17061712
-6.46522045 5.63185072 1.35370958 -0.94814414 0.96939176 0.65900964
-6.11487341 5.77405596 -0.40046567 -0.89676464 0.99386907 -0.19495372
-6.21504402 5.70406914 -0.11848706 -0.91145498 0.98182243 -0.05768159
-6.46625423 5.68696928 0.82976884 -0.94829571 0.97887909 0.40394607
-6.55791044 5.60167980 1.12020183 -0.96173739 0.96419853 0.54533398
-6.41011667 5.61065292 0.22851717 -0.94006300 0.96574306 0.11124618
-6.57644224 5.58868742 0.52494621 -0.96445513 0.96196216 0.25555304
-6.37258816 5.54904461 -0.34705943 -0.93455929 0.95513862 -0.16895464
-6.50797749 5.59753704 1.35530722 -0.95441455 0.96348542 0.65978742
-6.15978432 5.74372244 -0.40084010 -0.90335101 0.98864788 -0.19513601
-6.26702642 5.67971945 -0.11843657 -0.91907835 0.97763121 -0.05765701
-6.47195816 5.63820744 0.82663947 -0.94913220 0.97048593 0.40242264
-6.61148357 5.59365892 1.12540400 -0.96959406 0.96281791 0.54786646
-6.49246073 5.62868071 0.23169784 -0.95213896 0.96884608 0.11279459
-6.46845579 5.57885504 -0.34933612 -0.94861859 0.96026975 -0.17006296
-6.54331827 5.57446718 1.35722435 -0.95959741 0.95951450 0.66072071
-6.21608591 5.74182987 -0.40208822 -0.91160780 0.98832208 -0.19574362
-6.30857229 5.66352034 -0.11839067 -0.92517120 0.97484291 -0.05763466
-6.52386379 5.61164951 0.82909828 -0.95674431 0.96591455 0.40361962
-6.45523787 5.78715277 1.08294988 -0.94668013 0.99612337 0.52719903
-6.54290867 5.60073471 0.23255749 -0.95953733 0.96403587 0.11321308
-6.45493269 5.75775337 0.47276080 -0.94663537 0.99106294 0.23014827
-6.53541231 5.56524897 -0.35037547 -0.95843798 0.95792782 -0.17056894
-6.62817287 5.57506561 1.36776876 -0.97204161 0.95961750 0.66585392
-6.26088190 5.71076393 -0.40246266 -0.91817725 0.98297483 -0.19592591
-6.32909822 5.61046791 -0.11843657 -0.92818141 0.96571118 -0.05765701
-6.58024454 5.58851004 0.83222759 -0.96501273 0.96193165 0.40514302
-6.39676571 5.66224480 1.06508219 -0.93810505 0.97462338 0.51850075
-6.60090685 5.57880688 0.23384695 -0.96804291 0.96026146 0.11384081
-6.42225695 5.65626431 0.46627876 -0.94184339 0.97359395 0.22699270
-6.28626490 5.66192341 -0.40202582 -0.92189974 0.97456807 -0.19571324
-6.37774038 5.58247852 -0.11839526 -0.93531489 0.96089345 -0.05763689
-6.48620605 5.74129772 1.74034071 -0.95122170 0.98823047 0.84722847
-6.47388077 5.65853262 1.07289934 -0.94941419 0.97398442 0.52230626
-6.41715240 5.74298859 0.17729457 -0.94109482 0.98852152 0.08631011
-6.47118998 5.62761497 0.46754697 -0.94901955 0.96866268 0.22761008
-6.41860056 5.70889854 -0.40608224 -0.94130719 0.98265374 -0.19768798
-6.40815973 5.53836203 -0.11840903 -0.93977600 0.95329982 -0.05764360
-6.48681831 5.66940212 1.73070729 -0.95131153 0.97585535 0.84253877
-6.07436848 5.70539474 -0.16555627 -0.89082450 0.98205066 -0.08059570
-6.50958014 5.78084040 0.78086346 -0.95464963 0.99503684 0.38013807
-6.52277231 5.62942219 1.07541203 -0.95658427 0.96897376 0.52352947
-6.40379000 5.65876389 0.17488025 -0.93913513 0.97402424 0.08513478
-6.50944233 5.58945131 0.46782881 -0.95462936 0.96209365 0.22774729
-6.40488100 5.62480879 -0.40402284 -0.93929517 0.96817964 -0.19668543
-6.49445152 5.54225349 -0.11825299 -0.95243096 0.95396966 -0.05756763
-6.53415442 5.63880110 1.73391843 -0.95825350 0.97058809 0.84410197
-6.19680738 5.74714756 -0.16594861 -0.90878052 0.98923743 -0.08078671
-6.45324659 5.65830803 0.76783955 -0.94638813 0.97394574 0.37379780
-6.55199671 5.58317518 1.07429528 -0.96087015 0.96101338 0.52298582
-6.44522953 5.62368679 0.17517290 -0.94521236 0.96798652 0.08527724
-6.55506420 5.55749702 0.46881521 -0.96131998 0.95659351 0.22822750
-6.46571779 5.60677958 -0.40508375 -0.94821703 0.96507633 -0.19720189
-6.32814550 5.62490606 1.25908720 -0.92804164 0.96819639 0.61294580
-6.57540798 5.60273170 1.73552394 -0.96430343 0.96437961 0.84488356
-6.23120117 5.72462988 -0.16598187 -0.91382450 0.98536152 -0.08080290
-6.48283577 5.63045025 0.76825970 -0.95072746 0.96915066 0.37400234
-6.47467709 5.59587288 0.17531921 -0.94953096 0.96319902 0.08534847
-6.51628017 5.59714651 -0.40608224 -0.95563215 0.96341825 -0.19768798
-6.46563673 5.69327831 1.28173208 -0.94820517 0.97996509 0.62396973
-6.66599369 5.62617445 1.75278378 -0.97758812 0.96841472 0.85328597
-6.26407814 5.68268490 -0.16596857 -0.91864598 0.97814167 -0.08079642
-6.54972649 5.61687136 0.77267104 -0.96053720 0.96681339 0.37614986
-6.52943325 5.57199430 0.17627031 -0.95756114 0.95908886 0.08581149
-6.50723648 5.65774441 1.28293991 -0.95430589 0.97384876 0.62455773
-6.30413818 5.64720726 -0.16598852 -0.92452091 0.97203499 -0.08080613
-6.61064148 5.59751749 0.77624208 -0.96947056 0.96348208 0.37788829
-6.46259117 5.75398588 1.03179836 -0.94775850 0.99041444 0.50229758
-6.42926502 5.69844913 0.42271614 -0.94287115 0.98085511 0.20578565
-6.54265642 5.61674690 1.28293991 -0.95950031 0.96679199 0.62455773
-6.44458199 5.69998837 -0.16645403 -0.94511741 0.98112005 -0.08103275
-6.09120607 5.77562189 -0.20468220 -0.89329380 0.99413860 -0.09964290
-6.47027731 5.68846941 1.02670276 -0.94888574 0.97913730 0.49981695
-6.45892239 5.65269756 0.42219499 -0.94722050 0.97298002 0.20553194
-6.60039568 5.59475613 1.28746891 -0.96796799 0.96300679 0.62676251
-6.30969524 5.51112700 -0.16570257 -0.92533588 0.94861197 -0.08066692
-6.12737465 5.73723555 -0.20468220 -0.89859802 0.98753130 -0.09964290
-6.48613119 5.79349470 0.73704267 -0.95121074 0.99721497 0.35880533
-6.48939371 5.63345098 1.02375257 -0.95168918 0.96966720 0.49838075
-6.34892416 5.65187216 0.13212274 -0.93108892 0.97283798 0.06431967
-6.48674583 5.60549688 0.42154354 -0.95130086 0.96485555 0.20521481
-6.47472095 5.58338833 -0.16627447 -0.94953740 0.96105009 -0.08094534
-6.19553518 5.72857141 -0.20503251 -0.90859395 0.98603994 -0.09981343
-6.44314432 5.68304968 0.72642440 -0.94490659 0.97820443 0.35363618
-6.54275560 5.60800123 1.02697086 -0.95951486 0.96528661 0.49994749
-6.41440153 5.63819265 0.13339284 -0.94069135 0.97048336 0.06493798
-6.54922152 5.58788157 0.42388874 -0.96046311 0.96182346 0.20635650
-6.52991295 5.57742596 -0.16640083 -0.95763147 0.96002376 -0.08100685
-6.22098970 5.69795799 -0.20501658 -0.91232693 0.98077059 -0.09980568
-6.48036480 5.66176414 0.72782677 -0.95036507 0.97454065 0.35431889
-6.58576298 5.59117746 1.02992105 -0.96582204 0.96239078 0.50138366
-6.44089985 5.60790300 0.13339284 -0.94457746 0.96526968 0.06493798
-6.60297346 5.58007956 0.42623392 -0.96834600 0.96048057 0.20749816
-6.45867205 5.74459076 1.65403616 -0.94718379 0.98879731 0.80521387
-6.26406813 5.66548347 -0.20509620 -0.91864455 0.97518086 -0.09984444
-6.51128101 5.61704636 0.72722578 -0.95489901 0.96684355 0.35402629
-6.49879169 5.58681631 0.13434543 -0.95306742 0.96164012 0.06540172
-6.44014549 5.76037407 0.37668288 -0.94446677 0.99151403 0.18337585
-6.48133707 5.69227028 1.65058577 -0.95050764 0.97979158 0.80353421
-6.39480257 5.71150255 -0.20611529 -0.93781710 0.98310196 -0.10034055
-6.57225037 5.59789896 0.73063165 -0.96384037 0.96354777 0.35568434
-6.37176657 5.65351772 0.95336682 -0.93443882 0.97312123 0.46411574
-6.54751015 5.55748272 0.13491698 -0.96021217 0.95659101 0.06567996
-6.40154743 5.65353918 0.37073570 -0.93880630 0.97312492 0.18048066
-6.51846075 5.65271711 1.65096915 -0.95595199 0.97298342 0.80372083
-6.37218666 5.61948109 -0.20549428 -0.93450046 0.96726263 -0.10003823
-6.44885397 5.65007401 0.96048963 -0.94574392 0.97252846 0.46758324
-6.39165258 5.73414993 0.07669203 -0.93735516 0.98700017 0.03733503
-6.45496225 5.62899446 0.37216303 -0.94663972 0.96890008 0.18117552
-6.55086088 5.60910320 1.65020239 -0.96070355 0.96547627 0.80334753
-6.44650173 5.61357403 -0.20590828 -0.94539899 0.96624583 -0.10023978
-6.39323711 5.69435358 0.65754914 -0.93758756 0.98015016 0.32010648
-6.48123264 5.60684061 0.95998085 -0.95049238 0.96508682 0.46733555
-6.29613018 5.57689714 0.07229524 -0.92334652 0.95993274 0.03519459
-6.49775171 5.59485722 0.37275776 -0.95291495 0.96302420 0.18146503
-6.62352419 5.59942579 1.65978670 -0.97135985 0.96381056 0.80801338
-6.48467207 5.57557392 -0.20594013 -0.95099676 0.95970500 -0.10025527
-6.42739725 5.65275288 0.65736395 -0.94259721 0.97298956 0.32001632
-6.54493475 5.59055519 0.96481419 -0.95983446 0.96228367 0.46968850
-6.38661242 5.58606434 0.07414389 -0.93661600 0.96151066 0.03609455
-6.55099249 5.56948137 0.37418509 -0.96072286 0.95865631 0.18215989
-6.44796991 5.61715555 0.65662336 -0.94561428 0.96686232 0.31965581
-6.45810509 5.59529066 0.07564279 -0.94710064 0.96309876 0.03682424
-6.49518919 5.58694839 0.65810460 -0.95253915 0.96166283 0.32037690
-6.50223064 5.56242275 0.07594258 -0.95357180 0.95744133 0.03697018
-6.57106447 5.58093119 0.66310358 -0.96366644 0.96062714 0.32281050
-6.47610235 5.80967474 1.58504200 -0.94973999 1.00000000 0.77162635
-6.48016405 5.74011135 1.57699156 -0.95033562 0.98802626 0.76770723
-6.49837875 5.68370676 1.57260036 -0.95300686 0.97831756 0.76556951
-6.52805662 5.65560293 1.57333219 -0.95735925 0.97348011 0.76592577
-6.57837391 5.62729073 1.57699156 -0.96473843 0.96860683 0.76770723
-6.49746418 5.76014233 2.03193235 -0.95287275 0.99147415 0.98918039
-6.51453447 5.70249939 2.02591300 -0.95537615 0.98155224 0.98625010
-6.55170488 5.66273117 2.02637601 -0.96082729 0.97470707 0.98647547
-6.59897137 5.63158607 2.03008008 -0.96775907 0.96934617 0.98827869
-6.71144247 5.65538645 2.05415750 -0.98425335 0.97344285 1.00000000
