6.71275759 -13.18492413 2.54421735 0.94143575 -0.98647529 0.94923961
6.76189566 -13.07777596 2.53151345 0.94832718 -0.97845864 0.94449985
6.86229801 -13.06989574 2.53838038 0.96240819 -0.97786903 0.94706190
7.02943707 -13.23564339 2.57752204 0.98584872 -0.99027002 0.96166551
6.42057467 -13.11341953 0.63996166 0.90045834 -0.98112541 0.23876771
6.56260347 -13.19254208 0.64709169 0.92037725 -0.98704523 0.24142791
6.77861643 -13.16273212 1.15787208 0.95067221 -0.98481494 0.43199849
6.76789665 -13.06749344 0.13215052 0.94916880 -0.97768933 0.04930495
6.64626789 -13.15282917 0.64719814 0.93211085 -0.98407400 0.24146762
6.82785988 -13.05636787 1.15159237 0.95757836 -0.97685689 0.42965555
6.90586138 -13.13082504 0.13435198 0.96851772 -0.98242766 0.05012631
6.70027542 -13.16729832 1.66426015 0.93968517 -0.98515654 0.62093031
6.71455622 -13.13380241 0.64794308 0.94168800 -0.98265046 0.24174556
6.95095634 -13.14019966 1.16310513 0.97484213 -0.98312908 0.43395093
6.83898258 -13.25938225 -0.35926148 0.95913827 -0.99204612 -0.13403936
6.73809481 -13.03858089 1.65238750 0.94498920 -0.97552609 0.61650068
6.79509974 -13.08781242 0.64773023 0.95298392 -0.97920954 0.24166615
6.82820177 -13.03735733 -0.35626414 0.95762634 -0.97543460 -0.13292105
6.73071718 -13.20935059 2.47185946 0.94395453 -0.98830283 0.92224312
6.86890697 -13.08908939 1.66522932 0.96333504 -0.97930509 0.62129194
6.88653660 -13.06251335 0.64879441 0.96580750 -0.97731674 0.24206319
6.78375101 -13.10896206 2.46085978 0.95139229 -0.98079193 0.91813916
6.46470308 -13.23061752 0.56396115 0.90664715 -0.98989397 0.21041216
6.87970638 -13.09228420 2.46585965 0.96484959 -0.97954410 0.92000461
6.55124855 -13.19690037 0.56434202 0.91878480 -0.98737133 0.21055427
6.71945000 -13.05618954 1.07228231 0.94237435 -0.97684360 0.40006521
7.13034058 -13.36569118 2.52652478 1.00000000 -1.00000000 0.94263858
6.79093027 -13.10032940 0.04994360 0.95239913 -0.98014605 0.01863380
6.64480162 -13.17689705 0.56548482 0.93190521 -0.98587471 0.21098064
6.84831142 -13.10387039 1.08066320 0.96044660 -0.98041099 0.40319210
6.90748310 -13.12292671 0.05088533 0.96874517 -0.98183674 0.01898516
6.77933311 -13.25376034 1.59413314 0.95077270 -0.99162549 0.59476614
6.70591688 -13.14365768 0.56538957 0.94047636 -0.98338783 0.21094510
6.93135548 -13.11201191 1.08444285 0.97209316 -0.98102009 0.40460229
6.81537247 -13.24926853 -0.44716161 0.95582706 -0.99128944 -0.16683462
6.81589365 -13.12093067 1.58233941 0.95590013 -0.98168743 0.59036595
6.79111814 -13.10658836 0.56567526 0.95242548 -0.98061430 0.21105169
6.88740444 -13.18490219 -0.44666353 0.96592921 -0.98647368 -0.16664879
6.92408371 -13.12708092 1.58881438 0.97107333 -0.98214757 0.59278172
6.87147903 -13.06012154 0.56548482 0.96369576 -0.97713774 0.21098064
6.97291470 -13.14667034 -0.44678804 0.97792166 -0.98361319 -0.16669524
6.53978300 -13.31761265 2.36725521 0.91717678 -0.99640286 0.88321561
6.77494335 -13.26409626 2.03577447 0.95015705 -0.99239880 0.75954115
6.55583620 -13.22301006 0.49698263 0.91942823 -0.98932481 0.18542269
6.78349304 -13.19441414 1.00182378 0.95135611 -0.98718530 0.37377736
6.80017185 -13.15511799 -0.00493481 0.95369524 -0.98424524 -0.00184116
6.80150318 -13.11242676 2.01785612 0.95388198 -0.98105115 0.75285590
6.62436867 -13.15302467 0.49560723 0.92903960 -0.98408860 0.18490952
6.82832336 -13.07910824 0.99554104 0.95764339 -0.97855830 0.37143329
6.75611925 -13.12707710 2.35543251 0.94751704 -0.98214728 0.87880462
6.84541607 -13.04135132 -0.00565282 0.96004057 -0.97573340 -0.00210905
6.69990492 -13.23034096 1.52917922 0.93963325 -0.98987329 0.57053202
6.88257885 -13.11700439 2.02392530 0.96525246 -0.98139364 0.75512028
6.70810843 -13.16436005 0.49767035 0.94078374 -0.98493671 0.18567927
6.92722654 -13.11726761 1.00167060 0.97151411 -0.98141336 0.37372020
6.78251457 -13.22182274 -0.50573498 0.95121890 -0.98923600 -0.18868816
6.80784798 -13.07584476 2.35191774 0.95477176 -0.97831416 0.87749326
6.76649475 -13.15619183 1.52515566 0.94897217 -0.98432559 0.56903088
6.79345226 -13.12727165 0.49792823 0.95275283 -0.98216182 0.18577549
6.77191305 -12.99997997 -0.50073618 0.94973207 -0.97263807 -0.18682311
6.90744829 -13.06595039 2.35798883 0.96874028 -0.97757387 0.87975836
6.84072065 -13.09757423 1.52314401 0.95938206 -0.97993994 0.56828034
6.88139009 -13.09493351 0.49844402 0.96508574 -0.97974235 0.18596792
6.93875217 -13.11788845 -0.50524008 0.97313052 -0.98145980 -0.18850352
6.97142506 -13.14557171 1.53476727 0.97771275 -0.98353100 0.57261693
6.71682453 -13.17573547 1.94562483 0.94200611 -0.98578781 0.72590661
6.49896383 -13.12252331 0.39809531 0.91145211 -0.98180658 0.14852813
6.71015739 -13.07762146 0.90001124 0.94107109 -0.97844708 0.33579141
6.82704592 -13.20318031 -0.10373586 0.95746422 -0.98784119 -0.03870353
6.80310917 -13.14031219 1.94674158 0.95410717 -0.98313749 0.72632325
6.64219904 -13.20292473 0.40307027 0.93154025 -0.98782206 0.15038428
6.82529354 -13.09894180 0.90508413 0.95721847 -0.98004222 0.33768409
6.88483047 -13.11218071 -0.10385977 0.96556824 -0.98103273 -0.03874976
6.86678839 -13.11161900 1.94729996 0.96303791 -0.98099071 0.72653162
6.70795918 -13.17860794 0.40336290 0.94076282 -0.98600274 0.15049346
6.90828371 -13.10725498 0.90832514 0.96885747 -0.98066419 0.33889329
6.61744452 -13.29922485 2.23463178 0.92806852 -0.99502707 0.83373421
6.76025391 -13.15911674 1.42386520 0.94809693 -0.98454440 0.53123969
6.79337597 -13.14153099 0.40358239 0.95274216 -0.98322868 0.15057534
6.85241795 -13.15312290 -0.60091567 0.96102256 -0.98409599 -0.22419979
6.82720327 -13.08638191 1.42029417 0.95748627 -0.97910249 0.52990735
6.88322401 -13.11275482 0.40416768 0.96534294 -0.98107570 0.15079372
6.95077515 -13.13986969 -0.60197657 0.97481674 -0.98310441 -0.22459561
6.68768549 -13.02669048 2.20232487 0.93791950 -0.97463650 0.82168061
6.95757961 -13.13468742 1.43121743 0.97577101 -0.98271668 0.53398281
6.82865334 -13.09844875 2.22195053 0.95768964 -0.98000532 0.82900286
6.74026537 -13.25050354 1.87258255 0.94529361 -0.99138182 0.69865477
6.46293402 -13.10394478 0.32625860 0.90639907 -0.98041654 0.12172607
6.72600079 -13.14516640 0.82582992 0.94329304 -0.98350066 0.30811459
6.93664980 -13.10424709 2.23040462 0.97283572 -0.98043919 0.83215708
6.77925587 -13.27247620 -0.18740197 0.95076185 -0.99302578 -0.06991909
6.78808260 -13.19041729 1.86829138 0.95199978 -0.98688626 0.69705373
6.58548307 -13.19488525 0.33057696 0.92358607 -0.98722059 0.12333724
6.78971052 -13.11686707 0.82609051 0.95222807 -0.98138338 0.30821183
6.80526781 -13.11962605 -0.18698965 0.95440990 -0.98158979 -0.06976526
6.86806488 -13.14224052 1.86748683 0.96321696 -0.98328179 0.69675356
6.67460299 -13.16571903 0.33102152 0.93608475 -0.98503840 0.12350310
6.89526653 -13.11808014 0.82934773 0.96703184 -0.98147410 0.30942708
6.93989611 -13.17563057 -0.18736206 0.97329098 -0.98577994 -0.06990421
6.74533892 -13.15999699 1.35030031 0.94600517 -0.98461026 0.50379288
6.97471952 -13.14431477 1.87445986 0.97817481 -0.98343694 0.69935519
6.75627565 -13.12174511 0.33095801 0.94753897 -0.98174834 0.12347941
6.77261877 -13.01152325 1.33827960 0.94983101 -0.97350168 0.49930799
6.84044552 -13.08257580 0.33108500 0.95934343 -0.97881776 0.12352679
6.93161774 -13.11463070 1.35490823 0.97212994 -0.98121607 0.50551206
6.75736618 -13.24803257 -0.25625750 0.94769192 -0.99119699 -0.09560888
6.73478031 -13.09512711 1.74934220 0.94452435 -0.97975683 0.65267420
6.80425215 -13.15159130 0.74409968 0.95426750 -0.98398137 0.27762130
6.79735136 -13.12179089 -0.25550911 0.95329970 -0.98175174 -0.09532966
6.83616018 -13.08950615 1.75468433 0.95874244 -0.97933626 0.65466732
6.88675117 -13.10857964 0.74409968 0.96583760 -0.98076332 0.27762130
6.90752172 -13.13196182 -0.25598681 0.96875060 -0.98251271 -0.09550789
6.76016092 -13.20680046 1.24095166 0.94808388 -0.98811203 0.46299523
6.94051552 -13.08838844 1.76078963 0.97337782 -0.97925264 0.65694517
6.79763460 -13.18805981 0.23287801 0.95333940 -0.98670989 0.08688607
6.81002903 -13.10040951 1.23428631 0.95507765 -0.98015207 0.46050841
6.88683605 -13.15749741 0.23322776 0.96584952 -0.98442328 0.08701656
6.91167688 -13.09437275 1.23817444 0.96933335 -0.97970039 0.46195906
6.99557495 -13.16343784 0.23462674 0.98109967 -0.98486775 0.08753851
6.76228857 -12.92268372 2.68026876 0.94838226 -0.96685487 1.00000000
