-8.80961037 4.76089859 -0.28646451 -0.95949042 0.98587871 -0.21120715
-8.79163647 4.68017769 -0.28566322 -0.95753282 0.96916318 -0.21061637
-8.96448231 4.69976997 -0.28806704 -0.97635818 0.97322029 -0.21238868
-9.00984383 4.65157652 -0.28833413 -0.98129869 0.96324050 -0.21258560
-8.83282661 4.80720758 -0.00986930 -0.96201903 0.99546832 -0.00727653
-9.14348698 4.52803659 0.75492877 -0.99585432 0.93765807 0.55660075
-9.06208992 4.60660887 -0.28871992 -0.98698902 0.95392865 -0.21287005
-9.15131474 4.50680113 0.04930233 -0.99670684 0.93326068 0.03635007
-8.94736576 4.79714251 -0.00864759 -0.97449392 0.99338406 -0.00637578
-9.10517597 4.55671072 -0.28895736 -0.99168169 0.94359583 -0.21304509
-8.92963409 4.71552038 -0.00933481 -0.97256273 0.97648185 -0.00688245
-9.15283585 4.58646631 1.11061156 -0.99687254 0.94975758 0.81884176
-9.05309677 4.51663828 0.40105221 -0.98600954 0.93529773 0.29569140
-9.14090252 4.52081680 -0.28919476 -0.99557281 0.93616301 -0.21322013
-8.84997654 4.78022242 -0.34667149 -0.96388686 0.98988026 -0.25559708
-8.96592331 4.68082094 -0.00913119 -0.97651511 0.96929640 -0.00673232
-8.90805054 4.73960686 -0.34733561 -0.97021198 0.98146969 -0.25608674
-9.00048733 4.62714815 -0.00905483 -0.98027962 0.95818192 -0.00667603
-8.97126961 4.70124483 -0.34812427 -0.97709739 0.97352570 -0.25666821
-9.07037926 4.59136057 -0.00846943 -0.98789185 0.95077109 -0.00624442
-9.00595665 4.64754581 -0.34824878 -0.98087531 0.96240580 -0.25676000
-9.10083580 4.53517485 -0.00844397 -0.99120897 0.93913621 -0.00622565
-9.18155098 4.53602409 0.70598900 -1.00000000 0.93931210 0.52051795
-9.04566479 4.59632444 -0.34849784 -0.98520011 0.95179898 -0.25694364
-9.14350128 4.48497772 -0.00824036 -0.99585587 0.92874151 -0.00607552
-8.92925358 4.81545353 -0.04679496 -0.97252125 0.99717587 -0.03450141
-9.09759045 4.55107498 -0.34903744 -0.99085552 0.94242883 -0.25734147
-8.90452290 4.73027992 -0.04735142 -0.96982777 0.97953826 -0.03491168
-9.16505909 4.55458260 1.05255067 -0.99820381 0.94315517 0.77603412
-9.05461979 4.51255560 0.34426209 -0.98617542 0.93445230 0.25382069
-9.14221478 4.51971960 -0.34957704 -0.99571574 0.93593580 -0.25773934
-8.88831043 4.82909155 -0.38828737 -0.96806198 1.00000000 -0.28628004
-8.94798470 4.69938183 -0.04713602 -0.97456133 0.97313994 -0.03475287
-8.87965393 4.75247192 -0.38719851 -0.96711916 0.98413372 -0.28547722
-8.99156094 4.65038919 -0.04699242 -0.97930741 0.96299464 -0.03464700
-8.92881489 4.70680285 -0.38774294 -0.97247350 0.97467667 -0.28587863
-9.04736137 4.60736179 -0.04672316 -0.98538488 0.95408458 -0.03444847
-8.97775269 4.66070271 -0.38828737 -0.97780353 0.96513033 -0.28628004
-9.09402752 4.55935240 -0.04654366 -0.99046749 0.94414288 -0.03431613
-8.81860065 4.81152391 -0.11479237 -0.96046960 0.99636215 -0.08463516
-9.16292095 4.57489157 1.35632014 -0.99797094 0.94736069 1.00000000
-9.11914158 4.52429485 0.64401239 -0.99320275 0.93688321 0.47482330
-9.01755142 4.60964108 -0.38858432 -0.98213816 0.95455658 -0.28649896
-9.14044666 4.51093864 -0.04636415 -0.99552315 0.93411744 -0.03418379
-8.89617062 4.78168201 -0.11466845 -0.96891809 0.99018252 -0.08454379
-9.05885124 4.55915833 -0.38893077 -0.98663628 0.94410270 -0.28675440
-8.91014767 4.71723747 -0.11470976 -0.97044039 0.97683746 -0.08457425
-9.13276386 4.57182169 0.30141461 -0.99468642 0.94672501 0.22222969
-9.09098625 4.52173996 -0.38922772 -0.99013621 0.93635416 -0.28697333
-8.96945000 4.69474888 -0.11461338 -0.97689921 0.97218055 -0.08450319
-9.18074417 4.55127573 1.01373005 -0.99991214 0.94247037 0.74741209
-9.15592670 4.51170969 0.30115673 -0.99720913 0.93427712 0.22203957
-9.14258480 4.47591305 -0.38987115 -0.99575603 0.92686439 -0.28744772
-9.01475334 4.64657879 -0.11457207 -0.98183340 0.96220559 -0.08447273
-8.93488121 4.69510984 -0.45301202 -0.97313422 0.97225529 -0.33400080
-9.06336880 4.59984159 -0.11452159 -0.98712832 0.95252728 -0.08443552
-9.09924126 4.54639435 -0.11450322 -0.99103534 0.94145954 -0.08442197
-9.14057636 4.55866051 1.30071247 -0.99553728 0.94399959 0.95900106
-9.15512371 4.53735733 0.58351898 -0.99712169 0.93958819 0.43022215
-9.15093517 4.50065374 -0.11444356 -0.99666554 0.93198764 -0.08437798
-8.82849789 4.81384993 -0.17128202 -0.96154755 0.99684381 -0.12628436
-8.81271076 4.73377085 -0.17110913 -0.95982814 0.98026115 -0.12615688
-9.11975574 4.55643702 0.23523830 -0.99326962 0.94353914 0.17343862
-9.15931511 4.54125309 -0.45706844 -0.99757820 0.94039488 -0.33699155
-8.94315243 4.73141384 -0.17148818 -0.97403502 0.97977304 -0.12643635
-8.99578667 4.68709707 -0.17157464 -0.97976768 0.97059602 -0.12650010
-9.04821491 4.64230490 -0.17166109 -0.98547781 0.96132052 -0.12656385
-9.09507370 4.59434414 -0.17172758 -0.99058139 0.95138890 -0.12661287
-9.14415741 4.55909538 0.52890158 -0.99592733 0.94408965 0.38995335
-9.11662292 4.55143356 -0.17172758 -0.99292845 0.94250304 -0.12661287
-8.81135559 4.79599237 -0.21772331 -0.95968050 0.99314588 -0.16052501
-9.16300774 4.50284767 -0.17179409 -0.99798036 0.93244195 -0.12666190
-8.80082035 4.71871662 -0.21735708 -0.95853311 0.97714376 -0.16025500
-8.94335556 4.72332907 -0.21837616 -0.97405720 0.97809887 -0.16100635
-9.16889191 4.56173992 0.89251083 -0.99862123 0.94463730 0.65803850
-9.17878819 4.54689884 0.18749940 -0.99969912 0.94156402 0.13824126
-8.98349094 4.67260218 -0.21847171 -0.97842848 0.96759444 -0.16107680
-9.03223228 4.62613344 -0.21864685 -0.98373711 0.95797181 -0.16120593
-9.07360840 4.57561970 -0.21875831 -0.98824352 0.94751149 -0.16128811
-9.12732315 4.53908968 0.46922100 -0.99409384 0.93994689 0.34595150
-9.12010384 4.54535007 -0.21898125 -0.99330753 0.94124329 -0.16145249
-9.10675049 4.56381512 0.11666285 -0.99185318 0.94506699 0.08601424
-9.13918495 4.53928709 0.81029654 -0.99538577 0.93998778 0.59742278
-9.06896782 4.47364569 0.11481420 -0.98773813 0.92639488 0.08465125
