-9.16348076 -11.54124832 0.64719814 -0.53877193 -0.75728226 0.24887487
-9.71697617 -11.35001183 0.57424611 -0.57131499 -0.74473423 0.22082175
-10.49800682 -13.61271000 1.36667001 -0.61723614 -0.89320183 0.52554202
-9.48611069 -11.41134644 1.08510017 -0.55774111 -0.74875873 0.41726661
-10.28533268 -11.15976715 0.51494908 -0.60473180 -0.73225129 0.19801956
-12.35379791 -12.45093727 0.50410599 -0.72634840 -0.81697178 0.19384994
-10.05149078 -11.23001671 1.01990592 -0.59098297 -0.73686075 0.39219669
-12.89493942 -11.21580696 0.28918689 -0.75816512 -0.73592836 0.11120451
-11.87298584 -10.62585831 0.81118387 -0.69807875 -0.69721872 0.31193429
-8.93918896 -11.63955402 0.13141671 -0.52558458 -0.76373261 0.05053525
-9.48732853 -11.47857571 0.05167435 -0.55781275 -0.75317001 0.01987096
-10.05538368 -11.28204250 -0.00220636 -0.59121186 -0.74027443 -0.00084844
-10.65037918 -11.11478424 -0.10251959 -0.62619495 -0.72929972 -0.03942309
-9.07653618 -11.50070000 1.64923763 -0.53365993 -0.75462168 0.63420117
-9.57900810 -11.32303238 1.58765817 -0.56320310 -0.74296397 0.61052126
-11.32582951 -10.89518833 -0.19010191 -0.66590840 -0.71489090 -0.07310217
-12.27810478 -10.96837616 -0.26893237 -0.72189796 -0.71969312 -0.10341579
-10.23220539 -11.15367126 1.56360209 -0.60160816 -0.73185128 0.60127068
-10.80910206 -10.94777203 1.48625374 -0.63552713 -0.71834117 0.57152700
-9.99084663 -11.21111679 2.05369282 -0.58741736 -0.73562062 0.78973120
-10.57530403 -11.01839161 2.01374555 -0.62178087 -0.72297490 0.77436978
-11.43388748 -10.75522232 1.44185817 -0.67226171 -0.70570695 0.55445504
-12.06500912 -10.53822041 1.35092986 -0.70936888 -0.69146830 0.51948929
-11.19023323 -10.82875538 1.96805906 -0.65793598 -0.71053183 0.75680143
-11.77373505 -10.58806896 1.89154434 -0.69224328 -0.69473916 0.72737825
-9.64138222 -11.36980343 0.57262719 -0.56687039 -0.74603289 0.22019921
-9.39796638 -11.41442108 1.08066320 -0.55255860 -0.74896049 0.41556039
-10.20437908 -11.17708397 0.51314384 -0.59997213 -0.73338753 0.19732536
-11.45618916 -11.65759182 0.46035555 -0.67357296 -0.76491618 0.17702605
-9.97600365 -11.25186253 1.01730084 -0.58654463 -0.73829412 0.39119491
-13.40955830 -12.66224003 0.44799837 -0.78842241 -0.83083647 0.17227420
-12.32791328 -11.98684025 0.98439145 -0.72482646 -0.78651994 0.37853986
-13.12938881 -11.85916233 0.91597319 -0.77194965 -0.77814227 0.35223019
-9.15394211 -11.72507763 -0.35860860 -0.53821111 -0.76934427 -0.13790007
-8.86732388 -11.65924358 0.13090304 -0.52135921 -0.76502460 0.05033772
-9.41663647 -11.50306225 0.05134347 -0.55365634 -0.75477672 0.01974372
-9.98096180 -11.30528545 -0.00249357 -0.58683616 -0.74179953 -0.00095888
-10.57444382 -11.14022064 -0.10259762 -0.62173027 -0.73096871 -0.03945309
-8.98460960 -11.53241825 1.64536095 -0.52825511 -0.75670290 0.63271040
-9.48088741 -11.35101318 1.58280194 -0.55743402 -0.74479997 0.60865384
-11.22567272 -10.93539238 -0.18995561 -0.66001964 -0.71752888 -0.07304591
-12.17479801 -11.01448727 -0.26856613 -0.71582401 -0.72271872 -0.10327496
-10.13660812 -11.18972111 1.55935502 -0.59598750 -0.73421675 0.59963751
-10.70812416 -10.98275948 1.48142231 -0.62959009 -0.72063690 0.56966913
-9.88496399 -11.23350716 2.04588962 -0.58119190 -0.73708975 0.78673053
-10.46493721 -11.04155254 2.00536990 -0.61529177 -0.72449458 0.77114898
-11.33586502 -10.79798889 1.43765092 -0.66649842 -0.70851308 0.55283719
-11.96271896 -10.58219719 1.34648633 -0.70335466 -0.69435388 0.51778054
-11.09511185 -10.87246037 1.96296346 -0.65234321 -0.71339959 0.75484192
-11.66586208 -10.62448788 1.88442147 -0.68590081 -0.69712877 0.72463924
-9.54020977 -11.39496708 0.57043684 -0.56092191 -0.74768400 0.21935692
-9.25086594 -12.26866722 1.20688808 -0.54390979 -0.80501211 0.46409917
-9.31095028 -11.45470524 1.07869124 -0.54744250 -0.75160372 0.41480210
-10.10188770 -11.20531845 0.51108074 -0.59394610 -0.73524016 0.19653203
-9.88150311 -11.28728199 1.01454258 -0.58098847 -0.74061823 0.39013425
-10.42256069 -11.05213165 0.93481696 -0.61280024 -0.72518873 0.35947639
-13.20060825 -12.07465744 0.92774856 -0.77613705 -0.79228204 0.35675830
-9.12639523 -11.84261608 -0.35973632 -0.53659147 -0.77705663 -0.13833374
-8.76992607 -11.68271065 0.13016921 -0.51563263 -0.76656437 0.05005553
-9.31143665 -11.52160549 0.05068171 -0.54747105 -0.75599343 0.01948925
-9.88086414 -11.33456993 -0.00288847 -0.58095086 -0.74372101 -0.00111074
-10.46862793 -11.16854954 -0.10271695 -0.61550879 -0.73282754 -0.03949898
-8.88781166 -11.55713367 1.64051497 -0.52256382 -0.75832462 0.63084692
-9.38785839 -11.38433266 1.57887077 -0.55196434 -0.74698621 0.60714215
-11.12545872 -10.97476864 -0.18980931 -0.65412748 -0.72011256 -0.07298966
-12.10978127 -11.09481335 -0.26861390 -0.71200126 -0.72798932 -0.10329333
-10.03699398 -11.22056198 1.55443752 -0.59013063 -0.73624039 0.59774655
-10.60575294 -11.01548100 1.47638083 -0.62357110 -0.72278392 0.56773049
-9.79993153 -11.27894211 2.04271054 -0.57619238 -0.74007100 0.78550804
-10.36283016 -11.07242870 1.99866962 -0.60928833 -0.72652054 0.76857245
-11.23203564 -10.83441639 1.43264234 -0.66039377 -0.71090329 0.55091119
-11.85441494 -10.61999893 1.34130216 -0.69698685 -0.69683427 0.51578707
-10.98864460 -10.90421486 1.95572221 -0.64608341 -0.71548313 0.75205737
-11.56091690 -10.66265774 1.87780738 -0.67973047 -0.69963330 0.72209585
-9.45185184 -11.43468952 0.56919885 -0.55572683 -0.75029039 0.21888088
-9.21630096 -11.48502922 1.07573330 -0.54187751 -0.75359344 0.41366467
-10.00740528 -11.24167156 0.50953341 -0.58839095 -0.73762548 0.19593701
-9.78825378 -11.32346916 1.01193750 -0.57550579 -0.74299264 0.38913250
-10.30117321 -11.06198978 0.92946219 -0.60566318 -0.72583562 0.35741726
-11.85892010 -10.68195724 0.26095751 -0.69725174 -0.70089966 0.10034913
-13.24910641 -12.27253914 0.93785876 -0.77898854 -0.80526614 0.36064610
-9.03730392 -11.88060570 -0.35938019 -0.53135329 -0.77954930 -0.13819678
-8.68209076 -11.71828175 0.12972891 -0.51046830 -0.76889837 0.04988622
-9.23136520 -11.57051468 0.05052900 -0.54276323 -0.75920260 0.01943053
-9.78600597 -11.36911392 -0.00321158 -0.57537365 -0.74598765 -0.00123499
-10.36967659 -11.20332050 -0.10281333 -0.60969085 -0.73510903 -0.03953605
-8.79704952 -11.58900452 1.63688052 -0.51722741 -0.76041579 0.62944931
-9.28473473 -11.40462208 1.57308948 -0.54590112 -0.74831754 0.60491902
-11.01812840 -11.00624180 -0.18962975 -0.64781696 -0.72217768 -0.07292061
-11.98112011 -11.11634445 -0.26797697 -0.70443660 -0.72940212 -0.10304841
-9.93345356 -11.24611950 1.54884934 -0.58404291 -0.73791730 0.59559762
-10.50339508 -11.04734993 1.47133934 -0.61755294 -0.72487497 0.56579179
-9.68898869 -11.29367733 2.03375149 -0.56966943 -0.74103785 0.78206289
-10.27690315 -11.11989021 1.99531937 -0.60423619 -0.72963476 0.76728415
-11.12677479 -10.86857319 1.42743337 -0.65420491 -0.71314454 0.54890811
-11.74906349 -10.65953159 1.33648825 -0.69079268 -0.69942820 0.51393586
-10.89338779 -10.94631672 1.95062661 -0.64048278 -0.71824569 0.75009787
-11.45305157 -10.69722462 1.87068462 -0.67338848 -0.70190144 0.71935683
-9.36463737 -11.47529888 0.56805605 -0.55059904 -0.75295502 0.21844141
-8.54027748 -11.62528419 1.12455511 -0.50213033 -0.76279634 0.43243870
-9.13031864 -11.52554226 1.07392561 -0.53682214 -0.75625175 0.41296953
-9.91023159 -11.27427673 0.50781411 -0.58267754 -0.73976487 0.19527586
-9.68977070 -11.35285759 1.00871956 -0.56971544 -0.74492097 0.38789505
-10.25716114 -11.15436268 0.93213958 -0.60307544 -0.73189670 0.35844684
-12.13826752 -11.38830090 0.85352778 -0.71367615 -0.74724662 0.32821730
-8.94090462 -11.90833855 -0.35884601 -0.52568543 -0.78136903 -0.13799137
-8.58708763 -11.74351692 0.12906848 -0.50488257 -0.77055418 0.04963225
-9.12873459 -11.59062290 0.04991814 -0.53672898 -0.76052201 0.01919562
-9.67817307 -11.38765812 -0.00371419 -0.56903356 -0.74720442 -0.00142826
-10.26800156 -11.23434067 -0.10291889 -0.60371286 -0.73714447 -0.03957664
-8.70742607 -11.62178230 1.63348842 -0.51195794 -0.76256657 0.62814492
-9.20292091 -11.45036030 1.57123959 -0.54109085 -0.75131863 0.60420763
-10.92488575 -11.05104256 -0.18951671 -0.64233470 -0.72511727 -0.07287714
-11.82494450 -11.11071301 -0.26703751 -0.69525415 -0.72903258 -0.10268714
-9.84433556 -11.28731632 1.54571998 -0.57880312 -0.74062043 0.59439427
-10.40650940 -11.08416271 1.46713805 -0.61185646 -0.72729051 0.56417620
-9.61145210 -11.34677219 2.03230643 -0.56511062 -0.74452168 0.78150719
-10.18276691 -11.15794277 1.99029410 -0.59870142 -0.73213160 0.76535171
-11.02859497 -10.90884399 1.42322612 -0.64843231 -0.71578687 0.54729027
-11.63927937 -10.69412327 1.33111894 -0.68433785 -0.70169795 0.51187116
-10.78555012 -10.97491360 1.94311714 -0.63414240 -0.72012210 0.74721020
-11.34088135 -10.72677517 1.86279857 -0.66679341 -0.70384037 0.71632433
-9.26724148 -11.50283337 0.56615144 -0.54487258 -0.75476170 0.21770902
-8.48340607 -11.70132065 1.12699723 -0.49878654 -0.76778549 0.43337780
-9.81827545 -11.31214905 0.50643867 -0.57727093 -0.74224985 0.19474696
-10.40396881 -11.13520908 0.41989735 -0.61170709 -0.73063987 0.16146818
-9.59643745 -11.38756275 1.00611448 -0.56422782 -0.74719816 0.38689330
-10.16269779 -11.19203568 0.92960310 -0.59752142 -0.73436862 0.35747147
-12.55102444 -12.83423710 1.03377092 -0.73794442 -0.84212214 0.39752835
-13.35032368 -12.68114471 0.95891178 -0.78493965 -0.83207691 0.36874187
-8.84570312 -11.93693924 -0.35834152 -0.52008802 -0.78324568 -0.13779737
-8.50145245 -11.78100681 0.12870157 -0.49984759 -0.77301413 0.04949116
-9.03851414 -11.62567139 0.04956181 -0.53142446 -0.76282173 0.01905860
-9.58332920 -11.42063427 -0.00403729 -0.56345713 -0.74936813 -0.00155251
-10.16634655 -11.26452637 -0.10302445 -0.59773594 -0.73912507 -0.03961723
-8.63013077 -11.63236141 1.62888479 -0.50741333 -0.76326072 0.62637466
-9.11663723 -11.45323372 1.56522715 -0.53601772 -0.75150716 0.60189563
-10.82936668 -11.05804920 -0.18931055 -0.63671863 -0.72557706 -0.07279786
-11.78553009 -11.17868423 -0.26718083 -0.69293678 -0.73349255 -0.10274225
-9.76509190 -11.30346680 1.54124951 -0.57414401 -0.74168020 0.59267521
-10.32431889 -11.10107708 1.46251667 -0.60702401 -0.72840035 0.56239909
-9.52358723 -11.35095787 2.02450323 -0.55994457 -0.74479634 0.77850658
-10.10347271 -11.17645836 1.98471045 -0.59403926 -0.73334646 0.76320457
-10.93487740 -10.91845703 1.41721570 -0.64292216 -0.71641767 0.54497898
-11.53905487 -10.70287323 1.32482398 -0.67844510 -0.70227206 0.50945050
-10.69919682 -10.99006844 1.93641233 -0.62906522 -0.72111648 0.74463189
-11.25285625 -10.74452782 1.85618460 -0.66161793 -0.70500523 0.71378100
-9.18297863 -11.50893974 0.56386590 -0.53991830 -0.75516236 0.21683013
-8.40150070 -11.70390320 1.12298524 -0.49397087 -0.76795495 0.43183503
-9.73624611 -11.32491779 0.50454748 -0.57244796 -0.74308771 0.19401971
-10.27932358 -11.10646820 0.41601983 -0.60437852 -0.72875404 0.15997711
-9.51715374 -11.40200615 1.00304973 -0.55956632 -0.74814588 0.38571477
-10.06842327 -11.19387627 0.92523479 -0.59197849 -0.73448938 0.35579166
-12.38547993 -12.41355324 0.41916692 -0.72821116 -0.81451881 0.16118729
-8.76927948 -11.95105362 -0.35783699 -0.51559466 -0.78417176 -0.13760336
-8.42495823 -11.79162216 0.12804113 -0.49535006 -0.77371061 0.04923720
-8.96529579 -11.64439201 0.04918003 -0.52711952 -0.76405007 0.01891179
-9.51408958 -11.44719028 -0.00425270 -0.55938613 -0.75111061 -0.00163534
-10.09446144 -11.29146004 -0.10308871 -0.59350944 -0.74089235 -0.03964194
-8.54516697 -11.67032146 1.62646174 -0.50241780 -0.76575148 0.62544286
-9.03342819 -11.49624634 1.56314588 -0.53112543 -0.75432944 0.60109526
-10.74162292 -11.10715961 -0.18922409 -0.63155967 -0.72879940 -0.07276461
-11.69484329 -11.23314285 -0.26695788 -0.68760478 -0.73706585 -0.10265652
-9.67198658 -11.33886337 1.53744960 -0.56866980 -0.74400276 0.59121394
-10.22741890 -11.13646603 1.45831549 -0.60132676 -0.73072237 0.56078357
-9.44073677 -11.39684010 2.02190208 -0.55507332 -0.74780691 0.77750629
-10.00399208 -11.20725441 1.97856843 -0.58819026 -0.73536718 0.76084268
-10.83950806 -10.96002960 1.41340911 -0.63731486 -0.71914548 0.54351521
-11.44832706 -10.75337982 1.32186151 -0.67311072 -0.70558608 0.50831127
-10.59838486 -11.02417278 1.93024397 -0.62313789 -0.72335422 0.74225992
-11.15228271 -10.78334713 1.85033369 -0.65570462 -0.70755237 0.71153104
-9.45524883 -12.96529102 0.71700865 -0.55592656 -0.85072124 0.27571994
-9.10553169 -11.56013966 0.56348497 -0.53536475 -0.75852185 0.21668364
-8.31860256 -11.74344063 1.12158978 -0.48909685 -0.77054918 0.43129840
-9.64295101 -11.35994148 0.50308609 -0.56696266 -0.74538577 0.19345774
-10.22689056 -11.18999100 0.41697091 -0.60129571 -0.73423445 0.16034283
-9.43139935 -11.44463158 1.00136411 -0.55452436 -0.75094277 0.38506657
-9.98727703 -11.24499798 0.92410749 -0.58720750 -0.73784375 0.35535815
-13.38825703 -12.63911438 0.32221279 -0.78716999 -0.82931906 0.12390435
-12.33113194 -11.97558022 0.88599938 -0.72501570 -0.78578109 0.34070399
-8.67060280 -11.97349072 -0.35724348 -0.50979286 -0.78564399 -0.13737513
-8.33805370 -11.82632923 0.12763754 -0.49024048 -0.77598792 0.04908200
-8.86164951 -11.66072845 0.04854372 -0.52102560 -0.76512200 0.01866710
-9.41411495 -11.47269154 -0.00464760 -0.55350810 -0.75278389 -0.00178720
-9.99812984 -11.32620716 -0.10317592 -0.58784556 -0.74317229 -0.03967547
-8.45542431 -11.70123100 1.62306964 -0.49714136 -0.76777959 0.62413847
-8.95247936 -11.54180145 1.56152713 -0.52636600 -0.75731856 0.60047281
-10.63713837 -11.13822651 -0.18905784 -0.62541646 -0.73083788 -0.07270069
-11.59245491 -11.27576351 -0.26660758 -0.68158478 -0.73986244 -0.10252181
-9.57882214 -11.37353802 1.53364968 -0.56319213 -0.74627793 0.58975273
-10.12379360 -11.16371822 1.45306385 -0.59523404 -0.73251057 0.55876410
-9.33392143 -11.41299057 2.01380992 -0.54879308 -0.74886662 0.77439451
-9.90583611 -11.23872757 1.97270560 -0.58241910 -0.73743230 0.75858819
-10.73016357 -10.98658085 1.40759909 -0.63088590 -0.72088760 0.54128098
-11.33286095 -10.77986813 1.31575167 -0.66632181 -0.70732409 0.50596178
-10.49484253 -11.05456638 1.92353916 -0.61705005 -0.72534853 0.73968160
-11.05024719 -10.81994152 1.84422839 -0.64970541 -0.70995355 0.70918328
-9.27480125 -12.29058456 1.13111281 -0.54531705 -0.80645019 0.43496040
-9.55344486 -11.39884090 0.50188261 -0.56170005 -0.74793816 0.19299495
-10.12955952 -11.22438717 0.41550767 -0.59557307 -0.73649132 0.15978016
-9.32538223 -11.46185303 0.99722666 -0.54829103 -0.75207275 0.38347554
-9.89007664 -11.27756405 0.92128921 -0.58149254 -0.73998058 0.35427442
-8.58127499 -12.00818920 -0.35688734 -0.50454080 -0.78792071 -0.13723817
-9.18256187 -11.88791466 -0.44969359 -0.53989381 -0.78002888 -0.17292608
-8.25104618 -11.86041069 0.12723394 -0.48512483 -0.77822423 0.04892680
-8.78700638 -11.71457958 0.04851827 -0.51663691 -0.76865548 0.01865731
-9.32802010 -11.51450253 -0.00484506 -0.54844612 -0.75552738 -0.00186313
-9.90307713 -11.36169720 -0.10325853 -0.58225691 -0.74550098 -0.03970724
-8.36793327 -11.73471069 1.62016201 -0.49199727 -0.76997638 0.62302035
-8.84711647 -11.55527973 1.55528343 -0.52017111 -0.75820297 0.59807181
-10.54091072 -11.17716217 -0.18893149 -0.61975867 -0.73339266 -0.07265210
-11.48714066 -11.31473827 -0.26622543 -0.67539281 -0.74241978 -0.10237487
-9.48433590 -11.40596008 1.52962625 -0.55763680 -0.74840528 0.58820558
-10.03750420 -11.20934772 1.45054317 -0.59016061 -0.73550451 0.55779481
-9.24341106 -11.44828892 2.00947475 -0.54347146 -0.75118273 0.77272749
-9.81809807 -11.28134823 1.96907616 -0.57726049 -0.74022889 0.75719249
-10.63609028 -11.02796841 1.40399289 -0.62535483 -0.72360325 0.53989428
-11.23618507 -10.82326794 1.31204867 -0.66063774 -0.71017182 0.50453782
-10.37238789 -11.06382847 1.91307962 -0.60985029 -0.72595626 0.73565948
-10.94819355 -10.85568047 1.83812308 -0.64370507 -0.71229857 0.70683557
-9.79256916 -13.79040146 0.76319426 -0.57575953 -0.90486109 0.29348025
-9.46128845 -11.43398285 0.50050718 -0.55628169 -0.75024402 0.19246604
-10.03353310 -11.25949478 0.41411763 -0.58992714 -0.73879492 0.15924563
-9.24320889 -11.50776768 0.99600077 -0.54345959 -0.75508547 0.38300416
-9.78501511 -11.30031490 0.91762549 -0.57531536 -0.74147338 0.35286555
-10.38779163 -11.13080502 0.85579634 -0.61075598 -0.73035091 0.32908964
-8.48035145 -12.02587986 -0.35623446 -0.49860695 -0.78908151 -0.13698712
-9.07489586 -11.90248680 -0.44857287 -0.53356349 -0.78098506 -0.17249511
-8.15490627 -11.88066483 0.12653680 -0.47947222 -0.77955317 0.04865872
-8.69057751 -11.73905087 0.04803468 -0.51096731 -0.77026117 0.01847135
-9.23054886 -11.54161358 -0.00520406 -0.54271525 -0.75730628 -0.00200118
-9.80274868 -11.39038467 -0.10335950 -0.57635802 -0.74738330 -0.03974607
-8.27807426 -11.76430321 1.61676991 -0.48671395 -0.77191812 0.62171596
-8.75993919 -11.59164047 1.55250847 -0.51504546 -0.76058877 0.59700471
-10.43508720 -11.20507050 -0.18875858 -0.61353672 -0.73522389 -0.07258561
-11.37187099 -11.34296322 -0.26573181 -0.66861546 -0.74427176 -0.10218505
-9.38856316 -11.43610668 1.52537918 -0.55200577 -0.75038338 0.58657241
-9.93520927 -11.23647594 1.44550169 -0.58414614 -0.73728454 0.55585611
-9.14543819 -11.47360706 2.00340581 -0.53771108 -0.75284398 0.77039373
-9.71082401 -11.30080605 1.96125913 -0.57095325 -0.74150562 0.75418657
-10.53369904 -11.05995178 1.39918458 -0.61933464 -0.72570187 0.53804529
-11.13227558 -10.85893631 1.30742002 -0.65452832 -0.71251220 0.50275791
-10.31342316 -11.14043045 1.91522515 -0.60638344 -0.73098248 0.73648453
-10.84332561 -10.88775730 1.83150911 -0.63753933 -0.71440327 0.70429224
-9.36401939 -11.46222019 0.49878788 -0.55056268 -0.75209683 0.19180490
-9.92821026 -11.28334808 0.41221544 -0.58373463 -0.74036008 0.15851416
-9.14474869 -11.53276825 0.99278277 -0.53767055 -0.75672585 0.38176668
-9.69434261 -11.33885384 0.91551173 -0.56998426 -0.74400210 0.35205272
-13.19052982 -12.93115997 0.32371169 -0.77554446 -0.84848171 0.12448075
-10.27578449 -11.15030193 0.85175741 -0.60417044 -0.73163021 0.32753652
-8.39664459 -12.06742382 -0.35602671 -0.49368536 -0.79180741 -0.13690723
-8.98306847 -11.93692589 -0.44799176 -0.52816451 -0.78324479 -0.17227165
-8.07450294 -11.92338181 0.12635335 -0.47474486 -0.78235608 0.04858817
-8.59300709 -11.76116085 0.04752563 -0.50523061 -0.77171189 0.01827560
-9.13805580 -11.57424068 -0.00549127 -0.53727704 -0.75944710 -0.00211162
-9.70893669 -11.42587280 -0.10343753 -0.57084233 -0.74971187 -0.03977608
-8.18930531 -11.79486275 1.61362004 -0.48149472 -0.77392328 0.62050474
-8.66432476 -11.61622810 1.54811478 -0.50942379 -0.76220208 0.59531516
-10.34284878 -11.24683189 -0.18865219 -0.60811353 -0.73796409 -0.07254469
-11.27360916 -11.38722038 -0.26542926 -0.66283810 -0.74717569 -0.10206870
-9.29653454 -11.47013855 1.52180278 -0.54659492 -0.75261641 0.58519709
-9.84738064 -11.27922440 1.44277084 -0.57898217 -0.74008954 0.55480599
-9.62679482 -11.34651375 1.95846725 -0.56601274 -0.74450469 0.75311297
-10.43541050 -11.09543991 1.39497733 -0.61355573 -0.72803044 0.53642738
-11.03261757 -10.89792061 1.30334675 -0.64866883 -0.71507013 0.50119162
-10.21384621 -11.17279053 1.90932488 -0.60052872 -0.73310584 0.73421562
-10.74266624 -10.92318535 1.82565820 -0.63162100 -0.71672791 0.70204228
-8.49390221 -11.71048260 1.05437028 -0.49940369 -0.76838666 0.40544969
-9.26927471 -11.49280262 0.49724054 -0.54499215 -0.75410348 0.19120988
-9.82954884 -11.31385899 0.41067904 -0.57793373 -0.74236208 0.15792334
-9.59068394 -11.36147308 0.91198891 -0.56388956 -0.74548626 0.35069805
-10.39642334 -11.09225559 0.34505618 -0.61126345 -0.72782147 0.13268860
-10.19479179 -11.20282269 0.85071510 -0.59940845 -0.73507637 0.32713571
-11.38578224 -11.62911797 0.83152318 -0.66943336 -0.76304787 0.31975561
-8.30371380 -12.09519005 -0.35558158 -0.48822144 -0.79362935 -0.13673607
-8.89116669 -11.97068214 -0.44741067 -0.52276105 -0.78545970 -0.17204820
-7.98612499 -11.95390797 0.12591305 -0.46954864 -0.78435904 0.04841886
-8.51190948 -11.80519676 0.04737291 -0.50046241 -0.77460134 0.01821688
-9.03569889 -11.59352875 -0.00592208 -0.53125894 -0.76071268 -0.00227729
-9.60862827 -11.45298004 -0.10353850 -0.56494462 -0.75149053 -0.03981490
-8.09823990 -11.82149315 1.60998559 -0.47614050 -0.77567065 0.61910713
-8.57818794 -11.65285778 1.54557109 -0.50435930 -0.76460558 0.59433705
-10.23975754 -11.27601814 -0.18849258 -0.60205221 -0.73987913 -0.07248332
-11.16264153 -11.41783810 -0.26498342 -0.65631366 -0.74918467 -0.10189725
-9.19825172 -11.49569893 1.51710880 -0.54081631 -0.75429356 0.58339208
-9.73989868 -11.29874229 1.43688905 -0.57266271 -0.74137020 0.55254424
-8.95085430 -11.52347374 1.99155653 -0.52627045 -0.75611597 0.76583719
-9.52092075 -11.36583328 1.95092928 -0.55978781 -0.74577236 0.75021428
-10.33303642 -11.12575054 1.39016902 -0.60753661 -0.73001927 0.53457838
-10.92445278 -10.92764282 1.29816258 -0.64230925 -0.71702039 0.49919805
-10.11161900 -11.20139408 1.90288830 -0.59451824 -0.73498267 0.73174053
-10.64891052 -10.96488476 1.82107925 -0.62610859 -0.71946400 0.70028150
-9.28259563 -14.02414894 1.33405077 -0.54577535 -0.92019850 0.51299858
-8.40388203 -11.74095154 1.05206966 -0.49411088 -0.77038586 0.40456498
-9.17575932 -11.52421284 0.49577916 -0.53949386 -0.75616449 0.19064792
-9.74262714 -11.35721302 0.40980110 -0.57282317 -0.74520677 0.15758574
-9.51015282 -11.41079235 0.91100252 -0.55915469 -0.74872237 0.35031876
-10.32516861 -11.15588951 0.34499270 -0.60707402 -0.73199683 0.13266419
-10.10022736 -11.23990440 0.84836990 -0.59384847 -0.73750949 0.32623386
-8.21300507 -12.12557983 -0.35519576 -0.48288816 -0.79562336 -0.13658769
-8.79919624 -12.00375462 -0.44682956 -0.51735359 -0.78762978 -0.17182474
-7.89878130 -11.98546696 0.12550946 -0.46441323 -0.78642982 0.04826366
-8.41781902 -11.83077240 0.04694023 -0.49493033 -0.77627951 0.01805049
-8.94806957 -11.63103104 -0.00613748 -0.52610672 -0.76317340 -0.00236012
-9.52242184 -11.49620247 -0.10358898 -0.55987608 -0.75432658 -0.03983432
-8.03132343 -11.84307671 1.60756266 -0.47220612 -0.77708685 0.61817539
-8.50911045 -11.67390728 1.54279602 -0.50029784 -0.76598674 0.59326988
-10.16513824 -11.30032730 -0.18838617 -0.59766495 -0.74147421 -0.07244240
-11.22434521 -11.58940697 -0.26630503 -0.65994155 -0.76044220 -0.10240547
-9.12426186 -11.51396751 1.51353240 -0.53646600 -0.75549227 0.58201683
-9.66455555 -11.31883144 1.43331802 -0.56823289 -0.74268836 0.55117100
-8.89283848 -11.56081486 1.99068940 -0.52285933 -0.75856614 0.76550370
-9.45332146 -11.39382744 1.94785833 -0.55581325 -0.74760920 0.74903339
-10.25896740 -11.15085983 1.38696361 -0.60318166 -0.73166680 0.53334576
-10.84337044 -10.94932652 1.29427445 -0.63754195 -0.71844316 0.49770290
-10.03629684 -11.22377300 1.89832902 -0.59008962 -0.73645103 0.72998726
-10.56406784 -10.98067856 1.81497395 -0.62112021 -0.72050035 0.69793373
-9.44605541 -12.92404175 0.62509972 -0.55538607 -0.84801465 0.24037711
-9.79771328 -13.81935310 1.25830483 -0.57606196 -0.90676075 0.48387107
-9.10653019 -11.54847527 0.49474758 -0.53542346 -0.75775647 0.19025123
-9.65659428 -11.36496544 0.40797207 -0.56776482 -0.74571544 0.15688241
-9.42828846 -11.42167187 0.90790242 -0.55434144 -0.74943626 0.34912664
-10.25224972 -11.18229294 0.34404010 -0.60278672 -0.73372930 0.13229787
-8.13910389 -12.13920975 -0.35475063 -0.47854310 -0.79651767 -0.13641652
-7.49110126 -12.25117970 2.46833777 -0.44044343 -0.80386466 0.94917959
-8.71429062 -12.00628757 -0.44583338 -0.51236153 -0.78779596 -0.17144167
-7.82150126 -11.99070358 0.12481233 -0.45986950 -0.78677344 0.04799559
-8.34697247 -11.84907627 0.04660935 -0.49076486 -0.77748048 0.01792325
-8.87017536 -11.64281082 -0.00647854 -0.52152687 -0.76394635 -0.00249127
-9.43764591 -11.50388050 -0.10369914 -0.55489159 -0.75483036 -0.03987668
-7.93912840 -11.86687946 1.60368586 -0.46678543 -0.77864867 0.61668462
-8.41932201 -11.70458603 1.53955865 -0.49501869 -0.76799971 0.59202498
-10.05282402 -11.31756401 -0.18818003 -0.59106135 -0.74260515 -0.07236313
-11.25788403 -11.77085781 -0.26753113 -0.66191351 -0.77234817 -0.10287696
-8.99550724 -11.49898243 1.50325024 -0.52889580 -0.75450897 0.57806289
-9.56885052 -11.35047245 1.42932677 -0.56260586 -0.74476445 0.54963619
-8.78657818 -11.57228279 1.98259723 -0.51661170 -0.75931859 0.76239192
-9.35263348 -11.41780186 1.94143713 -0.54989326 -0.74918228 0.74656415
-10.15396309 -11.17675686 1.38175452 -0.59700787 -0.73336607 0.53134269
-10.73950481 -10.98169327 1.28964567 -0.63143510 -0.72056693 0.49592295
-9.93807220 -11.25537395 1.89269698 -0.58431447 -0.73852456 0.72782153
-10.45792294 -11.00805569 1.80810547 -0.61487937 -0.72229671 0.69529253
-8.25253201 -11.80163956 1.04894733 -0.48521218 -0.77436793 0.40336433
-9.57212925 -11.41012001 0.40724045 -0.56279862 -0.74867827 0.15660107
-9.28676891 -12.29776287 1.04595649 -0.54602069 -0.80692118 0.40221423
-9.33613873 -11.45596886 0.90564781 -0.54892343 -0.75168663 0.34825963
-10.15097523 -11.21236324 0.34257948 -0.59683222 -0.73570240 0.13173620
-9.92340851 -11.29024792 0.84315830 -0.58345228 -0.74081284 0.32422981
-10.45511532 -11.05626202 0.76848310 -0.61471426 -0.72545975 0.29551405
-8.05496407 -12.17842293 -0.35454288 -0.47359607 -0.79909068 -0.13633664
-7.29016352 -12.09196854 2.42644930 -0.42862919 -0.79341793 0.93307173
-8.62468243 -12.04131603 -0.44533527 -0.50709295 -0.79009438 -0.17125012
-7.73629141 -12.02446175 0.12448211 -0.45485952 -0.78898847 0.04786860
-8.25520325 -11.87667942 0.04622756 -0.48536924 -0.77929169 0.01777644
-8.78844833 -11.68711281 -0.00660419 -0.51672167 -0.76685321 -0.00253959
-9.34752655 -11.54121685 -0.10376339 -0.54959297 -0.75728023 -0.03990138
-7.85349894 -11.89994240 1.60126293 -0.46175081 -0.78081810 0.61575288
-8.32833099 -11.73297977 1.53608990 -0.48966882 -0.76986277 0.59069109
-9.96834850 -11.36544991 -0.18811353 -0.58609456 -0.74574721 -0.07233755
-11.32533169 -11.99094296 -0.26917121 -0.66587913 -0.78678912 -0.10350764
-8.94248104 -11.58047199 1.50682664 -0.52577811 -0.75985599 0.57943815
-9.47695255 -11.38593960 1.42596579 -0.55720264 -0.74709165 0.54834378
-8.70421791 -11.61457920 1.98028517 -0.51176929 -0.76209390 0.76150286
-9.26574039 -11.45788193 1.93808687 -0.54478431 -0.75181216 0.74527586
-10.05700111 -11.21067429 1.37774765 -0.59130692 -0.73559159 0.52980185
-9.84114933 -11.28768063 1.88733315 -0.57861584 -0.74064440 0.72575891
-10.34369755 -11.02586365 1.79971075 -0.60816342 -0.72346514 0.69206440
-9.34093189 -13.12302399 0.62986130 -0.54920524 -0.86107093 0.24220814
-7.61955881 -11.94947243 1.10240197 -0.44799617 -0.78406805 0.42391989
-9.49539852 -12.35989189 0.53257173 -0.55828720 -0.81099778 0.20479621
-9.47854042 -11.44390011 0.40599671 -0.55729604 -0.75089473 0.15612279
-9.25019455 -11.49732399 0.90409774 -0.54387033 -0.75440019 0.34766358
-10.04839993 -11.24011230 0.34105536 -0.59080124 -0.73752314 0.13115011
-9.82354164 -11.31917667 0.84029198 -0.57758057 -0.74271101 0.32312757
-10.37725353 -11.11299038 0.76776946 -0.61013633 -0.72918200 0.29523963
-7.96302128 -12.20532417 -0.35412741 -0.46819025 -0.80085582 -0.13617687
-7.19998455 -12.11380291 2.42164254 -0.42332706 -0.79485059 0.93122333
-8.52688408 -12.06427383 -0.44454664 -0.50134289 -0.79160076 -0.17094687
-7.64669085 -12.05086327 0.12400513 -0.44959143 -0.79072082 0.04768518
-8.16114998 -11.90030289 0.04579487 -0.47983932 -0.78084177 0.01761005
-9.11781693 -11.93078899 -0.50959545 -0.53608710 -0.78284210 -0.19596086
-9.55627155 -11.32356071 2.22889495 -0.56186628 -0.74299866 0.85710377
-8.68867016 -11.70673370 -0.00699910 -0.51085514 -0.76814067 -0.00269145
-9.25480938 -11.57475567 -0.10383683 -0.54414165 -0.75948089 -0.03992962
-7.76452541 -11.92740250 1.59811306 -0.45651957 -0.78261989 0.61454165
-8.23845863 -11.76231861 1.53285241 -0.48438472 -0.77178788 0.58944619
-9.86667442 -11.39304543 -0.18796057 -0.58011657 -0.74755794 -0.07227874
-11.38089180 -12.20210743 -0.27069986 -0.66914582 -0.80064476 -0.10409547
-8.84789562 -11.60794830 1.50280321 -0.52021694 -0.76165885 0.57789099
-9.38751793 -11.42377090 1.42302489 -0.55194432 -0.74957395 0.54721284
-8.60875225 -11.63877773 1.97479403 -0.50615633 -0.76368171 0.75939131
-9.16138554 -11.47567749 1.93082809 -0.53864872 -0.75297982 0.74248451
-9.96396732 -11.24828911 1.37434185 -0.58583695 -0.73805970 0.52849221
-9.74550343 -11.32071972 1.88223743 -0.57299227 -0.74281222 0.72379941
-10.28231716 -11.09935760 1.80123711 -0.60455453 -0.72828752 0.69265133
-9.73911381 -13.86418724 0.66966808 -0.57261658 -0.90970260 0.25751552
-7.56231737 -12.02581024 1.10536730 -0.44463062 -0.78907692 0.42506018
-9.38743973 -11.48004723 0.40489930 -0.55193973 -0.75326657 0.15570079
-9.15167046 -11.52244663 0.90113854 -0.53807753 -0.75604862 0.34652564
-9.95380211 -11.27601814 0.33991227 -0.58523929 -0.73987913 0.13071054
-9.73407555 -11.35943508 0.83846796 -0.57232034 -0.74535257 0.32242617
-10.24216747 -11.10760880 0.76206017 -0.60219389 -0.72882891 0.29304415
-7.87537813 -12.23828411 -0.35383064 -0.46303722 -0.80301851 -0.13606274
-7.13465881 -12.17751789 2.42541933 -0.41948619 -0.79903132 0.93267566
-8.43372345 -12.09303284 -0.44392401 -0.49586543 -0.79348779 -0.17070743
-7.56023932 -12.08170414 0.12363822 -0.44450846 -0.79274446 0.04754409
-8.08397102 -11.94803619 0.04574397 -0.47530153 -0.78397381 0.01759048
-9.01863670 -11.95588493 -0.50860560 -0.53025573 -0.78448880 -0.19558023
-9.48873806 -11.38793182 2.22980070 -0.55789560 -0.74722236 0.85745203
-8.60078907 -11.74171448 -0.00721450 -0.50568813 -0.77043593 -0.00277428
-9.16328144 -11.60915375 -0.10390567 -0.53876019 -0.76173794 -0.03995610
-7.67872810 -11.95923233 1.59569001 -0.45147505 -0.78470844 0.61360985
-8.14515209 -11.78609371 1.52892125 -0.47889873 -0.77334785 0.58793443
-9.77023888 -11.42590046 -0.18783422 -0.57444662 -0.74971372 -0.07223015
-11.46680069 -12.44970417 -0.27261063 -0.67419690 -0.81689090 -0.10483024
-8.75808907 -11.64105320 1.49967384 -0.51493669 -0.76383102 0.57668763
-9.28543091 -11.44550037 1.41798341 -0.54594207 -0.75099975 0.54527420
-8.51682091 -11.66703701 1.97017002 -0.50075120 -0.76553595 0.75761318
-9.07313728 -11.51281548 1.92719877 -0.53346014 -0.75541663 0.74108893
-9.86170292 -11.27468204 1.36953354 -0.57982427 -0.73979145 0.52664322
-10.44037437 -11.08660126 1.27742589 -0.61384761 -0.72745049 0.49122393
-9.64598846 -11.34846687 1.87633717 -0.56714123 -0.74463290 0.72153050
-10.17751122 -11.12573433 1.79462302 -0.59839243 -0.73001820 0.69010794
-7.67852497 -12.00590801 0.62133843 -0.45146313 -0.78777105 0.23893073
-8.74664783 -12.62252903 0.59405428 -0.51426399 -0.82823080 0.22843884
-7.47508526 -12.05444527 1.10344851 -0.43950176 -0.79095584 0.42432231
-9.28619862 -11.50307465 0.40321660 -0.54598719 -0.75477749 0.15505372
-9.85652828 -11.30816269 0.33864215 -0.57952005 -0.74198830 0.13022214
-10.39391899 -11.09734535 0.24207130 -0.61111623 -0.72815549 0.09308659
-9.63548374 -11.38833904 0.83573186 -0.56652361 -0.74724913 0.32137403
-10.18294334 -11.18353844 0.76301169 -0.59871179 -0.73381102 0.29341006
-7.77694368 -12.25372601 -0.35323712 -0.45724970 -0.80403173 -0.13583452
-7.05505657 -12.21698284 2.42438936 -0.41480595 -0.80162078 0.93227959
-8.33940220 -12.11945343 -0.44325989 -0.49031976 -0.79522139 -0.17045206
-7.47475052 -12.11363888 0.12330800 -0.43948209 -0.79483986 0.04741711
-7.98203850 -11.95871067 0.04513311 -0.46930838 -0.78467417 0.01735558
-8.92188549 -11.98341846 -0.50771475 -0.52456719 -0.78629541 -0.19523765
-9.37296486 -11.39394760 2.21923304 -0.55108863 -0.74761713 0.85338837
-8.51047325 -11.77280903 -0.00746580 -0.50037795 -0.77247620 -0.00287092
-9.06306744 -11.63182831 -0.10400665 -0.53286809 -0.76322573 -0.03999493
-7.59071875 -11.98709774 1.59278250 -0.44630051 -0.78653681 0.61249179
-8.06196594 -11.82392025 1.52707124 -0.47400776 -0.77582991 0.58722305
-9.67506886 -11.45952320 -0.18771452 -0.56885099 -0.75191987 -0.07218412
-11.54869270 -12.69737720 -0.27450550 -0.67901176 -0.83314198 -0.10555889
-8.66585159 -11.67029476 1.49609745 -0.50951356 -0.76574969 0.57531232
-9.19714260 -11.48345757 1.41525257 -0.54075110 -0.75349033 0.54422408
-8.43295574 -11.70585251 1.96756887 -0.49582028 -0.76808286 0.75661290
-8.97016621 -11.53056049 1.92021918 -0.52740586 -0.75658101 0.73840493
-9.77118778 -11.31380463 1.36652827 -0.57450241 -0.74235851 0.52548754
-10.31347084 -11.09080791 1.26964974 -0.60638624 -0.72772652 0.48823369
-9.56304550 -11.39517117 1.87392342 -0.56226456 -0.74769741 0.72060227
-10.07943916 -11.15858555 1.78928089 -0.59262621 -0.73217374 0.68805367
-7.59443378 -12.04039001 0.62048709 -0.44651893 -0.79003358 0.23860335
-7.37327528 -12.05864239 1.09908772 -0.43351579 -0.79123122 0.42264542
-9.28819847 -14.01403999 1.24778759 -0.54610479 -0.91953522 0.47982675
-9.19377518 -11.53621292 0.40204602 -0.54055309 -0.75695187 0.15460359
-8.45778465 -11.80358791 0.97761214 -0.49728012 -0.77449578 0.37593293
-9.76315022 -11.34408283 0.33756256 -0.57402980 -0.74434519 0.12980700
-10.24785328 -11.08033657 0.23927334 -0.60252821 -0.72703946 0.09201065
-9.54202271 -11.42258739 0.83351696 -0.56102848 -0.74949634 0.32052228
-10.09375954 -11.22653866 0.76134646 -0.59346819 -0.73663253 0.29276970
-7.69238806 -12.29047108 -0.35302937 -0.45227820 -0.80644274 -0.13575463
-6.96746302 -12.24221706 2.42061257 -0.40965584 -0.80327654 0.93082726
-8.25183487 -12.15508366 -0.44284481 -0.48517120 -0.79755926 -0.17029244
-7.39019585 -12.14668560 0.12301447 -0.43451065 -0.79700822 0.04730423
-7.90343618 -12.00362110 0.04505676 -0.46468690 -0.78762102 0.01732622
-8.82278156 -12.00698376 -0.50672489 -0.51874030 -0.78784162 -0.19485702
-9.29120159 -11.44035053 2.21681762 -0.54628134 -0.75066185 0.85245949
-8.42358398 -11.80812168 -0.00766326 -0.49526927 -0.77479327 -0.00294684
-8.97514629 -11.66953945 -0.10406172 -0.52769870 -0.76570016 -0.04001610
-7.52152538 -12.00252914 1.58987498 -0.44223225 -0.78754938 0.61137372
-7.98722458 -11.83381462 1.52313995 -0.46961328 -0.77647913 0.58571130
-9.59405994 -11.47273350 -0.18757486 -0.56408805 -0.75278664 -0.07213042
-8.58960915 -11.68215084 1.49207401 -0.50503081 -0.76652765 0.57376516
-9.11940098 -11.49709606 1.41126144 -0.53618020 -0.75438523 0.54268932
-8.35476208 -11.71320629 1.96178877 -0.49122286 -0.76856536 0.75439024
-8.89877892 -11.55076313 1.91631067 -0.52320862 -0.75790662 0.73690200
-9.69451809 -11.33247471 1.36292207 -0.56999457 -0.74358356 0.52410078
-10.25568771 -11.13343430 1.26890910 -0.60298884 -0.73052347 0.48794886
-9.48647499 -11.41264343 1.86909604 -0.55776256 -0.74884385 0.71874595
-9.99759865 -11.17347527 1.78368437 -0.58781433 -0.73315072 0.68590158
-7.99445772 -12.81029510 0.66656631 -0.47003856 -0.84055114 0.25632274
-7.30093527 -12.06766129 1.09647119 -0.42926252 -0.79182303 0.42163923
-9.21767521 -14.05099297 1.24713027 -0.54195833 -0.92195988 0.47957399
-9.51125908 -13.00473595 0.55518025 -0.55921972 -0.85330945 0.21349013
-9.11698246 -11.55120087 0.40072912 -0.53603804 -0.75793535 0.15409718
-8.33758068 -11.75214386 0.96903080 -0.49021268 -0.77112025 0.37263307
-9.69016361 -11.36711884 0.33660999 -0.56973851 -0.74585670 0.12944068
-10.25504017 -11.19328976 0.24147174 -0.60295075 -0.73445088 0.09285603
-9.46776772 -11.44279575 0.83143234 -0.55666262 -0.75082231 0.31972069
-10.00616837 -11.23526287 0.75825393 -0.58831823 -0.73720497 0.29158050
-7.62493038 -12.31126976 -0.35276228 -0.44831198 -0.80780745 -0.13565192
-6.88366699 -12.22851944 2.41134214 -0.40472901 -0.80237776 0.92726237
-8.17770004 -12.16896343 -0.44222221 -0.48081240 -0.79846996 -0.17005302
-7.31641245 -12.15394211 0.12242742 -0.43017250 -0.79748434 0.04707849
-7.83584070 -12.02399254 0.04480223 -0.46071258 -0.78895766 0.01722834
-8.75083923 -12.02738762 -0.50608146 -0.51451045 -0.78918046 -0.19460958
-9.20987892 -11.45015240 2.21017504 -0.54149991 -0.75130498 0.84990519
-8.35057449 -11.82315826 -0.00793251 -0.49097663 -0.77577990 -0.00305038
-8.89577484 -11.67991543 -0.10415351 -0.52303201 -0.76638097 -0.04005140
-7.43555164 -12.03264809 1.58745193 -0.43717736 -0.78952563 0.61044198
-7.90609312 -11.87385368 1.52175248 -0.46484312 -0.77910626 0.58517778
-9.51161671 -11.52043629 -0.18752167 -0.55924076 -0.75591671 -0.07210996
-10.70823288 -12.03846455 -0.26612988 -0.62959647 -0.78990728 -0.10233812
-8.50671864 -11.72300816 1.49028575 -0.50015724 -0.76920849 0.57307750
-9.00890446 -11.50567436 1.40474951 -0.52968353 -0.75494808 0.54018521
-8.27531719 -11.75737000 1.96034372 -0.48655185 -0.77146316 0.75383455
-8.82122421 -11.60014820 1.91519392 -0.51864874 -0.76114702 0.73647255
-9.59748363 -11.36272335 1.35891521 -0.56428933 -0.74556834 0.52256000
-10.14124680 -11.14909840 1.26279926 -0.59626019 -0.73155123 0.48559937
-9.39324188 -11.44594860 1.86453676 -0.55228084 -0.75102919 0.71699274
-9.90351772 -11.20934296 1.77910542 -0.58228278 -0.73550421 0.68414080
-7.85741377 -12.76834679 0.66081971 -0.46198100 -0.83779871 0.25411296
-8.24513626 -13.82931614 1.27125442 -0.48477733 -0.90741450 0.48885074
-9.12378407 -14.10027122 1.24630868 -0.53643793 -0.92519331 0.47925806
-8.25786877 -11.79612255 0.96826464 -0.48552597 -0.77400595 0.37233844
-9.59156227 -11.39562511 0.33527637 -0.56394118 -0.74772716 0.12892786
-10.15629864 -11.22640514 0.24042250 -0.59714520 -0.73662376 0.09245256
-9.37425613 -11.47575283 0.82921743 -0.55116457 -0.75298476 0.31886894
-9.91293049 -11.27245522 0.75623190 -0.58283621 -0.73964536 0.29080296
-7.53598785 -12.34014606 -0.35243583 -0.44308257 -0.80970216 -0.13552639
-6.78477383 -12.23186779 2.40344524 -0.39891452 -0.80259746 0.92422569
-8.09332943 -12.20844936 -0.44193164 -0.47585177 -0.80106086 -0.16994128
-7.23684883 -12.19450855 0.12231734 -0.42549452 -0.80014616 0.04703616
-7.74713326 -12.05281925 0.04449681 -0.45549700 -0.79084915 0.01711089
-8.65880203 -12.05937386 -0.50538856 -0.50909907 -0.79127926 -0.19434313
-9.12420654 -11.49078083 2.20685387 -0.53646278 -0.75397086 0.84862804
-8.25900555 -11.85075760 -0.00820177 -0.48559278 -0.77759081 -0.00315392
-8.80415344 -11.71162415 -0.10422236 -0.51764506 -0.76846153 -0.04007788
-7.34846592 -12.06046391 1.58478665 -0.43205711 -0.79135078 0.60941708
-7.80947256 -11.89011669 1.51712751 -0.45916227 -0.78017336 0.58339930
-9.43147469 -11.57065964 -0.18748176 -0.55452877 -0.75921214 -0.07209461
-10.52003956 -11.97792625 -0.26477641 -0.61853153 -0.78593504 -0.10181765
-8.41210651 -11.74711037 1.48626232 -0.49459445 -0.77078998 0.57153028
-8.93521595 -11.56047916 1.40453947 -0.52535099 -0.75854415 0.54010445
-8.18325615 -11.78310013 1.95571971 -0.48113906 -0.77315146 0.75205642
-8.72553539 -11.62528133 1.90988946 -0.51302266 -0.76279610 0.73443276
-9.50426960 -11.39679146 1.35550928 -0.55880880 -0.74780369 0.52125025
-10.04167652 -11.18004227 1.25872600 -0.59040594 -0.73358166 0.48403305
-9.28875542 -11.46465874 1.85756373 -0.54613751 -0.75225681 0.71431130
-9.80285168 -11.23700619 1.77325451 -0.57636410 -0.73731935 0.68189085
-8.33940411 -14.19026089 1.30265260 -0.49031988 -0.93109798 0.50092465
-9.32163239 -13.08739090 0.55328906 -0.54807055 -0.85873288 0.21276289
-9.50086594 -12.35171127 0.43248111 -0.55860865 -0.81046104 0.16630717
-9.49553776 -11.42642117 0.33406976 -0.55829537 -0.74974787 0.12846386
-10.05754662 -11.25872231 0.23937327 -0.59133899 -0.73874426 0.09204908
-9.27320099 -11.49865532 0.82622075 -0.54522300 -0.75448751 0.31771660
-9.81175518 -11.29988575 0.75349623 -0.57688755 -0.74144518 0.28975096
-7.44286776 -12.36153221 -0.35199070 -0.43760753 -0.81110543 -0.13535522
-6.70118904 -12.26214409 2.40104175 -0.39400011 -0.80458409 0.92330146
-7.99452877 -12.22561932 -0.44110149 -0.47004274 -0.80218750 -0.16962206
-7.14598465 -12.21555328 0.12180367 -0.42015213 -0.80152702 0.04683863
-7.65193415 -12.07088280 0.04403866 -0.44989970 -0.79203439 0.01693472
-8.55978680 -12.08088017 -0.50439870 -0.50327742 -0.79269040 -0.19396250
-9.02250385 -11.51057911 2.19960761 -0.53048313 -0.75526989 0.84584153
-8.17759705 -11.89251900 -0.00830947 -0.48080635 -0.78033102 -0.00319534
-8.71367836 -11.74424744 -0.10428662 -0.51232553 -0.77060211 -0.04010259
-7.26438427 -12.09277058 1.58284831 -0.42711350 -0.79347056 0.60867167
-7.73569345 -11.94061565 1.51735878 -0.45482439 -0.78348690 0.58348823
-9.86929607 -12.26610756 -0.19019501 -0.58027071 -0.80484414 -0.07313798
-10.51149654 -12.12075996 -0.26558849 -0.61802924 -0.79530710 -0.10212994
-8.32553959 -11.78186035 1.48380351 -0.48950469 -0.77307010 0.57058477
-8.84910870 -11.59901714 1.40222871 -0.52028823 -0.76107281 0.53921586
-8.09454727 -11.81304073 1.95196259 -0.47592339 -0.77511603 0.75061166
-8.63460350 -11.65603065 1.90570164 -0.50767630 -0.76481378 0.73282236
-9.40974522 -11.42860031 1.35190308 -0.55325115 -0.74989086 0.51986355
-9.94079494 -11.20868874 1.25446749 -0.58447456 -0.73546129 0.48239547
-9.19676495 -11.49800396 1.85327268 -0.54072887 -0.75444478 0.71266121
-9.71130657 -11.27435684 1.76918435 -0.57098162 -0.73977011 0.68032575
-8.10653877 -13.55391598 0.70349348 -0.47662842 -0.88934404 0.27052280
-8.62018394 -13.26791191 0.61624318 -0.50682849 -0.87057781 0.23697139
-7.77361202 -12.35622501 1.06521606 -0.45705381 -0.81075722 0.40962034
-9.73582554 -13.85418701 0.59051144 -0.57242322 -0.90904641 0.22707646
-9.40077209 -11.45800877 0.33292666 -0.55272359 -0.75182050 0.12802429
-9.95349312 -11.28425217 0.23812418 -0.58522111 -0.74041939 0.09156875
-9.18215656 -11.53324699 0.82426643 -0.53986996 -0.75675726 0.31696507
-9.71583462 -11.33254719 0.75123626 -0.57124788 -0.74358833 0.28888190
-7.35690498 -12.39428425 -0.35175326 -0.43255329 -0.81325448 -0.13526390
-6.64822960 -12.34914780 2.40996861 -0.39088634 -0.81029284 0.92673421
-7.90560818 -12.25714207 -0.44064492 -0.46481460 -0.80425584 -0.16944648
-7.35170364 -12.07744694 2.35586262 -0.43224749 -0.79246509 0.90592819
-7.05613899 -12.23767281 0.12132668 -0.41486961 -0.80297840 0.04665521
-7.56425285 -12.10008621 0.04375869 -0.44474444 -0.79395062 0.01682705
-8.46427441 -12.10654068 -0.50355726 -0.49766168 -0.79437411 -0.19363892
-8.92939854 -11.54048729 2.19447470 -0.52500892 -0.75723237 0.84386772
-8.08926773 -11.92378616 -0.00852487 -0.47561297 -0.78238261 -0.00327817
-8.62787724 -11.78264523 -0.10433251 -0.50728083 -0.77312160 -0.04012024
-7.17715979 -12.11936951 1.58018303 -0.42198509 -0.79521585 0.60764676
-7.63907528 -11.95553398 1.51273382 -0.44914365 -0.78446573 0.58170974
-10.02302647 -12.61946392 -0.19143194 -0.58930939 -0.82802969 -0.07361362
-10.42210579 -12.17139149 -0.26542926 -0.61277348 -0.79862928 -0.10206870
-8.23433208 -11.80946064 1.48045063 -0.48414209 -0.77488112 0.56929547
-8.75208282 -11.62264442 1.39802754 -0.51458353 -0.76262313 0.53760034
-8.00025558 -11.83412647 1.94676042 -0.47037944 -0.77649957 0.74861115
-8.53777504 -11.67811108 1.90011799 -0.50198323 -0.76626259 0.73067522
-9.31394386 -11.45812511 1.34809649 -0.54761851 -0.75182813 0.51839972
-9.85046291 -11.24848175 1.25169027 -0.57916343 -0.73807234 0.48132750
-9.10227013 -11.52753162 1.84844518 -0.53517300 -0.75638229 0.71080482
-9.61968040 -11.31100178 1.76511419 -0.56559443 -0.74217457 0.67876059
-8.73248959 -12.59050560 0.52122450 -0.51343155 -0.82612962 0.20043272
-9.22723961 -12.31353664 0.42531130 -0.54252064 -0.80795622 0.16355006
-9.45906448 -13.00258350 0.99752355 -0.55615091 -0.85316819 0.38358971
-9.30598450 -11.48885822 0.33178356 -0.54715049 -0.75384468 0.12758473
-9.86529827 -11.32699203 0.23747465 -0.58003569 -0.74322379 0.09131898
-9.62247467 -11.36749458 0.74921423 -0.56575871 -0.74588138 0.28810436
-7.27284002 -12.42989922 -0.35157523 -0.42761064 -0.81559134 -0.13519545
-7.82090950 -12.29477215 -0.44035435 -0.45983469 -0.80672497 -0.16933475
-7.26855373 -12.11157513 2.35352945 -0.42735863 -0.79470444 0.90503097
-6.97713804 -12.27828598 0.12125330 -0.41022468 -0.80564320 0.04662699
-7.48281765 -12.13887024 0.04363143 -0.43995640 -0.79649544 0.01677812
-8.38010883 -12.14795303 -0.50321084 -0.49271312 -0.79709136 -0.19350572
-8.05222797 -11.82421398 2.28130198 -0.47343519 -0.77584916 0.87725645
-8.84108257 -11.57596016 2.19054961 -0.51981634 -0.75955993 0.84235835
-7.99753952 -11.94942284 -0.00879413 -0.47021976 -0.78406477 -0.00338171
-8.53724289 -11.81395054 -0.10439677 -0.50195193 -0.77517569 -0.04014494
-7.08988810 -12.14534950 1.57751775 -0.41685390 -0.79692054 0.60662186
-7.55531406 -11.98986244 1.51088381 -0.44421887 -0.78671825 0.58099830
-10.32085514 -12.20764828 -0.26512673 -0.60682040 -0.80100828 -0.10195237
-8.14760303 -11.84293556 1.47799194 -0.47904283 -0.77707756 0.56835002
-8.66580868 -11.65986443 1.39571679 -0.50951099 -0.76506531 0.53671175
-7.92245531 -11.87921619 1.94589341 -0.46580514 -0.77945817 0.74827778
-8.45029926 -11.71227169 1.89676785 -0.49684003 -0.76850402 0.72938693
-9.22311687 -11.49311447 1.34509134 -0.54227823 -0.75412399 0.51724416
-9.76393795 -11.29209614 1.24946856 -0.57407612 -0.74093407 0.48047316
-8.97857857 -11.51877117 1.83718109 -0.52790052 -0.75580746 0.70647335
-9.52925587 -11.34845829 1.76129842 -0.56027788 -0.74463230 0.67729324
-8.34610748 -14.36320591 0.74712509 -0.49071401 -0.94244581 0.28730100
-9.21990585 -11.52991009 0.33108500 -0.54208946 -0.75653833 0.12731609
-9.76912594 -11.35998440 0.23652534 -0.57438117 -0.74538863 0.09095393
-9.53290844 -11.40630722 0.74754900 -0.56049263 -0.74842811 0.28746399
-7.18861771 -12.46494770 -0.35139716 -0.42265874 -0.81789106 -0.13512698
-7.73285580 -12.32674599 -0.43993929 -0.45465752 -0.80882293 -0.16917515
-7.20338392 -12.17565918 2.35719585 -0.42352694 -0.79890931 0.90644085
-6.89205790 -12.30791283 0.12095978 -0.40522236 -0.80758721 0.04651412
-7.39911175 -12.17369366 0.04345326 -0.43503487 -0.79878038 0.01670961
-8.28340816 -12.17058659 -0.50231993 -0.48702756 -0.79857647 -0.19316313
-7.95360470 -11.83848572 2.27427220 -0.46763659 -0.77678561 0.87455320
-8.75267506 -11.61077976 2.18662429 -0.51461840 -0.76184464 0.84084892
-7.91020679 -11.98106098 -0.00899158 -0.46508497 -0.78614074 -0.00345764
-8.44888401 -11.84783745 -0.10445184 -0.49675679 -0.77739924 -0.04016612
-7.01970243 -12.15625668 1.57436788 -0.41272730 -0.79763621 0.60541058
-7.48397970 -12.00175381 1.50764644 -0.44002473 -0.78749847 0.57975340
-10.22977924 -12.21632385 -0.26471272 -0.60146552 -0.80157757 -0.10179316
-8.07384109 -11.85489082 1.47441554 -0.47470596 -0.77786201 0.56697470
-8.59186840 -11.67496777 1.39235580 -0.50516367 -0.76605630 0.53541929
-7.84354162 -11.88170147 1.93982434 -0.46116537 -0.77962118 0.74594396
-8.37771130 -11.72781467 1.89258015 -0.49257216 -0.76952386 0.72777659
-9.14537144 -11.50681782 1.34128475 -0.53770715 -0.75502312 0.51578033
-9.69115448 -11.31532097 1.24669135 -0.56979680 -0.74245799 0.47940519
-8.93749523 -11.57822990 1.84013116 -0.52548498 -0.75970882 0.70760775
-9.44263649 -11.35362816 1.75468433 -0.55518502 -0.74497151 0.67474985
-8.01708412 -12.82083607 0.58281696 -0.47136888 -0.84124279 0.22411761
-6.96273851 -12.50817490 1.11496127 -0.40937805 -0.82072747 0.42874944
-9.48759937 -12.95391369 0.44982031 -0.55782866 -0.84997475 0.17297481
-9.22786808 -14.06291199 1.15429592 -0.54255760 -0.92274195 0.44387528
-9.77867699 -13.75565910 1.05388904 -0.57494271 -0.90258145 0.40526462
-9.13945389 -11.54028511 0.32975140 -0.53735924 -0.75721908 0.12680326
-9.69081306 -11.37700844 0.23557605 -0.56977671 -0.74650562 0.09058889
-9.45609856 -11.42345238 0.74540806 -0.55597657 -0.74955308 0.28664073
-7.12485647 -12.48999214 -0.35124877 -0.41890988 -0.81953436 -0.13506991
-7.66094112 -12.34098339 -0.43939969 -0.45042926 -0.80975711 -0.16896765
-7.08601379 -12.10743713 2.33719635 -0.41662610 -0.79443294 0.89875019
-6.82625198 -12.32624817 0.12066625 -0.40135327 -0.80879027 0.04640124
-7.33339787 -12.19472694 0.04324964 -0.43117118 -0.80016047 0.01663131
-8.21481514 -12.19288921 -0.50182503 -0.48299459 -0.80003989 -0.19297281
-7.88572884 -11.85773373 2.27075744 -0.46364579 -0.77804857 0.87320167
-8.68245983 -11.63132191 2.18269920 -0.51049000 -0.76319247 0.83933955
-7.84492636 -12.00479794 -0.00913518 -0.46124679 -0.78769821 -0.00351286
-8.37215424 -11.85814095 -0.10453445 -0.49224544 -0.77807528 -0.04019789
