9.89319706 0.25723320 1.99321723 0.57221866 0.12617664 0.73774439
11.02448845 1.41689181 1.21770680 0.63765210 0.69500613 0.45070669
12.80727673 1.21326208 1.35872281 0.74076790 0.59512275 0.50290060
12.01832294 0.64613026 1.21490276 0.69513512 0.31693631 0.44966882
11.33943558 0.20232171 1.05919647 0.65586853 0.09924175 0.39203766
15.25071621 -0.29922861 1.39718115 0.88209546 -0.14677601 0.51713508
10.56523609 1.37611353 0.42967877 0.61108911 0.67500377 0.15903589
10.74876118 1.00894845 0.37664080 0.62170416 0.49490395 0.13940509
13.34630299 1.44326198 0.96842527 0.77194494 0.70794106 0.35844076
10.94732285 0.61309922 0.33373708 0.63318884 0.30073410 0.12352525
14.31705952 0.28472975 0.38624316 0.82809311 0.13966410 0.14295919
10.47791672 0.06384908 2.67611718 0.60603863 0.03131890 0.99050438
10.34128857 0.35844454 0.59267837 0.59813607 0.17582229 0.21936652
11.13764381 -0.04092174 0.58896476 0.64419699 -0.02007271 0.21799201
9.92927837 1.44650364 2.18615460 0.57430559 0.70953113 0.80915576
9.89223194 0.63783717 1.57035017 0.57216281 0.31286845 0.58122969
9.99631882 0.11270449 1.49278307 0.57818317 0.05528320 0.55251998
10.03292465 0.85246009 2.11926794 0.58030045 0.41814411 0.78439921
9.89334393 0.31944773 1.99361861 0.57222712 0.15669377 0.73789293
10.99766541 1.48371100 1.21552610 0.63610065 0.72778189 0.44989955
12.76579475 1.29036510 1.35479152 0.73836857 0.63294291 0.50144547
12.12511253 0.72849125 1.22742021 0.70131177 0.35733560 0.45430189
10.96212482 0.26517156 1.01949465 0.63404500 0.13007052 0.37734294
12.15617085 -0.16624010 1.08544350 0.70310819 -0.08154319 0.40175241
12.15898132 0.00604295 1.50623131 0.70327073 0.00296415 0.55749750
10.59594631 1.44795251 0.43180713 0.61286539 0.71024185 0.15982366
10.75413799 1.07763720 0.37721220 0.62201512 0.52859676 0.13961658
11.34970379 1.71387970 0.86656672 0.65646243 0.84068304 0.32074010
13.27755165 1.52037787 0.96349537 0.76796842 0.74576753 0.35661605
10.93727207 0.68148679 0.33347917 0.63260752 0.33427921 0.12342978
13.90738583 0.36459097 0.37131828 0.80439776 0.17883720 0.13743508
10.51796722 0.13010640 2.68663645 0.60835510 0.06381909 0.99439782
10.32487774 0.42286927 0.59169197 0.59718686 0.20742355 0.21900143
10.54095650 0.02641193 0.55000836 0.60968482 0.01295544 0.20357318
10.03779316 1.52653575 2.21251488 0.58058202 0.74878806 0.81891245
9.89854813 0.17400683 1.47798836 0.57252812 0.08535289 0.54704404
10.01179218 0.91402757 2.11592150 0.57907814 0.44834387 0.78316057
9.86764622 0.38074458 1.98880184 0.57074082 0.18676077 0.73611009
10.95910072 1.53106678 1.21164942 0.63387012 0.75101060 0.44846469
12.72400570 1.34680045 1.35062909 0.73595148 0.66062528 0.49990487
12.21871662 0.79208249 1.23837292 0.70672578 0.38852802 0.45835578
10.95478916 0.31666487 1.01886439 0.63362074 0.15532875 0.37710965
10.34403229 -0.09573987 0.90292877 0.59829479 -0.04696180 0.33419871
11.21345615 0.05683436 1.37830341 0.64858192 0.02787808 0.51014787
10.61668301 1.50183725 0.43329701 0.61406481 0.73667312 0.16037510
10.76881313 1.13035095 0.37816450 0.62286395 0.55445361 0.13996905
10.93393993 0.73301971 0.33347917 0.63241482 0.35955685 0.12342978
13.61982822 0.42170495 0.36085621 0.78776556 0.20685244 0.13356277
15.03856754 1.23633659 1.02128506 0.86982489 0.60644114 0.37800562
10.33871555 0.47221610 0.59281927 0.59798723 0.23162889 0.21941867
10.42297077 0.07500745 0.54232132 0.60286057 0.03679225 0.20072800
9.94750881 1.56097102 2.19393301 0.57536000 0.76567906 0.81203479
9.93912792 0.22149062 1.48432899 0.57487530 0.10864438 0.54939085
10.03073120 0.96348780 2.12094116 0.58017355 0.47260484 0.78501850
9.89510632 0.42845142 1.99482274 0.57232910 0.21016167 0.73833859
10.93551731 1.59785962 1.20995331 0.63250601 0.78377348 0.44783691
12.71529293 1.42672062 1.35062909 0.73544759 0.69982731 0.49990487
12.12796497 -0.21643259 2.33490682 0.70147675 -0.10616335 0.86421305
14.90535736 1.06482553 1.54192007 0.86212003 0.52231246 0.57070690
11.01023006 0.38741100 1.02495623 0.63682741 0.19003075 0.37936440
10.16190434 -0.24374551 1.16450763 0.58776057 -0.11956073 0.43101621
10.65048981 1.57502365 0.43563822 0.61602014 0.77257210 0.16124165
10.77341366 1.19929445 0.37873590 0.62313002 0.58827144 0.14018054
10.92114830 0.80110526 0.33313534 0.63167495 0.39295381 0.12330253
13.21942997 0.49305868 0.34629712 0.76460665 0.24185248 0.12817407
15.99773884 1.41775489 1.09591210 0.92530298 0.69542944 0.40562713
10.33155918 0.53696716 0.59253746 0.59757334 0.26339024 0.21931437
10.43027592 0.14061818 0.54284245 0.60328305 0.06897527 0.20092088
9.93172073 1.62250900 2.19263649 0.57444686 0.79586434 0.81155491
9.93754005 0.28393522 1.48432899 0.57478344 0.13927437 0.54939085
9.99141121 1.02303970 2.11383009 0.57789934 0.50181592 0.78238648
9.88439083 0.49024320 1.99321723 0.57170928 0.24047144 0.73774439
11.28823471 1.72258902 1.25477827 0.65290707 0.84495509 0.46442786
11.28147316 1.33996224 1.18366814 0.65251601 0.65727103 0.43810806
10.43910027 -0.12352229 2.00482273 0.60379350 -0.06058948 0.74203986
14.18907547 1.10233271 1.46189809 0.82069057 0.54071027 0.54108858
12.29539967 0.50761825 1.16107678 0.71116108 0.24899416 0.42974636
12.29254246 0.04453190 1.09906709 0.71099585 0.02184355 0.40679488
10.13546753 -0.17934492 1.16094625 0.58623147 -0.08797130 0.42969805
10.69168758 1.64992702 0.43840510 0.61840302 0.80931330 0.16226575
10.79146385 1.26994860 0.37997389 0.62417406 0.62292832 0.14063875
10.42476845 1.75731432 0.78719908 0.60296452 0.86198831 0.29136398
10.92187405 0.87019581 0.33339322 0.63171691 0.42684373 0.12339798
13.06430721 0.56972665 0.34073687 0.75563443 0.27945924 0.12611607
10.34391689 0.60276842 0.59366477 0.59828812 0.29566672 0.21973161
10.39127636 0.20532702 0.54036701 0.60102737 0.10071590 0.20000465
16.74188232 -0.27067250 0.85947496 0.96834391 -0.13276881 0.31811526
9.77747726 1.44312418 1.63654864 0.56552547 0.70787346 0.60573155
9.98295784 1.69521713 2.20646501 0.57741040 0.83152872 0.81667322
9.97112846 0.34753573 1.48976374 0.57672614 0.17047136 0.55140245
9.88307190 0.55244392 1.99361861 0.57163298 0.27098182 0.73789293
11.21642590 1.78370619 1.24726701 0.64875370 0.87493390 0.46164772
11.09538364 1.38893354 1.16285586 0.64175266 0.68129218 0.43040484
9.76835918 -0.05551223 1.87370896 0.56499809 -0.02722956 0.69351107
14.07097530 1.18198681 1.44938064 0.81385970 0.57978177 0.53645551
12.10917759 0.57646745 1.14175105 0.70039010 0.28276572 0.42259338
12.28804111 0.12172084 1.09866631 0.71073550 0.05970585 0.40664655
11.15000248 -0.12925825 1.29093766 0.64491177 -0.06340306 0.47781143
10.82094765 1.34233034 0.38178331 0.62587935 0.65843260 0.14130847
10.94206715 0.94107610 0.33451074 0.63288486 0.46161157 0.12381160
12.94268608 0.64610583 0.33642036 0.74859989 0.31692433 0.12451840
13.36016178 1.35006142 0.89363754 0.77274650 0.66222483 0.33075976
10.32598782 0.66687620 0.59267837 0.59725112 0.32711250 0.21936652
10.38778591 0.27055699 0.54023671 0.60082549 0.13271216 0.19995642
12.92825222 -0.12313697 0.63217372 0.74776506 -0.06040048 0.23398483
9.96318245 1.53414762 1.66988099 0.57626659 0.75252181 0.61806875
9.93911457 0.40902010 1.48523474 0.57487452 0.20063032 0.54972613
10.01661587 1.15306306 2.12219596 0.57935715 0.56559426 0.78548294
9.87158298 0.61405927 1.99201298 0.57096851 0.30120504 0.73729867
11.02733517 1.45095336 1.15591848 0.63781673 0.71171379 0.42783713
9.88236332 0.00617026 1.89594460 0.57159203 0.00302660 0.70174110
12.89161396 1.16283286 1.31705379 0.74564588 0.57038647 0.48747772
12.07353687 0.65088016 1.13839006 0.69832867 0.31926623 0.42134938
12.30295086 0.19921000 1.10026908 0.71159786 0.09771542 0.40723976
10.12501907 -0.05188317 1.15941989 0.58562714 -0.02544945 0.42913312
10.86381721 1.41691530 0.38425931 0.62835896 0.69501764 0.14222491
10.93593788 1.00980806 0.33451074 0.63253039 0.49532560 0.12381160
12.88847923 0.72468740 0.33459130 0.74546462 0.35546973 0.12384142
13.31771469 1.43030739 0.89103252 0.77029139 0.70158666 0.32979557
10.34149647 0.73311442 0.59408754 0.59814811 0.35960332 0.21988809
10.38189220 0.33568278 0.53997612 0.60048461 0.16465731 0.19985998
11.33162117 -0.03421531 0.53701884 0.65541655 -0.01678311 0.19876540
9.97282410 1.59980178 1.67321432 0.57682425 0.78472614 0.61930251
9.90129662 1.80976546 2.19306874 0.57268715 0.88771635 0.81171489
9.92844772 0.47110224 1.48402703 0.57425755 0.23108253 0.54927909
9.86557484 0.67594182 1.99161160 0.57062101 0.33155933 0.73715007
11.06918049 1.52717721 1.16193092 0.64023709 0.74910271 0.43006250
9.91157150 0.06852642 1.90169525 0.57328141 0.03361321 0.70386958
12.85240555 1.24070442 1.31347740 0.74337810 0.60858363 0.48615402
12.04736805 0.72544885 1.13607943 0.69681507 0.35584325 0.42049417
12.28554058 0.27612323 1.09866631 0.71059084 0.13544248 0.40664655
13.68606949 -0.18917423 1.13412106 0.79159689 -0.09279273 0.41976932
12.21403980 0.00995983 1.42728889 0.70645529 0.00488544 0.52827877
10.89825630 1.49102318 0.38635442 0.63035089 0.73136866 0.14300036
11.30184364 1.71269083 0.80409449 0.65369421 0.84009987 0.29761744
10.92937756 1.07850027 0.33451074 0.63215095 0.52902013 0.12381160
12.77993393 0.79933029 0.33078691 0.73918641 0.39208317 0.12243331
10.33469677 0.79792738 0.59394658 0.59775484 0.39139503 0.21983592
10.37359524 0.40066430 0.53958523 0.60000467 0.19653168 0.19971530
10.46115685 0.03570495 0.48515946 0.60506922 0.01751380 0.17957082
9.97814178 1.66499615 1.67588091 0.57713181 0.81670493 0.62028950
10.02984715 1.89816952 2.22461462 0.58012241 0.93107986 0.82339090
9.96083164 0.53531212 1.48946178 0.57613063 0.26257840 0.55129063
9.87872028 0.73919499 1.99522412 0.57138133 0.36258593 0.73848718
10.19806290 1.81764948 1.12539172 0.58985198 0.89158362 0.41653836
11.25997066 1.62528598 1.18551815 0.65127230 0.79722649 0.43879279
9.88543034 0.13041180 1.89671135 0.57176942 0.06396890 0.70202488
12.78703117 1.31544459 1.30699515 0.73959690 0.64524478 0.48375475
12.31647015 0.81888735 1.16506803 0.71237981 0.40167621 0.43122363
11.01456833 0.31470767 0.97084594 0.63707834 0.15436870 0.35933670
10.42518806 -0.07374287 0.83084804 0.60298878 -0.03617195 0.30751964
11.23377514 0.08137757 1.30162191 0.64975715 0.03991689 0.48176599
10.99746609 1.57484519 0.39159214 0.63608915 0.77248454 0.14493899
10.96013451 1.15118527 0.33614406 0.63392991 0.56467319 0.12441614
12.71882248 0.87585711 0.32873842 0.73565173 0.42962071 0.12167510
10.34140968 0.86381906 0.59479207 0.59814310 0.42371586 0.22014886
10.66334629 -0.03937333 2.61918020 0.61676377 -0.01931319 0.96943045
10.35492516 0.46508750 0.53854293 0.59892482 0.22813220 0.19932951
10.48867512 0.10164987 0.48682466 0.60666084 0.04986074 0.18018717
9.99469566 1.73231769 1.68054748 0.57808930 0.84972709 0.62201673
9.94542980 0.59720004 1.48765028 0.57523978 0.29293534 0.55062020
9.89145947 0.80264002 1.99883664 0.57211816 0.39370665 0.73982424
11.17160702 1.66645730 1.17603695 0.64616138 0.81742162 0.43528354
9.89451885 0.17719008 1.89862823 0.57229507 0.08691432 0.70273441
12.73722458 1.37093902 1.30207753 0.73671609 0.67246562 0.48193461
15.00297260 1.06408536 1.44991291 0.86776608 0.52194941 0.53665251
10.90199661 0.13095325 1.25913942 0.63056719 0.06423448 0.46604204
10.96848869 1.20437300 0.33674580 0.63441306 0.59076256 0.12463886
12.95178032 0.95286250 0.33744460 0.74912590 0.46739298 0.12489750
10.33523655 0.91237050 0.59465116 0.59778601 0.44753104 0.22009671
9.89485836 0.00862695 2.42791414 0.57231474 0.00423165 0.89863759
10.36059093 0.51428998 0.53906411 0.59925252 0.25226673 0.19952241
10.48808002 0.15107527 0.48682466 0.60662645 0.07410463 0.18018717
9.94053173 0.64393622 1.48734832 0.57495648 0.31586012 0.55050838
9.88756752 0.84924334 1.99883664 0.57189304 0.41656625 0.73982424
11.29247093 1.75684440 1.19153059 0.65315211 0.86175781 0.44101816
9.86966324 0.23873715 1.89402771 0.57085747 0.11710406 0.70103163
12.72836018 1.45094180 1.30207753 0.73620337 0.71170813 0.48193461
14.27409267 1.10355079 1.37345016 0.82560796 0.54130775 0.50835156
12.32466602 0.49024490 1.10327435 0.71285385 0.24047227 0.40835211
12.29131794 0.04456861 1.00433207 0.71092504 0.02186155 0.37173083
10.90492535 0.19951466 1.25964820 0.63073659 0.09786485 0.46623036
11.00634575 1.27865303 0.33872297 0.63660276 0.62719798 0.12537067
13.12486839 1.04826570 0.34402913 0.75913727 0.51418960 0.12733461
10.33923244 0.97821039 0.59535575 0.59801716 0.47982648 0.22035749
9.94894981 0.07129812 2.44143820 0.57544339 0.03497277 0.90364325
10.36113930 0.57960767 0.53932470 0.59928423 0.28430602 0.19961886
10.44500542 0.21618445 0.48432684 0.60413504 0.10604163 0.17926265
9.95206833 0.70747066 1.48976374 0.57562375 0.34702468 0.55140245
9.99129105 1.45345044 2.12512398 0.57789236 0.71293867 0.78656667
9.90935612 0.91381460 2.00445604 0.57315326 0.44823942 0.74190414
9.71723270 1.90482342 1.06966341 0.56204093 0.93434370 0.39591175
9.88562584 0.30131948 1.89747810 0.57178074 0.14780161 0.70230871
11.24724674 1.35137379 1.13532782 0.65053636 0.66286856 0.42021596
14.24308968 1.19125974 1.37092936 0.82381475 0.58433032 0.50741857
12.32531738 0.56786257 1.10367501 0.71289152 0.27854487 0.40850040
12.28083897 0.12171366 1.00340629 0.71031892 0.05970233 0.37138820
11.77694416 0.70907462 1.45742023 0.68117386 0.34781146 0.53943121
11.03038406 0.27091125 1.27592885 0.63799310 0.13288592 0.47225627
11.08534050 1.35863650 0.34250540 0.64117175 0.66643101 0.12677065
12.54645061 1.08233297 0.32303184 0.72568178 0.53090012 0.11956295
12.17491531 1.67472374 0.80613852 0.70419234 0.82147646 0.29837397
10.35075092 1.04492247 0.59662396 0.59868336 0.51254970 0.22082689
9.93860245 0.13365705 2.43902302 0.57484490 0.06556074 0.90274930
10.36127663 0.64495254 0.53958523 0.59929216 0.31635863 0.19971530
10.45541573 0.28210744 0.48504052 0.60473716 0.13837782 0.17952681
9.94939804 0.77013552 1.49006569 0.57546932 0.37776271 0.55151421
10.00709057 1.52006721 2.13056183 0.57880622 0.74561518 0.78857934
9.90341854 0.97605848 2.00445604 0.57280988 0.47877094 0.74190414
9.70118237 1.96504426 1.06917882 0.56111258 0.96388292 0.39573240
9.85803890 0.36243623 1.89249432 0.57018512 0.17778027 0.70046407
12.21002388 -0.20963483 2.23859191 0.70622301 -0.10282894 0.82856429
11.01577759 1.39342332 1.11006939 0.63714826 0.68349451 0.41086712
13.71427155 1.23459685 1.31568289 0.79322809 0.60558778 0.48697034
12.14640427 1.26905596 1.58240795 0.70254326 0.62249047 0.58569258
12.09697056 0.63316274 1.08103597 0.69968402 0.31057557 0.40012106
12.29974365 0.19916303 1.00525784 0.71141237 0.09769238 0.37207350
11.78412056 0.78386658 1.45902932 0.68158895 0.38449800 0.54002678
11.04631042 0.34072900 1.27821839 0.63891429 0.16713254 0.47310367
11.19942474 1.44432735 0.34783515 0.64777035 0.70846367 0.12874334
10.35191727 1.11077297 0.59718764 0.59875083 0.54485035 0.22103553
9.93562603 0.19605781 2.43854022 0.57467270 0.09616922 0.90257061
10.36498260 0.71060282 0.54010642 0.59950656 0.34856105 0.19990820
10.42949104 0.34704468 0.48361319 0.60323769 0.17023048 0.17899850
9.93253994 0.83166814 1.48825407 0.57449424 0.40794536 0.55084366
9.99154854 1.58198404 2.12930703 0.57790726 0.77598625 0.78811491
9.90098858 1.03866470 2.00525904 0.57266933 0.50948018 0.74220139
9.72360706 2.03334546 1.07354009 0.56240964 0.99738562 0.39734665
10.30797672 1.80503345 1.07937539 0.59620935 0.88539523 0.39950645
9.86144924 0.42463401 1.89364445 0.57038236 0.20828918 0.70088977
9.85376549 -0.10332803 1.79984248 0.56993794 -0.05068390 0.66617107
10.99498653 1.46101701 1.10872829 0.63594574 0.71665019 0.41037074
12.85878277 1.24034262 1.22577608 0.74374694 0.60840619 0.45369336
11.06720352 1.22844982 1.43053257 0.64012271 0.60257256 0.52947932
12.06891727 0.70771927 1.07863176 0.69806147 0.34714663 0.39923120
14.43457031 0.32092670 1.20392203 0.83488989 0.15741923 0.44560456
11.74536324 0.85538709 1.45447004 0.67934722 0.41957986 0.53833926
11.08161926 0.41145724 1.28305173 0.64095652 0.20182578 0.47489265
11.29900742 1.52960372 0.35256317 0.65353018 0.75029296 0.13049330
11.34264183 1.70436049 0.74315757 0.65605396 0.83601367 0.27506301
10.35861206 1.17734373 0.59817404 0.59913808 0.57750428 0.22140062
9.92837811 0.25831756 2.43709111 0.57425350 0.12670854 0.90203428
10.35832405 0.77556056 0.53997612 0.59912139 0.38042378 0.19985998
10.44505978 0.41324323 0.48468366 0.60413820 0.20270184 0.17939472
9.94878292 0.89596587 1.49157536 0.57543373 0.43948433 0.55207294
10.03542709 1.65374327 2.14101934 0.58044517 0.81118524 0.79245001
9.90205765 1.10170424 2.00686455 0.57273114 0.54040200 0.74279559
9.85541821 0.47090465 1.89287770 0.57003355 0.23098561 0.70060593
9.94262123 -0.05758572 1.81630933 0.57507730 -0.02824663 0.67226589
11.28520775 1.55429077 1.14248061 0.65273201 0.76240230 0.42286342
12.82112885 1.29776943 1.22241509 0.74156910 0.63657486 0.45244935
11.06129169 1.28058898 1.43053257 0.63978076 0.62814760 0.52947932
12.23423672 0.77556580 1.09566116 0.70762348 0.38042635 0.40553424
13.74011230 0.37125126 1.13949037 0.79472274 0.18210416 0.42175663
14.63762665 1.14042521 1.84764063 0.84663457 0.55939519 0.68386245
11.05378914 0.46264234 1.27974474 0.63934684 0.22693282 0.47366863
10.37871075 1.22914433 0.60000587 0.60030055 0.60291326 0.22207862
9.92705059 0.30510089 2.43709111 0.57417673 0.14965644 0.90203428
10.36052132 0.82485104 0.54036701 0.59924847 0.40460148 0.20000465
10.43102837 0.46195298 0.48397002 0.60332662 0.22659469 0.17913058
9.96216774 0.94448173 1.49429274 0.57620788 0.46328208 0.55307871
10.02366734 1.70035362 2.14018273 0.57976502 0.83404827 0.79214031
9.91038322 1.14990723 2.00967431 0.57321268 0.56404626 0.74383557
9.84442520 0.53237820 1.89134419 0.56939769 0.26113927 0.70003837
9.90346146 0.00494745 1.80899072 0.57281232 0.00242680 0.66955709
11.24965286 1.62143505 1.13957477 0.65067554 0.79533756 0.42178789
12.79294300 1.37620473 1.22031450 0.73993880 0.67504853 0.45167187
10.06412983 1.59710670 1.34880602 0.58210534 0.78340417 0.49923012
11.00387096 1.34415030 1.42355299 0.63645959 0.65932536 0.52689600
15.02781868 1.05216694 1.37814832 0.86920315 0.51610327 0.51009047
13.01300240 0.43451601 1.07209635 0.75266695 0.21313645 0.39681226
12.53500557 1.05296326 1.56308818 0.72501981 0.51649386 0.57854182
11.08237076 0.53355396 1.28381491 0.64099997 0.26171601 0.47517511
10.35890198 1.29287159 0.59916043 0.59915483 0.63417238 0.22176571
9.91911888 0.36724061 2.43564224 0.57371795 0.18013687 0.90149802
10.37501526 0.89167923 0.54166985 0.60008681 0.43738168 0.20048687
10.43589687 0.52787143 0.48444578 0.60360819 0.25892866 0.17930667
9.89898109 1.00140274 1.48553669 0.57255322 0.49120265 0.54983789
10.02048779 1.76467240 2.14185596 0.57958108 0.86559755 0.79275966
9.91852474 1.21402550 2.01288533 0.57368356 0.59549725 0.74502409
9.84676361 0.59458870 1.89249432 0.56953293 0.29165444 0.70046407
9.89733696 0.06714433 1.80789292 0.57245809 0.03293528 0.66915077
11.30408096 1.70196640 1.14695108 0.65382361 0.83483934 0.42451805
12.89077568 1.46854711 1.23165786 0.74559742 0.72034377 0.45587036
10.04804039 1.65933049 1.34793901 0.58117473 0.81392580 0.49890921
10.86357212 1.39658833 1.40484774 0.62834477 0.68504697 0.51997268
14.34438038 1.09400880 1.30983055 0.82967335 0.53662729 0.48480421
12.56625271 0.49935463 1.03080833 0.72682714 0.24494074 0.38153043
12.44919777 1.12444174 1.55236042 0.72005671 0.55155510 0.57457119
11.76819324 0.63944167 1.37234139 0.68066770 0.31365547 0.50794119
10.40715027 1.74652278 0.67266792 0.60194552 0.85669494 0.24897285
10.36046696 1.35921085 0.59986496 0.59924537 0.66671276 0.22202647
9.93406582 0.43034831 2.43998909 0.57458246 0.21109213 0.90310687
10.67869759 -0.11793903 2.50699902 0.61765170 -0.05785082 0.92790908
10.36920738 0.95684934 0.54166985 0.59975088 0.46934858 0.20048687
10.41642666 0.59255522 0.48349425 0.60248202 0.29065698 0.17895448
9.96130943 1.07083607 1.49610436 0.57615823 0.52526075 0.55374926
10.09574795 1.84357929 2.16067934 0.58393413 0.90430254 0.79972667
9.90875721 1.27607477 2.01248407 0.57311863 0.62593329 0.74487555
9.84283352 0.65644562 1.89249432 0.56930566 0.32199615 0.70046407
9.88295650 0.12917784 1.80533147 0.57162637 0.06336362 0.66820270
11.28334999 1.77139938 1.14583349 0.65262455 0.86889726 0.42410439
11.26173496 1.35726821 1.05940652 0.65137434 0.66575986 0.39211541
10.07251358 1.72852588 1.35314107 0.58259022 0.84786719 0.50083464
10.93310738 1.47526658 1.41601503 0.63236666 0.72363979 0.52410603
10.29596233 0.84459317 0.90152639 0.59551442 0.41428527 0.33367965
12.31816483 0.56743264 1.00803506 0.71247780 0.27833399 0.37310141
12.39257622 1.19779229 1.54565561 0.71678174 0.58753461 0.57208955
11.90652657 0.72176969 1.39065719 0.68866885 0.35403857 0.51472038
10.38928413 1.42937398 0.60254234 0.60091215 0.70112878 0.22301745
9.93891811 0.49315754 2.44192100 0.57486314 0.24190097 0.90382195
9.95351124 -0.04600382 2.33428955 0.57570720 -0.02256555 0.86398458
10.38284779 1.02397907 0.54297274 0.60053986 0.50227666 0.20096910
10.43840313 0.65957773 0.48504052 0.60375315 0.32353249 0.17952681
9.97992802 1.13625908 1.50002944 0.57723510 0.55735165 0.55520207
10.06859779 1.90403819 2.15733290 0.58236378 0.93395853 0.79848808
9.92385006 1.34140980 2.01730061 0.57399160 0.65798110 0.74665827
9.85221577 0.71930534 1.89517784 0.56984830 0.35282975 0.70145732
9.87998390 0.19123732 1.80496550 0.57145441 0.09380469 0.66806722
11.01615715 1.39837861 1.03419900 0.63717020 0.68592513 0.38278541
9.99912834 1.78055167 1.34389293 0.57834566 0.87338656 0.49741164
10.87262535 1.53681970 1.40875626 0.62886840 0.75383252 0.52141935
10.32810783 0.91266948 0.90533292 0.59737372 0.44767770 0.33508855
12.21134281 1.25747991 1.52205467 0.70629930 0.61681223 0.56335419
12.02052975 0.80431175 1.40592039 0.69526273 0.39452666 0.52036971
10.38207340 1.49490368 0.60268325 0.60049504 0.73327208 0.22306959
9.93174839 0.55537081 2.44095516 0.57444847 0.27241749 0.90346444
9.93025589 0.01654535 2.32873321 0.57436210 0.00811574 0.86192805
10.37620926 1.08919585 0.54297274 0.60015589 0.53426647 0.20096910
10.43604469 0.72528529 0.48515946 0.60361671 0.35576302 0.17957082
9.94706726 1.19592571 1.49610436 0.57533449 0.58661902 0.55374926
9.91522598 1.40373635 2.01730061 0.57349277 0.68855315 0.74665827
9.84750175 0.78119403 1.89517784 0.56957567 0.38318709 0.70145732
9.87269020 0.25317183 1.80386770 0.57103252 0.12418448 0.66766089
11.00123787 1.46678936 1.03356886 0.63630730 0.71948159 0.38255218
10.90586758 1.61139250 1.41489828 0.63079113 0.79041153 0.52369267
12.85747051 1.22266483 1.16177523 0.74367106 0.59973496 0.43000486
12.02773952 0.70608294 0.98174393 0.69567972 0.34634399 0.36337036
12.16774368 1.33024466 1.51722717 0.70377755 0.65250444 0.56156737
12.11615276 0.88704079 1.41889417 0.70079350 0.43510646 0.52517164
10.40010357 1.56420684 0.60465604 0.60153794 0.76726627 0.22379978
9.93387318 0.61813593 2.44240403 0.57457131 0.30320469 0.90400070
9.91049957 0.07882343 2.32410288 0.57321942 0.03866404 0.86021423
10.37907600 1.15549302 0.54362422 0.60032171 0.56678617 0.20121023
10.43327236 0.79098916 0.48527840 0.60345638 0.38799173 0.17961484
9.99036598 1.26475406 1.50395465 0.57783884 0.62038034 0.55665487
9.93529224 1.47025084 2.02332163 0.57465339 0.72117949 0.74888682
9.86131287 0.82910669 1.89862823 0.57037449 0.40668893 0.70273441
9.88121510 0.29997090 1.80569744 0.57152563 0.14714010 0.66833812
11.25236893 1.55379307 1.06108701 0.65083259 0.76215816 0.39273742
11.21344090 1.71027660 1.45984674 0.64858103 0.83891565 0.54032934
12.78425407 1.27641213 1.15496349 0.73943627 0.62609881 0.42748368
11.09425831 1.26402187 1.37186670 0.64168757 0.62002116 0.50776547
10.42022514 1.61742949 0.60662884 0.60270172 0.79337275 0.22452997
9.92891407 0.66480756 2.44192100 0.57428449 0.32609782 0.90382195
9.88472652 0.12525606 2.31808352 0.57172871 0.06143993 0.85798627
10.40324593 1.20790064 0.54557854 0.60171968 0.59249288 0.20193358
10.43340969 0.84045875 0.48551628 0.60346431 0.41225728 0.17970289
9.97841358 1.31105757 1.50304878 0.57714754 0.64309287 0.55631959
9.93406582 1.51792943 2.02452564 0.57458246 0.74456656 0.74933249
9.85004520 0.89050812 1.89747810 0.56972277 0.43680725 0.70230871
9.88109970 0.36211804 1.80606329 0.57151896 0.17762418 0.66847354
11.24829102 1.62530541 1.06171715 0.65059674 0.79723603 0.39297065
9.75332832 1.91076088 1.31210220 0.56412870 0.93725610 0.48564503
11.13986874 1.77086210 1.45091283 0.64432567 0.86863369 0.53702265
12.86303520 1.36609602 1.16377866 0.74399292 0.67009002 0.43074641
15.85777855 1.09949958 1.33945060 0.91720772 0.53932059 0.49576741
11.04084873 1.32817662 1.36569834 0.63859838 0.65149003 0.50548244
12.47339344 1.05057895 1.46621001 0.72145617 0.51532429 0.54268456
10.43743801 1.68727350 0.60860163 0.60369730 0.82763231 0.22526015
9.92454052 0.72717923 2.44192100 0.57403153 0.35669202 0.90382195
9.87012672 0.18713063 2.31484222 0.57088429 0.09179030 0.85678661
10.39545059 1.27324188 0.54557854 0.60126877 0.62454373 0.20193358
10.43588066 0.90667254 0.48599204 0.60360724 0.44473612 0.17987898
9.95142937 1.58457530 2.03014517 0.57558680 0.77725732 0.75141239
9.85206890 0.95315188 1.89901161 0.56983984 0.46753490 0.70287627
9.88845253 0.42459685 1.80789292 0.57194424 0.20827095 0.66915077
11.30474186 1.70591938 1.06885934 0.65386182 0.83677834 0.39561415
9.72561932 1.96883166 1.30979013 0.56252599 0.96574068 0.48478925
10.84903622 1.79510701 1.41098976 0.62750399 0.88052619 0.52224600
13.02027416 1.46584773 1.18060768 0.75308758 0.71901971 0.43697527
10.99100494 1.39221561 1.36006629 0.63571543 0.68290210 0.50339782
12.44283485 1.12682188 1.46315742 0.71968871 0.55272257 0.54155469
10.47779942 1.76132107 0.61226541 0.60603184 0.86395371 0.22661622
9.91977596 0.78952217 2.44192100 0.57375598 0.38727215 0.90382195
9.88042641 0.24941294 2.31762052 0.57147998 0.12234069 0.85781491
10.41692924 1.34241652 0.54753286 0.60251111 0.65847492 0.20265692
10.43196583 0.97240621 0.48611099 0.60338080 0.47697943 0.17992301
9.99638367 1.44135094 1.50848353 0.57818693 0.70700365 0.55833113
9.95094490 1.64865208 2.03215218 0.57555878 0.80868793 0.75215524
9.87126350 1.01770401 1.90399551 0.57095003 0.49919868 0.70472097
9.87773323 0.48634839 1.80642927 0.57132423 0.23856099 0.66860902
9.72080231 2.03153539 1.31094611 0.56224740 0.99649775 0.48521712
13.08390522 1.55643713 1.18802047 0.75676793 0.76345515 0.43971896
10.94079399 1.45568085 1.35443425 0.63281125 0.71403271 0.50131327
12.74555492 1.23451340 1.50309610 0.73719794 0.60554683 0.55633712
9.95328617 0.85523576 2.45158100 0.57569420 0.41950563 0.90739739
9.89227867 0.31188938 2.32086182 0.57216555 0.15298629 0.85901463
10.40828896 1.40784109 0.54753286 0.60201138 0.69056660 0.20265692
10.43558598 1.03890216 0.48670572 0.60359019 0.50959671 0.18014313
10.02037621 1.50906980 1.51361644 0.57957464 0.74022079 0.56023097
9.97129536 1.71639860 2.03857446 0.57673579 0.84191859 0.75453234
9.86077213 1.07927144 1.90322876 0.57034320 0.52939838 0.70443714
9.85288525 0.54724711 1.80240405 0.56988704 0.26843271 0.66711915
10.20933437 1.82252455 1.32276797 0.59050393 0.89397490 0.48959270
10.94320583 1.52605879 1.35604334 0.63295072 0.74855411 0.50190884
12.26783085 1.26684833 1.44255209 0.70956653 0.62140757 0.53392810
9.95930958 0.91885018 2.45447898 0.57604259 0.45070943 0.90846997
9.89790154 0.37431598 2.32271385 0.57249075 0.18360744 0.85970008
10.42294312 1.47661519 0.54909635 0.60285896 0.72430128 0.20323561
10.43480968 1.10506916 0.48706254 0.60354531 0.54205257 0.18027520
9.88888645 1.14534354 1.91012943 0.57196933 0.56180775 0.70699131
9.87084198 0.61043400 1.80642927 0.57092565 0.29942679 0.66860902
11.05728722 1.45333827 0.98426908 0.63954914 0.71288365 0.36430499
10.89810944 1.58957231 1.35121584 0.63034236 0.77970845 0.50012207
12.51602745 1.37158251 1.47562230 0.72392213 0.67278123 0.54616827
9.98809814 0.98490644 2.46317291 0.57770771 0.48311099 0.91168785
9.90507317 0.43690729 2.32502890 0.57290554 0.21430941 0.86055696
10.43911743 1.54592502 0.55079007 0.60379446 0.75829881 0.20386252
10.45345783 1.17345619 0.48860881 0.60462391 0.57559741 0.18084753
10.01253986 1.85320318 2.05182028 0.57912141 0.90902323 0.75943494
9.87370300 1.20648599 1.90859592 0.57109112 0.59179896 0.70642370
9.85504055 0.67166394 1.80423367 0.57001168 0.32946098 0.66779637
10.27282143 1.81713164 0.96319783 0.59417599 0.89132959 0.35650593
11.18983555 1.54260623 0.99869394 0.64721572 0.75667089 0.36964402
12.75188065 1.29166102 1.05321121 0.73756379 0.63357860 0.38982236
11.19739628 1.70572948 1.39359033 0.64765304 0.83668524 0.51580602
11.09007072 1.28820419 1.29271841 0.64144534 0.63188297 0.47847053
9.99329185 1.04888260 2.46607089 0.57800812 0.51449221 0.91276050
9.88852882 0.49847591 2.32178783 0.57194865 0.24450971 0.85935736
10.45877457 1.61611342 0.55274445 0.60493141 0.79272723 0.20458588
10.45380974 1.24003899 0.48908460 0.60464424 0.60825723 0.18102363
9.90100288 1.25727224 1.91511333 0.57267010 0.61671036 0.70883596
9.86745644 0.71920830 1.80716109 0.57072979 0.35278216 0.66887987
9.71558380 1.90909684 1.25660157 0.56194556 0.93643987 0.46510270
12.08446598 1.72566271 1.09045219 0.69896078 0.84646273 0.40360627
11.28122997 1.77310395 1.40619540 0.65250194 0.86973339 0.52047151
11.06811905 1.33857369 1.29068327 0.64017570 0.65658993 0.47771728
10.01138306 1.09855020 2.47186685 0.57905447 0.53885490 0.91490573
9.87052727 0.54424381 2.31808352 0.57090741 0.26695955 0.85798627
10.47665596 1.66951311 0.55443817 0.60596567 0.81892055 0.20521277
10.47559738 1.29265702 0.49074981 0.60590446 0.63406712 0.18163997
10.01905727 1.75112212 1.51935315 0.57949835 0.85895097 0.56235427
9.89485264 1.31972027 1.91549671 0.57231438 0.64734209 0.70897788
9.87450504 0.78210008 1.80935669 0.57113749 0.38363150 0.66969252
10.49859047 1.97585690 0.98966575 0.60723436 0.96918666 0.36630243
9.71116352 1.97166383 1.25771832 0.56168991 0.96712989 0.46551606
13.05161572 1.46666610 1.08264983 0.75490034 0.71942115 0.40071839
11.02406025 1.40364456 1.28610432 0.63762730 0.68850815 0.47602248
10.01006603 1.16211462 2.47331572 0.57897830 0.57003421 0.91544199
9.86302757 0.60602039 2.31715751 0.57047367 0.29726183 0.85764354
10.50926113 1.74257147 0.55730456 0.60785156 0.85475677 0.20627370
10.46330738 1.35794497 0.49051192 0.60519361 0.66609180 0.18155192
10.01758766 1.81578231 1.52086282 0.57941335 0.89066774 0.56291306
9.91357422 1.38572454 1.92086387 0.57339728 0.67971814 0.71096438
9.87331486 0.84445465 1.81008852 0.57106864 0.41421732 0.66996342
9.72767067 2.03867531 1.26190615 0.56264466 1.00000000 0.46706608
11.28338814 1.75489056 1.01111531 0.65262675 0.86079943 0.37424150
13.04609871 1.54910576 1.08302009 0.75458127 0.75985897 0.40085545
10.99732208 1.47054875 1.28381491 0.63608080 0.72132564 0.47517511
9.87455750 0.66899949 2.32086182 0.57114053 0.32815403 0.85901463
10.48622894 1.42790973 0.49241501 0.60651940 0.70041054 0.18225630
9.91243839 1.44913721 1.92239738 0.57333153 0.71082294 0.71153200
9.87956429 0.90752852 1.81228411 0.57143015 0.44515598 0.67077607
10.92301846 1.53065228 1.27542019 0.63178313 0.75080729 0.47206798
9.87209988 0.73116922 2.32132483 0.57099837 0.35864916 0.85918599
10.49681950 1.49654794 0.49360445 0.60713196 0.73407859 0.18269655
9.93223476 1.51589119 1.92814803 0.57447660 0.74356675 0.71366048
9.88149643 0.97033793 1.81374788 0.57154191 0.47596490 0.67131782
10.93478203 1.60237718 1.27821839 0.63246351 0.78598940 0.47310367
9.87506962 0.79379028 2.32317686 0.57117015 0.38936573 0.85987145
10.50301170 1.56479478 0.49455598 0.60749006 0.76755470 0.18304874
9.92251492 1.57826686 1.92814803 0.57391441 0.77416295 0.71366048
9.88694000 1.03360832 1.81594336 0.57185674 0.50699997 0.67213047
10.27439880 1.79513490 0.91154367 0.59426719 0.88053989 0.33738732
12.15625763 1.67771876 1.00248063 0.70311320 0.82294554 0.37104559
11.28345203 1.72528136 1.32477117 0.65263045 0.84627569 0.49033415
9.87376499 0.85614932 2.32410288 0.57109469 0.41995373 0.86021423
10.52059937 1.63499522 0.49622121 0.60850734 0.80198902 0.18366508
9.94982243 1.63079309 1.93504870 0.57549381 0.79992783 0.71621460
9.88391495 1.08039737 1.81630933 0.57168180 0.52995068 0.67226589
10.48511314 1.88335276 0.93398231 0.60645485 0.92381203 0.34569249
12.10286331 1.72858441 0.99822217 0.70002490 0.84789586 0.36946940
11.24579525 1.77385020 1.32095528 0.65045238 0.87009943 0.48892179
10.87896919 1.59516501 2.70177221 0.62923533 0.78245175 1.00000000
9.88318634 0.90388131 2.32734418 0.57163966 0.44336697 0.86141390
10.58573818 1.69610226 0.50062209 0.61227494 0.83196294 0.18529397
9.94131374 1.69361055 1.93543208 0.57500172 0.83074069 0.71635652
9.88669968 1.14358783 1.81813896 0.57184285 0.56094652 0.67294312
10.51023006 1.95618391 0.93778890 0.60790759 0.95953679 0.34710139
11.33328152 1.69268668 0.92694002 0.65551257 0.83028752 0.34308591
10.66926861 1.63258159 2.65154076 0.61710632 0.80080509 0.98140794
9.88699627 0.96688795 2.32965922 0.57186002 0.47427267 0.86227077
9.97491837 1.76399100 1.94424963 0.57694536 0.86526334 0.71962011
9.89298439 1.20732427 1.82070053 0.57220632 0.59221017 0.67389119
10.53875065 2.03016520 0.94199616 0.60955721 0.99582565 0.34865862
11.23385239 1.75022507 0.91860837 0.64976162 0.85851097 0.34000215
10.49593925 1.67330229 2.61048627 0.60708100 0.82077920 0.96621257
9.87104797 1.02800238 2.32734418 0.57093757 0.50425017 0.86141390
10.01767826 1.83664954 1.95498407 0.57941860 0.90090340 0.72359324
9.90276051 1.27167761 1.82399380 0.57277179 0.62377644 0.67511016
10.21188450 1.81049645 1.19096386 0.59065139 0.88807493 0.44080839
10.56560802 1.75270927 2.63077211 0.61111063 0.85972947 0.97372091
9.88373661 1.09210062 2.33197427 0.57167149 0.53569132 0.86312765
9.89262581 1.33361423 1.82362795 0.57218558 0.65415722 0.67497474
10.54673862 1.81772685 2.62883997 0.61001921 0.89162153 0.97300577
9.88054562 1.15462375 2.33290052 0.57148689 0.56635982 0.86347049
9.92300034 1.40116394 1.83094656 0.57394248 0.68729138 0.67768353
10.33944225 1.81269729 0.83751339 0.59802932 0.88915449 0.30998668
9.89820671 1.21972418 2.33891988 0.57250839 0.59829253 0.86569840
9.91823387 1.44818938 1.83131242 0.57366675 0.71035802 0.67781895
9.71745968 1.89751053 1.13067424 0.56205404 0.93075663 0.41849354
9.89427948 1.26659775 2.33938289 0.57228124 0.62128466 0.86586976
9.93810463 1.51486385 1.83680141 0.57481611 0.74306285 0.67985058
9.70145512 1.95775247 1.13016546 0.56112838 0.96030617 0.41830525
9.90348530 1.33103716 2.34354997 0.57281369 0.65289319 0.86741215
9.94781494 1.58032227 1.84046066 0.57537770 0.77517116 0.68120497
9.72587681 2.02628136 1.13499880 0.56254089 0.99392056 0.42009419
9.91419888 1.39590943 2.34818029 0.57343340 0.68471396 0.86912596
9.95903587 1.64627910 1.84448588 0.57602674 0.80752391 0.68269479
9.91678524 1.45985103 2.35095859 0.57358301 0.71607822 0.87015426
9.96400356 1.71145225 1.84741330 0.57631409 0.83949232 0.68377835
9.94589043 1.52796185 2.36021900 0.57526642 0.74948758 0.87358177
9.98790932 1.78016400 1.85400009 0.57769674 0.87319642 0.68621629
9.93993759 1.59103036 2.36114502 0.57492208 0.78042364 0.87392455
10.01423550 1.83351552 1.86058676 0.57921946 0.89936614 0.68865418
9.97457790 1.64473259 2.37133169 0.57692569 0.80676538 0.87769490
9.97363853 1.70899558 2.37364697 0.57687134 0.83828729 0.87855184
10.02019310 1.78173149 2.38753772 0.57956403 0.87396532 0.88369322
10.44865990 -0.10671820 2.33844995 0.60434639 -0.05234684 0.86552447
9.73912525 -0.05495568 2.17723823 0.56330717 -0.02695656 0.80585557
9.86410046 0.00657835 2.20558310 0.57053572 0.00322678 0.81634682
9.84826183 0.06841517 2.20203996 0.56961960 0.03355864 0.81503540
9.84763813 0.13029186 2.20203996 0.56958354 0.06391006 0.81503540
9.81737614 0.19153219 2.19539666 0.56783319 0.09394934 0.81257653
9.78478622 0.25234309 2.18831038 0.56594819 0.12377797 0.80995369
17.28919029 -0.41308838 1.37574053 1.00000000 -0.20262589 0.50919932
9.83417034 0.30010134 2.19982553 0.56880456 0.14720409 0.81421578
9.83793736 0.36211222 2.20115423 0.56902242 0.17762133 0.81470758
10.11066532 -0.28184021 1.09558916 0.58479691 -0.13824673 0.40550759
10.11422157 -0.21834674 1.09583139 0.58500260 -0.10710227 0.40559727
16.99840164 -0.32288897 0.76787668 0.98318088 -0.15838176 0.28421223
11.27696705 -0.06389873 0.84894884 0.65225536 -0.03134326 0.31421924
9.88020706 0.25167239 1.68825352 0.57146728 0.12344898 0.62486893
9.77807236 0.48290056 2.18875337 0.56555986 0.23686977 0.81011766
9.78989506 -0.04417350 2.13213754 0.56624371 -0.02166774 0.78916258
10.10149765 -0.15460862 1.09413540 0.58426666 -0.07583778 0.40496951
14.82732010 -0.19106184 0.65209335 0.85760641 -0.09371862 0.24135764
9.86464596 0.31327999 1.68585014 0.57056725 0.15366840 0.62397939
9.82741737 0.54736519 2.20071125 0.56841397 0.26849061 0.81454360
9.98916054 0.01727766 2.17621541 0.57776916 0.00847495 0.80547702
11.08098316 -0.09799532 1.21358776 0.64091974 -0.04806814 0.44918212
12.99285698 -0.08829619 0.55429482 0.75150174 -0.04331057 0.20515972
13.24129009 0.09491106 1.02094114 0.76587105 0.04655526 0.37787831
9.86051464 0.37517580 1.68550670 0.57032830 0.18402921 0.62385225
9.91915512 0.61521256 2.22241282 0.57372004 0.30177075 0.82257593
9.86388016 0.07929371 2.14855862 0.57052296 0.03889472 0.79524046
11.69696808 -0.02639670 0.48522922 0.67654806 -0.01294797 0.17959665
13.47776794 0.16048864 1.04169881 0.77954882 0.07872202 0.38556132
9.87241554 0.42225578 1.68791020 0.57101667 0.20712262 0.62474185
9.96868134 0.66556346 2.23437095 0.57658464 0.32646859 0.82700199
9.96493530 0.12686048 2.17102981 0.57636797 0.06222692 0.80355769
12.15144253 0.02811689 1.34418583 0.70283467 0.01379175 0.49752003
10.78621006 0.04184713 0.43670240 0.62387019 0.02052663 0.16163553
15.66170883 0.28822079 1.23305333 0.90586710 0.14137651 0.45638686
15.20157623 -0.27548602 1.11517262 0.87925321 -0.13512991 0.41275597
9.97791672 0.72920775 2.23747110 0.57711881 0.35768706 0.82814944
9.95027351 0.18923712 2.16800475 0.57551992 0.09282357 0.80243802
11.21601391 0.09486195 1.23006392 0.64872986 0.04653117 0.45528039
10.64594269 0.10793326 0.42925310 0.61575717 0.05294284 0.15887834
14.47651482 0.35587388 1.12943923 0.83731598 0.17456134 0.41803643
9.96536255 0.79125273 2.23569965 0.57639265 0.38812101 0.82749379
10.90752125 0.16023821 1.19250798 0.63088673 0.07859918 0.44137990
14.17524338 -0.26643205 1.51157761 0.81989056 -0.13068880 0.55947632
10.57716179 0.17357641 0.42563486 0.61177891 0.08514176 0.15753913
13.72325802 0.42259356 1.06367755 0.79374790 0.20728831 0.39369625
11.13175011 -0.05637727 0.77944487 0.64385605 -0.02765387 0.28849393
9.94076538 0.85214555 2.23127079 0.57497001 0.41798982 0.82585454
9.94906235 0.31431538 2.16843700 0.57544988 0.15417628 0.80259800
10.97775078 0.23040059 1.20123065 0.63494879 0.11301485 0.44460842
12.07900715 -0.14810893 1.26737988 0.69864506 -0.07264959 0.46909204
10.55190372 0.23944096 0.42435786 0.61031801 0.11744929 0.15706648
13.72033119 0.50881040 1.06367755 0.79357857 0.24957892 0.39369625
9.85560226 0.90709555 2.21311212 0.57004416 0.44494361 0.81913352
9.91566658 0.37570158 2.16152287 0.57351828 0.18428710 0.80003887
10.96814823 0.29913962 1.20026147 0.63439339 0.14673235 0.44424969
10.52623653 0.30499497 0.42308083 0.60883337 0.14960448 0.15659381
13.83418179 -0.10171731 0.52148789 0.80016369 -0.04989383 0.19301698
13.07198143 0.56607652 1.00716078 0.75607830 0.27766880 0.37277782
9.85941124 0.96997648 2.21532679 0.57026446 0.47578764 0.81995320
9.86238384 0.43585861 2.15028715 0.57043642 0.21379501 0.79588026
10.99978065 0.36924276 1.20438051 0.63622302 0.18111897 0.44577426
10.50415421 0.37038442 0.42201665 0.60755616 0.18167897 0.15619993
12.42814922 -0.01122173 0.45444492 0.71883929 -0.00550442 0.16820253
13.06418705 0.64799488 1.00681198 0.75562745 0.31785095 0.37264872
10.21799755 0.14253262 0.70418137 0.59100497 0.06991433 0.26063684
9.85566902 0.28327081 1.63254869 0.57004803 0.13894847 0.60425103
9.81653976 0.49573880 2.14078021 0.56778485 0.24316712 0.79236150
10.94087029 -0.10201643 2.30582809 0.63281566 -0.05004055 0.85345024
11.02370644 0.42210877 1.20753038 0.63760686 0.20705052 0.44694012
12.22279644 0.06108993 1.28402972 0.70696175 0.02996550 0.47525463
10.06697369 -0.21862973 1.33117664 0.58226985 -0.10724108 0.49270499
10.50827885 0.42013073 0.42233589 0.60779476 0.20608026 0.15631810
11.33530807 0.04496991 0.40235329 0.65562975 0.02205840 0.14892198
10.23514938 0.19098108 0.70566034 0.59199703 0.09367900 0.26118425
15.23426151 -0.28173366 1.03262472 0.88114375 -0.13819447 0.38220274
9.86605167 0.33008251 1.63454866 0.57064855 0.16191028 0.60499132
9.79969215 1.07291901 2.20425439 0.56681037 0.52628243 0.81585503
9.80824471 0.54168153 2.13948393 0.56730503 0.26570269 0.79188168
9.95748234 -0.04774976 2.09542513 0.57593685 -0.02342195 0.77557433
11.00100517 0.49044317 1.20510733 0.63629383 0.24056953 0.44604328
12.21819878 0.13784811 1.28356719 0.70669585 0.06761651 0.47508341
10.09189415 -0.15569165 1.33464468 0.58371121 -0.07636903 0.49398860
10.48149395 0.48499331 0.42105886 0.60624552 0.23789629 0.15584543
11.01517582 0.11348752 0.38711625 0.63711345 0.05566728 0.14328234
15.13581944 0.36782616 1.10991406 0.87544990 0.18042411 0.41080964
13.65847492 -0.16885835 0.91141319 0.79000086 -0.08282749 0.33733901
9.68642616 0.38538221 1.60454953 0.56025910 0.18903559 0.59388781
9.80050564 1.13538444 2.20602608 0.56685740 0.55692261 0.81651074
9.80269909 0.60318160 2.13905168 0.56698430 0.29586938 0.79172170
14.01107311 -0.25590381 2.23401165 0.81039500 -0.12552455 0.82686901
9.95367336 0.01480167 2.09458852 0.57571656 0.00726043 0.77526468
11.29706669 0.57533997 1.24169421 0.65341794 0.28221264 0.45958507
11.13255215 0.19736801 1.15730596 0.64390248 0.09681189 0.42835069
10.47425079 0.55062306 0.42084605 0.60582656 0.27008864 0.15576667
10.92835236 0.18142912 0.38302130 0.63209164 0.08899363 0.14176668
16.42221451 1.10454774 1.30265260 0.94985443 0.54179680 0.48214746
14.46177578 0.44328326 1.05453467 0.83646345 0.21743691 0.39031219
9.87294483 0.45455348 1.63654864 0.57104725 0.22296512 0.60573155
9.76801682 1.19381213 2.20026851 0.56497824 0.58558226 0.81437975
9.82404613 0.66642725 2.14466953 0.56821901 0.32689229 0.79380101
11.24062634 -0.13868327 1.78539312 0.65015340 -0.06802617 0.66082299
11.82831955 0.67789823 1.30711436 0.68414539 0.33251897 0.48379889
11.02980137 0.26506418 1.14551222 0.63795942 0.13001785 0.42398548
13.63367176 -0.22875591 1.39484048 0.78856623 -0.11220811 0.51626873
10.46859074 0.61630213 0.42073962 0.60549921 0.30230519 0.15572727
10.87107277 0.24891409 0.38035482 0.62877858 0.12209599 0.14077975
10.19618607 0.74244475 0.75667310 0.58974344 0.36418000 0.28006548
14.24556351 0.52656597 1.03695118 0.82395780 0.25828829 0.38380408
10.36324120 -0.00279285 0.65811032 0.59940583 -0.00136993 0.24358468
9.85019875 0.51558745 1.63321531 0.56973165 0.25290316 0.60449779
9.80480289 1.26097596 2.21045494 0.56710595 0.61852711 0.81814998
9.83719444 0.72940344 2.14855862 0.56897950 0.35778302 0.79524046
9.86665916 0.13849364 2.07618332 0.57068372 0.06793315 0.76845241
11.91297340 0.75802886 1.31801772 0.68904173 0.37182423 0.48783451
10.91075706 0.33102468 1.13186860 0.63107389 0.16237244 0.41893563
12.02902889 -0.12863250 1.21423221 0.69575435 -0.06309612 0.44942063
10.47646809 0.68286824 0.42137814 0.60595483 0.33495685 0.15596360
10.80738735 0.31552288 0.37740266 0.62509507 0.15476857 0.13968708
10.20124912 0.80729985 0.75754529 0.59003627 0.39599237 0.28038830
14.22604179 0.61539608 1.03563654 0.82282871 0.30186075 0.38331750
10.27730942 0.06163701 0.65152103 0.59443557 0.03023385 0.24114580
9.87432957 0.57902700 1.63788188 0.57112736 0.28402120 0.60622501
9.80441570 1.32361567 2.21222639 0.56708354 0.64925283 0.81880563
9.84409809 0.79211324 2.15115142 0.56937879 0.38854310 0.79620016
9.86168385 0.20039701 2.07534671 0.57039595 0.09829766 0.76814276
12.01094532 0.84024304 1.33061719 0.69470835 0.41215149 0.49249792
10.92633057 0.40019318 1.13394988 0.63197470 0.19630060 0.41970596
10.14945984 -0.04793728 1.00277734 0.58704078 -0.02351393 0.37115541
10.13759518 -0.26296362 1.29038274 0.58635455 -0.12898749 0.47760606
10.46798706 0.74838734 0.42116529 0.60546428 0.36709490 0.15588482
10.75727272 0.38181087 0.37511709 0.62219644 0.18728381 0.13884112
16.00178909 0.79042286 1.18254828 0.92553723 0.38771394 0.43769357
10.25478649 0.12589684 0.64983541 0.59313285 0.06175424 0.24052191
9.85671902 0.64019108 1.63554859 0.57010877 0.31402308 0.60536140
9.82486439 1.38934767 2.21886969 0.56826633 0.68149531 0.82126451
9.82919788 0.85312527 2.14899087 0.56851697 0.41847041 0.79540044
9.83286095 0.26157072 2.06949067 0.56872880 0.12830426 0.76597524
14.83555984 1.11292529 1.67685950 0.85808295 0.54590613 0.62065172
11.84736633 0.48812205 1.24148011 0.68524700 0.23943099 0.45950583
10.08130550 -0.21385475 1.28228641 0.58309877 -0.10489888 0.47460938
10.47031784 0.79817510 0.42148456 0.60559911 0.39151654 0.15600300
10.71942139 0.43112198 0.37340292 0.62000716 0.21147162 0.13820666
12.19729042 0.03325547 0.38677683 0.70548648 0.01631230 0.14315672
16.78624535 -0.32760179 1.04768884 0.97090983 -0.16069347 0.38777837
9.84769058 0.68623340 1.63454866 0.56958658 0.33660752 0.60499132
9.84907627 1.44020891 2.22595596 0.56966674 0.70644349 0.82388735
9.84062862 0.90082669 2.15244794 0.56917810 0.44186863 0.79668003
9.89046001 0.10858060 1.56683528 0.57206035 0.05326037 0.57992870
9.85301971 0.30862179 2.07409191 0.56989479 0.15138349 0.76767832
14.26044178 1.15914881 1.60732031 0.82481837 0.56857944 0.59491330
11.85398865 0.56300533 1.24263632 0.68563008 0.27616233 0.45993379
12.20633507 0.08068701 1.23412585 0.70600963 0.03957815 0.45678383
10.45912552 0.86344129 0.42116529 0.60495174 0.42353055 0.15588482
10.71849728 0.49855417 0.37349817 0.61995369 0.24454810 0.13824192
11.60142517 0.10353460 0.36115956 0.67102188 0.05078523 0.13367505
9.87465096 0.75042063 1.63988185 0.57114595 0.36809227 0.60696524
9.83983231 1.50206363 2.22595596 0.56913203 0.73678416 0.82388735
9.83477402 0.96263903 2.15244794 0.56883949 0.47218850 0.79668003
9.87773895 0.17049283 1.56491816 0.57132453 0.08362922 0.57921916
9.88215446 0.37176433 2.08078456 0.57157993 0.18235584 0.77015543
12.85877895 1.12458897 1.43650091 0.74374676 0.55162728 0.53168839
11.86212063 0.63809443 1.24402380 0.68610042 0.31299463 0.46044734
12.20558643 0.15737957 1.23412585 0.70596635 0.07719698 0.45678383
16.35081100 -0.38513395 1.58876431 0.94572449 -0.18891382 0.58804524
10.47139454 0.93076652 0.42212307 0.60566133 0.45655456 0.15623933
10.70517731 0.56538230 0.37302199 0.61918324 0.27732828 0.13806567
16.59238243 1.10649180 1.23266923 0.95969689 0.54275036 0.45624471
11.32484055 0.17174950 0.34929654 0.65502435 0.08424564 0.12928423
11.97120094 -0.07733155 0.70738214 0.69240957 -0.03793225 0.26182154
9.86384392 0.81197637 1.63888192 0.57052088 0.39828625 0.60659516
9.83597755 1.56479013 2.22728467 0.56890911 0.76755238 0.82437915
9.83241653 1.02481019 2.15331221 0.56870311 0.50268435 0.79699993
9.85871029 0.23209788 1.56204236 0.57022393 0.11384740 0.57815474
9.79366016 0.42989591 2.06237960 0.56646144 0.21087022 0.76334327
10.86793995 -0.09505472 2.19230723 0.62859738 -0.04662573 0.81143302
12.80205154 1.20064783 1.43044353 0.74046564 0.58893532 0.52944636
11.98083591 0.71979135 1.25836122 0.69296688 0.35306817 0.46575400
11.23468208 0.21385235 1.12504566 0.64980960 0.10489770 0.41641027
13.63648510 -0.23210397 1.30181885 0.78872895 -0.11385038 0.48183885
10.00630951 -0.02346180 1.27139831 0.57876104 -0.01150836 0.47057939
10.46533966 0.99654144 0.42212307 0.60531116 0.48881814 0.15623933
10.68944645 0.63194865 0.37245062 0.61827338 0.30998003 0.13785419
13.04186821 1.43058884 1.01030064 0.75433654 0.70172471 0.37393996
15.88528347 1.16049540 1.17482471 0.91879857 0.56923991 0.43483484
11.20767593 0.24020821 0.34431064 0.64824760 0.11782563 0.12743881
10.33353424 0.00095856 0.59169197 0.59768760 0.00047019 0.21900143
9.85854721 0.87393630 1.63888192 0.57021451 0.42867851 0.60659516
