7.55303097 1.99914527 2.12245226 0.34655529 0.43845975 0.79047865
8.57344151 2.44835544 0.64224416 0.39337471 0.53698218 0.23919515
7.76966619 1.93297398 0.52177417 0.35649514 0.42394683 0.19432774
10.39632988 2.00986600 0.31757584 0.47701421 0.44081107 0.11827683
9.49732876 1.97836733 0.60723519 0.43576539 0.43390268 0.22615653
12.08123589 2.06673717 0.72753280 0.55432266 0.45328426 0.27095976
16.27366066 2.16071177 0.93357879 0.74668342 0.47389510 0.34769881
10.68370342 2.93545628 -0.30228218 0.49019974 0.64381486 -0.11258091
10.66305256 2.51774430 -0.36530843 0.48925221 0.55220079 -0.13605419
7.90186310 1.98923635 -0.03415080 0.36256072 0.43628651 -0.01271900
7.55199003 2.17416310 1.70475519 0.34650752 0.47684532 0.63491303
9.86515045 1.99472189 1.59495389 0.45264211 0.43748960 0.59401900
14.61898041 2.14525580 2.22255445 0.67076182 0.47050527 0.82776034
9.72767830 2.04819107 -0.04862589 0.44633451 0.44921666 -0.01811006
8.90141582 1.98717511 1.91639423 0.40842316 0.43583444 0.71373510
8.56296062 2.35819340 0.94512272 0.39289382 0.51720750 0.35199818
10.04483032 2.41782141 1.06388175 0.46088636 0.53028536 0.39622837
12.79088593 2.05091715 1.22955728 0.58688349 0.44981456 0.45793197
11.57314777 2.02574611 1.51707923 0.53101009 0.44429395 0.56501567
17.89767075 2.19366860 1.67686355 0.82119781 0.48112333 0.62452513
15.77372837 2.15824151 2.01526093 0.72374505 0.47335333 0.75055671
7.79640579 2.16012478 0.29303744 0.35772204 0.47376639 0.10913783
7.50644588 2.46401668 2.20946622 0.34441781 0.54041702 0.82288581
7.91228485 1.89923751 0.24988770 0.36303890 0.41654763 0.09306730
7.55335379 2.05006361 2.12617826 0.34657010 0.44962737 0.79186636
8.49673557 2.48414350 0.63666224 0.38985524 0.54483134 0.23711625
7.78828716 1.98956907 0.52440351 0.35734951 0.43635947 0.19530700
12.68381691 2.06537700 0.33246964 0.58197081 0.45298594 0.12382382
9.24501610 1.98597157 0.58838689 0.42418852 0.43557045 0.21913674
11.41566944 2.02790141 0.68074948 0.52378452 0.44476667 0.25353593
15.21031666 2.11553884 0.86439544 0.69789410 0.46398762 0.32193241
10.68236446 3.00743461 -0.30254927 0.49013832 0.65960145 -0.11268038
10.74422264 2.60809755 -0.36738384 0.49297655 0.57201737 -0.13682714
7.46769667 2.63700175 1.76402187 0.34263989 0.57835674 0.65698612
7.85627174 2.03042126 -0.03458349 0.36046886 0.44531932 -0.01288015
7.65252638 2.25494790 1.73111546 0.35112041 0.49456331 0.64473057
9.53753376 1.99027026 1.54287064 0.43761012 0.43651327 0.57462132
13.80378723 2.11544180 2.09876204 0.63335836 0.46396634 0.78165555
9.38251972 2.03645325 -0.05167745 0.43049762 0.44664228 -0.01924657
8.58965588 1.97361493 1.85072172 0.39411870 0.43286034 0.68927628
14.21627331 2.56490684 -0.10469510 0.65228444 0.56254464 -0.03899227
8.62435150 2.43368912 0.95481461 0.39571062 0.53376549 0.35560778
7.78555012 1.93052220 0.79494053 0.35722396 0.42340910 0.29606485
12.10073757 2.01941514 1.15708566 0.55521744 0.44290543 0.43094090
11.06899643 2.01013756 1.44672513 0.50787812 0.44087064 0.53881323
16.81399918 2.16693592 1.56827629 0.77147573 0.47526023 0.58408332
14.87519550 2.12944269 1.89430618 0.68251771 0.46703708 0.70550871
7.80187845 2.21456981 0.29410166 0.35797313 0.48570746 0.10953418
7.51633120 2.51975870 2.21711755 0.34487140 0.55264258 0.82573545
7.90407705 1.94986129 0.25007817 0.36266232 0.42765063 0.09313823
7.55333471 2.10106468 2.12990427 0.34656921 0.46081311 0.79325402
8.49049664 2.54035830 0.63753444 0.38956895 0.55716056 0.23744108
7.79685545 2.04397130 0.52621114 0.35774267 0.44829118 0.19598022
9.92931747 2.10152411 2.68502164 0.45558631 0.46091387 1.00000000
12.25664902 2.07562733 0.31710577 0.56237113 0.45523408 0.11810175
8.01996994 1.77286446 0.49291942 0.36797982 0.38883105 0.18358117
10.93165970 2.01370811 0.64693016 0.50157672 0.44165373 0.24094039
14.59052944 2.12204671 0.82439673 0.66945642 0.46541494 0.30703542
21.55977631 2.32992029 1.15386033 0.98922598 0.51100653 0.42973968
10.69398499 3.08341479 -0.30302411 0.49067149 0.67626566 -0.11285723
10.74897480 2.68083692 -0.36784041 0.49319458 0.58797085 -0.13699719
7.66036463 2.12940598 1.30989075 0.35148007 0.46702901 0.48785108
7.85303068 2.08228183 -0.03445622 0.36032015 0.45669359 -0.01283275
7.63072300 2.30074954 1.72938693 0.35012001 0.50460869 0.64408678
9.25281811 1.99101138 1.49781704 0.42454651 0.43667582 0.55784172
13.13408470 2.09833360 1.99731255 0.60263044 0.46021411 0.74387205
9.08472538 2.03103638 -0.05429820 0.41683394 0.44545424 -0.02022263
8.34500885 1.97211933 1.79968953 0.38289356 0.43253234 0.67027003
13.69646263 2.56081629 -0.10587005 0.62843400 0.56164747 -0.03942987
8.61270237 2.48894024 0.95529920 0.39517611 0.54588336 0.35578826
7.76170826 1.97648978 0.79355305 0.35613000 0.43349087 0.29554811
11.64282799 2.01902866 1.10940146 0.53420722 0.44282067 0.41318157
10.65118408 2.00423050 1.38865507 0.48870766 0.43957508 0.51718581
15.86351490 2.14470840 1.47311211 0.72786474 0.47038519 0.54864067
14.12858200 2.11222219 1.79400206 0.64826089 0.46326020 0.66815180
20.62092400 2.31208634 2.52191401 0.94614863 0.50709516 0.93925279
7.80505753 2.26860642 0.29505941 0.35811901 0.49755895 0.10989089
7.50944424 2.57007337 2.21985006 0.34455541 0.56367779 0.82675314
7.78315544 1.97227967 0.24474519 0.35711408 0.43256751 0.09115203
7.54183960 2.14900541 2.13043666 0.34604180 0.47132763 0.79345232
9.32672215 2.50359201 0.65784007 0.42793745 0.54909682 0.24500364
9.87441254 2.15472555 2.67363262 0.45306709 0.47258219 0.99575830
11.66643906 2.05213571 0.29566953 0.53529054 0.45008183 0.11011811
7.96980762 1.81427085 0.48985463 0.36567822 0.39791244 0.18243973
10.77764416 2.05570245 0.63678437 0.49451002 0.45086408 0.23716173
13.86081314 2.10392070 0.77710187 0.63597488 0.46143949 0.28942108
10.63989544 3.14029312 -0.30248994 0.48818970 0.68874043 -0.11265828
10.74548435 2.75176907 -0.36813098 0.49303442 0.60352796 -0.13710541
7.68289614 2.18766451 1.31622386 0.35251388 0.47980648 0.49020979
7.48335361 2.74891639 1.77597988 0.34335828 0.60290229 0.66143972
7.61798382 2.34921980 1.72981906 0.34953552 0.51523936 0.64424771
8.93187618 1.98005545 1.44669247 0.40982077 0.43427292 0.53880107
12.49637985 2.07803631 1.90069413 0.57337070 0.45576245 0.70788783
8.80101681 2.02513027 -0.05679329 0.40381655 0.44415888 -0.02115189
8.09313202 1.96576452 1.74698412 0.37133670 0.43113858 0.65064061
13.14192963 2.54351187 -0.10712762 0.60299039 0.55785221 -0.03989824
10.91775036 2.05435824 2.24167848 0.50093853 0.45056927 0.83488286
8.58928394 2.54073596 0.95433003 0.39410162 0.55724341 0.35542732
11.19912624 2.01541209 1.06318760 0.51384884 0.44202745 0.39596984
10.23000813 1.99240577 1.33002675 0.46938288 0.43698165 0.49535048
15.00856590 2.12413931 1.38756454 0.68863714 0.46587390 0.51677966
13.43174744 2.09341145 1.70040286 0.61628807 0.45913458 0.63329208
19.21108627 2.27770901 2.34180856 0.88146114 0.49955538 0.87217492
7.79064941 2.31760192 0.29505941 0.35745791 0.50830483 0.10989089
7.50403547 2.62103987 2.22312927 0.34430721 0.57485592 0.82797444
7.53004026 2.19688463 2.13096881 0.34550041 0.48182869 0.79365051
9.30888462 2.56161904 0.65767574 0.42711902 0.56182355 0.24494244
8.88479614 1.99527836 2.40547347 0.40766057 0.43761167 0.89588606
11.16553879 2.03729892 0.27752551 0.51230776 0.44682777 0.10336062
7.92914438 1.85741556 0.48755607 0.36381248 0.40737510 0.18158366
10.13403034 2.00022554 0.59141016 0.46497914 0.43869668 0.22026272
14.93231106 2.13955998 0.34130937 0.68513834 0.46925601 0.12711605
18.51772118 2.23978734 0.97318500 0.84964752 0.49123827 0.36244959
10.74539661 2.82377219 -0.36850452 0.49303040 0.61931992 -0.13724452
7.66331530 2.23425269 1.31522393 0.35161546 0.49002439 0.48983738
7.44221258 2.78692865 1.77022231 0.34147060 0.61123925 0.65929538
7.88215017 2.19622636 -0.03371811 0.36165625 0.48168430 -0.01255785
7.63475895 2.40693927 1.73716545 0.35030520 0.52789861 0.64698380
8.64800167 1.97357774 1.40163887 0.39679575 0.43285221 0.52202141
11.94911766 2.06515026 1.81796455 0.54826069 0.45293623 0.67707634
8.52942181 2.01853204 -0.05918068 0.39135498 0.44271174 -0.02204105
12.68430138 2.53842378 -0.10816029 0.58199304 0.55673629 -0.04028284
10.85460567 2.11327219 2.23124218 0.49804124 0.46349049 0.83099598
8.62631798 2.61087656 0.96111435 0.39580086 0.57262689 0.35795406
8.63104248 2.31129956 0.90131456 0.39601761 0.50692260 0.33568242
10.82049084 2.01821780 1.02390587 0.49647596 0.44264281 0.38133991
8.16839027 1.94641078 1.08696604 0.37478977 0.42689386 0.40482581
9.85603237 1.98465896 1.27809870 0.45222378 0.43528259 0.47601059
14.24703789 2.10672808 1.31143332 0.65369600 0.46205521 0.48842561
12.80614376 2.07746720 1.61645854 0.58758354 0.45563760 0.60202813
17.99745178 2.24985576 2.18688703 0.82577604 0.49344650 0.81447649
7.53449440 2.68504810 2.23733878 0.34570476 0.58889443 0.83326656
7.54012156 2.25126147 2.13788867 0.34596297 0.49375480 0.79622775
9.31180191 2.62542605 0.65931904 0.42725286 0.57581794 0.24555446
8.60683155 1.98911762 2.33248019 0.39490676 0.43626046 0.86870068
10.82050610 2.04529119 0.26516128 0.49647665 0.44858065 0.09875573
8.09556675 1.95060861 0.50165397 0.37144843 0.42781454 0.18683423
14.16352654 2.11926675 0.31705034 0.64986426 0.46480525 0.11808111
12.56933784 2.06791258 0.69345641 0.57671821 0.45354205 0.25826848
17.41387367 2.21858120 0.90776604 0.79899979 0.48658726 0.33808517
10.63969707 3.28621292 -0.30311313 0.48818061 0.72074407 -0.11289039
10.74482632 2.89588261 -0.36887810 0.49300423 0.63513541 -0.13738365
7.65669060 2.28459430 1.31655717 0.35131150 0.50106549 0.49033391
7.89128828 2.25223684 -0.03341268 0.36207554 0.49396873 -0.01244410
7.54693794 2.43169188 1.72031212 0.34627572 0.53332746 0.64070696
11.39863777 2.04478168 1.73463118 0.52300304 0.44846892 0.64603990
8.21359825 1.99762559 -0.06198094 0.37686405 0.43812647 -0.02308396
7.59066200 1.94380510 1.64157355 0.34828192 0.42632237 0.61138189
12.24490547 2.53130436 -0.10915167 0.56183231 0.55517483 -0.04065206
10.06289959 2.02632952 2.06867886 0.46171543 0.44442192 0.77045149
8.57789326 2.64031959 0.95651072 0.39357898 0.57908446 0.35623950
8.59320736 2.34468675 0.89807707 0.39428163 0.51424515 0.33447665
10.32427311 1.97698510 0.97160035 0.47370803 0.43359950 0.36185941
9.49923992 1.96016967 1.22812498 0.43585306 0.42991149 0.45739853
13.55056858 2.06804585 1.24151266 0.62173998 0.45357129 0.46238461
19.38835335 2.23050451 1.67605042 0.88959467 0.48920232 0.62422234
12.23141098 2.04252291 1.53895080 0.56121314 0.44797352 0.57316142
16.79432106 2.18123817 2.03272891 0.77057284 0.47839704 0.75706238
7.49645281 2.71129823 2.22968745 0.34395930 0.59465170 0.83041692
7.91188812 2.15059566 0.25283986 0.36302072 0.47167641 0.09416679
7.52389097 2.28510189 2.13629174 0.34521824 0.50117683 0.79563296
9.29740906 2.66873169 0.65915471 0.42659247 0.58531588 0.24549326
8.33240509 1.96645892 2.25948715 0.38231525 0.43129086 0.84151542
10.30434132 1.99903417 0.24628565 0.47279349 0.43843541 0.09172576
9.46279621 1.97741330 0.54462677 0.43418095 0.43369344 0.20283888
12.21716213 2.06858659 0.67078614 0.56055933 0.45368987 0.24982522
16.43522835 2.17379403 0.84960264 0.75409663 0.47676435 0.31642303
10.60311794 3.32968569 -0.30278671 0.48650226 0.73027867 -0.11276881
10.74456501 2.95016551 -0.36916867 0.49299225 0.64704096 -0.13749188
7.67038965 2.32803345 1.32089043 0.35194004 0.51059270 0.49194777
8.05972767 1.93142843 1.30737782 0.36980402 0.42360786 0.48691520
10.92986107 2.01473045 1.66337502 0.50149417 0.44187796 0.61950153
8.02174664 1.99058330 -0.06366827 0.36806133 0.43658191 -0.02371239
7.42446184 1.93813586 1.60685492 0.34065616 0.42507896 0.59845138
11.70827866 2.47885060 -0.11038170 0.53721029 0.54367048 -0.04111017
9.80175972 2.02237248 2.01609659 0.44973359 0.44355404 0.75086790
8.54031849 2.68756104 0.95384544 0.39185494 0.58944559 0.35524684
8.62425137 2.41136718 0.90362704 0.39570603 0.52886975 0.33654368
7.67255545 1.91643238 1.01558149 0.35203943 0.42031887 0.37823960
12.80641174 2.03578234 1.16698420 0.58759582 0.44649515 0.43462747
18.09078979 2.19784212 1.55588913 0.83005863 0.48203868 0.57946986
11.68928432 2.02667356 1.46627057 0.53633875 0.44449738 0.54609263
15.75997829 2.14892292 1.90070224 0.72311419 0.47130954 0.70789087
7.83852053 2.18379354 0.24988770 0.35965440 0.47895750 0.09306730
7.51491213 2.33403182 2.13788867 0.34480628 0.51190829 0.79622775
9.09867001 2.67409182 0.64354330 0.41747376 0.58649147 0.23967899
8.06658745 1.95667505 2.18959999 0.37011877 0.42914504 0.81548691
9.93086243 1.99213207 0.23282398 0.45565718 0.43692160 0.08671214
7.62922668 1.92608678 0.46640918 0.35005137 0.42243633 0.17370778
8.03561878 1.73505712 0.44246432 0.36869782 0.38053900 0.16478986
11.56724930 2.03231049 0.62857258 0.53073943 0.44573367 0.23410335
15.35715008 2.13079572 0.78561097 0.70463121 0.46733382 0.29259017
10.61243534 3.40607452 -0.30326152 0.48692974 0.74703258 -0.11294565
10.74507523 3.02299714 -0.36958373 0.49301568 0.66301465 -0.13764647
7.64995623 2.37444210 1.31989050 0.35100248 0.52077121 0.49157536
7.56978989 2.53111815 1.73197973 0.34732422 0.55513400 0.64505243
7.85776329 1.93482232 1.27574444 0.36053729 0.42435223 0.47513378
10.48376369 2.00151110 1.59604406 0.48102593 0.43897864 0.59442502
7.91999054 2.01800919 -0.06449398 0.36339247 0.44259706 -0.02401991
7.54617596 2.02101898 1.63655388 0.34624076 0.44325718 0.60951239
10.36522865 2.26500249 -0.11349808 0.47558719 0.49676853 -0.04227083
9.31914902 1.98492062 1.91775560 0.42758998 0.43533996 0.71424216
8.58026409 2.45736766 0.90015829 0.39368775 0.53895873 0.33525178
8.20486641 1.97983348 0.81054568 0.37646341 0.43422425 0.30187678
11.78012753 2.40661979 1.13124788 0.54050690 0.52782857 0.42131796
7.55499935 1.93729138 0.99968612 0.34664559 0.42489374 0.37231958
8.86618710 1.94734216 1.14046156 0.40680674 0.42709813 0.42474949
12.29482937 2.03293777 1.11609638 0.56412292 0.44587126 0.41567501
16.95645332 2.16949964 1.45090997 0.77801198 0.47582251 0.54037178
11.22976208 2.01897144 1.40485442 0.51525450 0.44280812 0.52321905
14.87209511 2.12426186 1.78750026 0.68237549 0.46590078 0.66573030
7.85348082 2.24115229 0.25131616 0.36034080 0.49153763 0.09359930
7.52584457 2.38930368 2.14534068 0.34530789 0.52403075 0.79900312
9.28796959 2.79276204 0.66129106 0.42615938 0.61251867 0.24628891
7.89788055 1.92506242 0.21175420 0.36237800 0.42221165 0.07886499
7.82183933 1.94882047 2.12540746 0.35888901 0.42742234 0.79157925
7.97195005 1.77394259 0.43865967 0.36577651 0.38906750 0.16337286
16.75370979 2.18990207 0.28434044 0.76870948 0.48029724 0.10589875
14.60438728 2.12095141 0.74112606 0.67009228 0.46517473 0.27602237
10.73548126 3.09320092 -0.36979127 0.49257547 0.67841202 -0.13772376
7.66310406 2.43133545 1.32489038 0.35160577 0.53324926 0.49343750
7.89972258 2.69628716 0.01528981 0.36246252 0.59135944 0.00569448
7.90097904 2.40325403 -0.03275092 0.36252016 0.52709037 -0.01219764
7.67211437 2.61870456 1.75963640 0.35201919 0.57434374 0.65535277
7.71729231 1.95140052 1.25433600 0.35409209 0.42798820 0.46716049
10.11977577 1.99869716 1.54139423 0.46432510 0.43836150 0.57407147
7.90328741 2.06671023 -0.06452988 0.36262608 0.45327836 -0.02403328
7.55594444 2.07466555 1.64157355 0.34668896 0.45502314 0.61138189
10.00333595 2.25256705 -0.11431505 0.45898250 0.49404114 -0.04257509
9.04419136 1.98642778 1.86276495 0.41497412 0.43567052 0.69376165
8.59708405 2.52065849 0.90408951 0.39445952 0.55283993 0.33671591
14.12946033 2.59395099 -0.18561307 0.64830118 0.56891471 -0.06912908
7.85873890 1.94779241 0.77187580 0.36058205 0.42719686 0.28747469
9.27865982 1.96078527 0.86299795 0.42573223 0.43004650 0.32141191
8.59094620 1.94416916 1.10249269 0.39417788 0.42640221 0.41060850
11.81713867 2.02953076 1.06861448 0.54220510 0.44512403 0.39799100
15.96535873 2.14591575 1.35926151 0.73253763 0.47064999 0.50623858
10.79029369 2.00924253 1.34612024 0.49509043 0.44067433 0.50134426
14.07937431 2.10246181 1.68650877 0.64600313 0.46111953 0.62811738
7.81429768 2.28323126 0.25007817 0.35854298 0.50076652 0.09313823
7.51802492 2.43890333 2.14747000 0.34494910 0.53490907 0.79979616
7.84882450 1.96533370 0.21012089 0.36012715 0.43104410 0.07825668
7.56816530 1.93555212 2.05862641 0.34724969 0.42451230 0.76670754
7.95675564 1.82311511 0.43837783 0.36507937 0.39985219 0.16326790
15.83224487 2.17182946 0.26145715 0.72643000 0.47633350 0.09737618
10.84481907 2.04493928 0.58231997 0.49759221 0.44850346 0.21687721
13.88397217 2.10648203 0.69854426 0.63703752 0.46200126 0.26016337
10.73310471 3.16565204 -0.37016484 0.49246642 0.69430226 -0.13786289
7.64392185 2.47822905 1.32422364 0.35072562 0.54353416 0.49318919
7.59275627 2.64517379 1.74494386 0.34837800 0.58014905 0.64988077
7.41842175 1.92471731 1.20640671 0.34037903 0.42213595 0.44930986
9.74074650 1.98825955 1.48432899 0.44693410 0.43607226 0.55281824
7.88242483 2.11423516 -0.06460168 0.36166885 0.46370170 -0.02406002
7.53147173 2.11889243 1.63906372 0.34556609 0.46472314 0.61044711
9.49972820 2.20299077 -0.11546706 0.43587548 0.48316789 -0.04300414
8.74282646 1.97856641 1.80215490 0.40114659 0.43394634 0.67118824
8.57726860 2.57349229 0.90362704 0.39355031 0.56442761 0.33654368
13.50985050 2.56716371 -0.18357149 0.61987168 0.56303960 -0.06836872
7.69428444 1.95802057 0.75421733 0.35303640 0.42944014 0.28089803
7.97517920 1.74064732 0.72351635 0.36592469 0.38176507 0.26946387
11.45750332 2.04135251 1.03315341 0.52570397 0.44771680 0.38478401
15.07585716 2.12400293 1.27705562 0.69172466 0.46584401 0.47562209
10.43895149 2.01111341 1.29945469 0.47896981 0.44108465 0.48396432
13.37773132 2.08470368 1.59721911 0.61380965 0.45722476 0.59486264
7.51354218 2.48970199 2.15066361 0.34474343 0.54605043 0.80098557
7.52784538 1.97563672 2.05086136 0.34539971 0.43330377 0.76381558
8.93862057 1.97104895 0.19712128 0.41013020 0.43229759 0.07341515
10.05920410 2.06511450 2.62201762 0.46154588 0.45292836 0.97653502
7.94514370 1.87307250 0.43837783 0.36454657 0.41080904 0.16326790
14.95723057 2.14874673 0.23972301 0.68628174 0.47127089 0.08928160
10.65981579 3.64451885 -0.30504212 0.48910370 0.79932904 -0.11360881
10.73598671 3.23991776 -0.37066293 0.49259865 0.71059048 -0.13804840
7.64131498 2.53051448 1.32655692 0.35060602 0.55500156 0.49405819
7.89345551 2.80545616 0.01584017 0.36217496 0.61530280 0.00589946
7.42313147 2.63893175 1.70907652 0.34059513 0.57878006 0.63652241
9.39323044 1.97959852 1.43209457 0.43098906 0.43417269 0.53336424
7.88247442 2.16746521 -0.06447603 0.36167112 0.47537631 -0.02401322
7.55181217 2.17600656 1.64659309 0.34649935 0.47724962 0.61325133
8.82003689 2.10532093 -0.11703672 0.40468925 0.46174660 -0.04358875
8.47056675 1.97360122 1.74756575 0.38865453 0.43285736 0.65085721
8.56853199 2.62964797 0.90455204 0.39314947 0.57674390 0.33688816
13.05007076 2.56417370 -0.18206856 0.59877563 0.56238383 -0.06780897
7.95243549 1.78813326 0.72225600 0.36488113 0.39217985 0.26899448
9.11695671 2.18264699 1.18233895 0.41831279 0.47870603 0.44034615
10.89475250 2.01080179 0.97685629 0.49988329 0.44101632 0.36381692
14.15773678 2.08668828 1.19207251 0.64959860 0.45766002 0.44397128
10.02779293 1.99653411 1.24447525 0.46010464 0.43788707 0.46348798
12.72977734 2.06671596 1.51479781 0.58407962 0.45327961 0.56416595
7.80219603 2.38646173 0.25093526 0.35798770 0.52340740 0.09345745
7.51968336 2.54421997 2.15705132 0.34502521 0.55800754 0.80336457
13.38284683 4.29111004 1.02035379 0.61404437 0.94114178 0.38001698
7.56188679 2.03557110 2.06380343 0.34696162 0.44644880 0.76863569
8.66085815 1.96756291 0.18717134 0.39738566 0.43153301 0.06970944
9.82241917 2.08136725 2.56290913 0.45068148 0.45649299 0.95452082
9.34598446 2.61594129 0.60754168 0.42882127 0.57373768 0.22627068
9.28155136 2.24622798 0.53631288 0.42586488 0.49265084 0.19974248
14.17018032 2.12769818 0.22018728 0.65016955 0.46665445 0.08200578
12.57563400 2.07187033 0.62123090 0.57700711 0.45441008 0.23136905
10.63293171 3.71009970 -0.30498278 0.48787019 0.81371248 -0.11358672
10.73453426 3.31317210 -0.37107801 0.49253201 0.72665685 -0.13820300
7.58226156 2.56405544 1.31889045 0.34789646 0.56235790 0.49120292
7.90196896 2.86460137 0.01635385 0.36256558 0.62827474 0.00609077
7.49092960 2.71592212 1.72895479 0.34370589 0.59566587 0.64392585
9.07134819 1.97205675 1.38378537 0.41622016 0.43251860 0.51537216
7.89947796 2.22570324 -0.06418882 0.36245129 0.48814929 -0.02390626
7.54923725 2.22676158 1.64910281 0.34638122 0.48838139 0.61418605
8.47236061 2.07947779 -0.11782615 0.38873684 0.45607859 -0.04388276
8.18156624 1.96122599 1.68936396 0.37539434 0.43014318 0.62918079
8.56743145 2.67352176 0.90593952 0.39309895 0.58636647 0.33740494
12.46355629 2.50907445 -0.18012007 0.57186460 0.55029929 -0.06708328
7.94973946 1.82691014 0.72288615 0.36475745 0.40068454 0.26922917
7.88046265 1.92875028 1.00449955 0.36157882 0.42302048 0.37411228
10.60175610 2.00789213 0.94780618 0.48643976 0.44037816 0.35299760
9.67857170 1.97376215 1.19754148 0.44408134 0.43289265 0.44600812
12.14059162 2.03076339 1.43949950 0.55704606 0.44539437 0.53612214
7.87295341 2.44851041 0.25503021 0.36123428 0.53701615 0.09498256
7.50578594 2.57900548 2.15651894 0.34438753 0.56563681 0.80316633
8.84607220 2.88969541 0.62891787 0.40588382 0.63377845 0.23423196
7.50380564 2.05777287 2.05034351 0.34429669 0.45131817 0.76362270
8.38852119 1.94794285 0.17729457 0.38489002 0.42722985 0.06603096
9.32029343 2.02194977 2.43266964 0.42764249 0.44346133 0.90601492
9.32397079 2.65720129 0.60677546 0.42781121 0.58278698 0.22598532
7.79617119 1.92901671 0.42907754 0.35771129 0.42307892 0.15980412
13.49993801 2.09311628 0.20349945 0.61941689 0.45906982 0.07579062
12.20542526 2.07059288 0.59946424 0.56002080 0.45412990 0.22326235
10.68503189 3.78499603 -0.30608082 0.49026069 0.83013898 -0.11399566
10.72262001 3.36491108 -0.37116104 0.49198535 0.73800445 -0.13823391
7.55702734 2.59530711 1.31655717 0.34673864 0.56921214 0.49033391
7.87713194 2.89763713 0.01613370 0.36142600 0.63552022 0.00600878
7.50556374 2.76123548 1.73543680 0.34437734 0.60560417 0.64633995
8.77039051 1.95062780 1.33819354 0.40241131 0.42781875 0.49839208
7.85816574 2.25400472 -0.06447603 0.36055577 0.49435645 -0.02401322
7.57048035 2.27195048 1.65621388 0.34735590 0.49829239 0.61683446
8.14022827 2.03947425 -0.11858803 0.37349764 0.44730487 -0.04416651
7.99323177 1.95641506 1.65163314 0.36675298 0.42908803 0.61512846
8.54667568 2.72610068 0.90547699 0.39214662 0.59789824 0.33723265
12.03843212 2.50161433 -0.17873017 0.55235869 0.54866308 -0.06656564
7.96521759 1.88316274 0.72582704 0.36546761 0.41302207 0.27032447
7.70675325 1.93806815 0.98104817 0.35360852 0.42506412 0.36537811
12.91423798 2.05051303 1.07728052 0.59254324 0.44972593 0.40121856
11.59582329 2.01552153 1.37030625 0.53205049 0.44205147 0.51035202
7.86503458 2.50033116 0.25541112 0.36087093 0.54838169 0.09512442
7.50217962 2.63054705 2.16024494 0.34422207 0.57694107 0.80455405
12.54771900 4.17729568 0.95199221 0.57572627 0.91617960 0.35455662
7.82344294 2.15613341 0.21115246 0.35896257 0.47289097 0.07864088
7.53533077 2.11753869 2.06276798 0.34574315 0.46442625 0.76825005
8.12520218 1.94130659 0.16785677 0.37280819 0.42577437 0.06251598
8.87069607 1.98383081 2.31695700 0.40701362 0.43510094 0.86291933
9.34726620 2.72754717 0.60999346 0.42888007 0.59821552 0.22718382
7.63685083 1.94099343 0.41836807 0.35040119 0.42570570 0.15581553
12.86857128 2.07905006 0.18786088 0.59044790 0.45598477 0.06996624
9.27172279 1.97265661 0.48069468 0.42541391 0.43265018 0.17902823
11.51363945 2.02888846 0.55842870 0.52827966 0.44498315 0.20797922
10.67231655 3.85615444 -0.30625886 0.48967728 0.84574574 -0.11406197
10.73174858 3.44193196 -0.37182516 0.49240419 0.75489694 -0.13848126
7.63370609 2.67511272 1.33322346 0.35025689 0.58671540 0.49654105
7.89992380 2.96262002 0.01694090 0.36247176 0.64977252 0.00630941
7.84850550 2.64556408 -0.03244549 0.36011252 0.58023465 -0.01208389
7.51002789 2.81651235 1.74062252 0.34458217 0.61772764 0.64827132
7.86494064 2.30958509 -0.06427858 0.36086661 0.50654656 -0.02393969
7.54297876 2.31542087 1.65328574 0.34609407 0.50782645 0.61574394
7.88304710 2.02839351 -0.11916633 0.36169741 0.44487458 -0.04438189
7.65945482 1.92665207 1.58379805 0.35143831 0.42256030 0.58986419
11.63932228 2.49440622 -0.17742676 0.53404635 0.54708219 -0.06608020
10.83935070 2.02422428 2.11945128 0.49734131 0.44396019 0.78936094
7.93775797 1.92945242 0.72414654 0.36420768 0.42317447 0.26969859
7.68483019 1.98400187 0.97965229 0.35260263 0.43513846 0.36485824
11.79615498 2.39042425 1.07322252 0.54124230 0.52427649 0.39970723
12.32134247 2.03674912 1.02266181 0.56533945 0.44670719 0.38087657
11.10642624 2.00327873 1.30823600 0.50959551 0.43936634 0.48723480
7.91001797 2.56929898 0.25845852 0.36293489 0.56350791 0.09625939
7.52184105 2.69052601 2.17089081 0.34512419 0.59009588 0.80851895
11.82259750 4.01978207 0.89118981 0.54245555 0.88163310 0.33191159
7.84432983 2.21510720 0.21269982 0.35992092 0.48582533 0.07921717
7.53486300 2.16861653 2.06639171 0.34572169 0.47562882 0.76959968
7.91474533 1.94418287 0.16039431 0.36315179 0.42640522 0.05973669
8.58998108 1.97843575 2.24582624 0.39413360 0.43391767 0.83642763
9.32421589 2.78449965 0.60953373 0.42782247 0.61070651 0.22701259
12.30499554 2.06829548 0.17392105 0.56458938 0.45362604 0.06477454
11.05274200 2.02015924 0.53130955 0.50713235 0.44306862 0.19787906
10.64412594 3.92174459 -0.30619952 0.48838383 0.86013120 -0.11403987
10.72321987 3.51362753 -0.37211570 0.49201289 0.77062148 -0.13858946
7.64462614 2.73291135 1.33822334 0.35075793 0.59939200 0.49840319
7.87555504 3.01004267 0.01683083 0.36135364 0.66017342 0.00626841
7.89607668 2.71679044 -0.03158011 0.36229524 0.59585631 -0.01176159
7.51044130 2.87056899 1.74494386 0.34460115 0.62958354 0.64988077
8.24843407 1.94481623 1.26029491 0.37846243 0.42654413 0.46937981
7.87132692 2.36533928 -0.06408112 0.36115965 0.51877475 -0.02386615
7.94754696 2.09811234 -0.11898274 0.36465684 0.46016559 -0.04431351
7.59024811 1.96018958 1.57175624 0.34826291 0.42991588 0.58537936
11.72415066 3.89450502 1.29929209 0.53793854 0.85415691 0.48390377
11.23884201 2.48184991 -0.17611668 0.51567113 0.54432827 -0.06559227
10.83027172 2.09304142 2.12021804 0.49692473 0.45905340 0.78964657
14.14081097 2.58909750 -0.25230855 0.64882201 0.56785023 -0.09396891
7.78259373 1.94398260 0.70860189 0.35708830 0.42636129 0.26390919
11.82535076 2.03198147 0.97711527 0.54258186 0.44566151 0.36391336
10.67227840 1.99507356 1.25328851 0.48967552 0.43756676 0.46677035
7.91837025 2.93732119 0.31197995 0.36331812 0.64422387 0.11619271
7.88423061 2.61582589 0.25798237 0.36175171 0.57371241 0.09608205
7.50478792 2.73773384 2.17089081 0.34434175 0.60044968 0.80851895
11.71985817 4.06731892 0.88445222 0.53774160 0.89205909 0.32940227
7.50257206 2.21040845 2.06121492 0.34424007 0.48479477 0.76767164
7.84032106 1.97838199 0.15805316 0.35973701 0.43390590 0.05886476
8.30215454 1.96782553 2.17269158 0.38092726 0.43159062 0.80918962
11.77557755 2.05633426 0.16083060 0.54029816 0.45100266 0.05989918
10.81809139 2.04801106 0.51786894 0.49636588 0.44917718 0.19287328
10.72939205 3.59040070 -0.37273833 0.49229607 0.78745967 -0.13882135
7.63843060 2.78491473 1.34022319 0.35047367 0.61079758 0.49914801
7.88068771 3.06895804 0.01730781 0.36158913 0.67309499 0.00644606
7.45533514 3.36839128 1.82336915 0.34207273 0.73876774 0.67908919
7.86751986 2.76240158 -0.03173283 0.36098495 0.60585988 -0.01181846
7.50136423 2.92122149 1.74710453 0.34418467 0.64069283 0.65068543
7.93998098 1.92558169 1.21379733 0.36430970 0.42232552 0.45206240
7.82383633 2.40468001 -0.06438628 0.35898063 0.52740312 -0.02397980
7.51142693 2.40942144 1.65286756 0.34464636 0.52844304 0.61558819
7.93034363 2.14697075 -0.11899192 0.36386749 0.47088137 -0.04431693
7.57020140 2.00585389 1.57015073 0.34734312 0.43993112 0.58478141
10.06173420 3.78999448 1.17336643 0.46166196 0.83123529 0.43700445
11.66368484 3.95602798 1.29489839 0.53516418 0.86765033 0.48226741
10.92476749 2.48402953 -0.17509921 0.50126046 0.54480636 -0.06521333
10.41283321 2.07954574 2.03970957 0.47777143 0.45609349 0.75966227
13.65255451 2.58915234 -0.24848697 0.62641937 0.56786227 -0.09254561
7.73938084 1.98501575 0.70524091 0.35510555 0.43536082 0.26265743
8.29232883 2.25061750 1.07206178 0.38047644 0.49361357 0.39927492
11.42797947 2.03837705 0.94082618 0.52434933 0.44706422 0.35039797
10.26986313 1.98746490 1.20241117 0.47121152 0.43589798 0.44782180
7.86195850 2.66340303 0.25769669 0.36072978 0.58414716 0.09597564
7.51095057 2.79351020 2.17781067 0.34462452 0.61268276 0.81109613
9.29844666 3.66877580 0.73678756 0.42664009 0.80464917 0.27440655
10.20322609 3.61571598 0.75413793 0.46815404 0.79301190 0.28086847
7.49777651 2.26031661 2.06380343 0.34402004 0.49574080 0.76863569
8.01669312 1.95413303 2.10005808 0.36782947 0.42858753 0.78213823
9.16995811 2.51121640 0.53335369 0.42074466 0.55076903 0.19864036
11.27633476 2.04310012 0.14848961 0.51739144 0.44810009 0.05530295
7.96028900 1.84824610 0.39535546 0.36524147 0.40536401 0.14724480
15.72644711 3.07026958 0.81653631 0.72157568 0.67338264 0.30410790
10.72744751 3.66481757 -0.37319490 0.49220684 0.80378103 -0.13899140
7.63743353 2.83899570 1.34322321 0.35042793 0.62265879 0.50026530
7.91324520 3.13918352 0.01833516 0.36308298 0.68849707 0.00682868
7.45349646 3.42417216 1.82824087 0.34198835 0.75100183 0.68090361
7.88015747 2.82249618 -0.03132559 0.36156482 0.61904007 -0.01166679
7.51193333 2.97974324 1.75401866 0.34466961 0.65352803 0.65326053
7.69929314 1.91911447 1.17786729 0.35326621 0.42090711 0.43868074
7.92633963 2.19940567 -0.11896897 0.36368379 0.48238161 -0.04430838
7.57636976 2.05846715 1.57416463 0.34762615 0.45147046 0.58627635
10.05068684 3.85814381 1.17506254 0.46115509 0.84618205 0.43763614
10.54883194 2.46766853 -0.17386894 0.48401144 0.54121798 -0.06475513
9.67892933 1.99485862 1.89594460 0.44409776 0.43751961 0.70611894
13.16094780 2.58241320 -0.24463354 0.60386300 0.56638420 -0.09111045
8.11955833 2.25899863 1.04888964 0.37254924 0.49545175 0.39064476
10.84687519 2.00615716 0.88713312 0.49768654 0.43999764 0.33040074
7.88286114 2.72571301 0.25960132 0.36168885 0.59781325 0.09668500
7.50588083 2.84539914 2.18153667 0.34439188 0.62406319 0.81248385
7.52031851 2.31886172 2.07415700 0.34505433 0.50858116 0.77249175
7.78391504 2.06861210 0.15688257 0.35714892 0.45369548 0.05842879
7.71670723 1.93320775 2.02341723 0.35406524 0.42399812 0.75359440
9.29622555 2.60836625 0.54378134 0.42653817 0.57207632 0.20252401
10.82295513 2.03207922 0.13729778 0.49658903 0.44568297 0.05113470
9.88321018 2.00173211 0.46267912 0.45347077 0.43902713 0.17231858
10.71932316 3.73738647 -0.37352696 0.49183407 0.81969708 -0.13911507
7.75972843 2.93967867 1.36855578 0.35603917 0.64474094 0.50970012
7.89151287 3.18808818 0.01829847 0.36208582 0.69922304 0.00681502
7.44948578 3.47923279 1.83266985 0.34180433 0.76307791 0.68255311
7.88670921 2.88081336 -0.03099471 0.36186543 0.63183039 -0.01154356
7.50937462 3.03342462 1.75790787 0.34455219 0.66530162 0.65470904
7.48967409 1.91746581 1.14676821 0.34364828 0.42054552 0.42709830
7.54170752 2.52426147 1.66667128 0.34603572 0.55363017 0.62072921
7.93931580 2.25675392 -0.11890472 0.36427918 0.49495941 -0.04428446
7.57084179 2.10811257 1.57577026 0.34737250 0.46235886 0.58687431
9.37222195 3.66400576 1.08928943 0.43002513 0.80360299 0.40569112
10.07804871 3.56289506 1.10550642 0.46241054 0.78142703 0.41173092
10.60308933 2.55087113 -0.17410834 0.48650095 0.55946630 -0.06484430
12.64841652 2.56526327 -0.24060497 0.58034658 0.56262279 -0.08961006
8.02896881 2.28844237 1.03772235 0.36839271 0.50190943 0.38648567
10.54252625 2.01901126 0.85954601 0.48372212 0.44281685 0.32012630
9.28057671 3.64701104 0.39328367 0.42582017 0.79987562 0.14647318
7.87500715 2.77848887 0.26007748 0.36132851 0.60938823 0.09686234
7.50405550 2.89871478 2.18632746 0.34430814 0.63575661 0.81426811
12.26433563 4.51587439 0.93917441 0.56272382 0.99043787 0.34978282
7.50191832 2.36489582 2.07312155 0.34421009 0.51867747 0.77210611
7.76497507 2.11591697 0.15666309 0.35627991 0.46407056 0.05834705
7.44545937 1.91575563 1.95429015 0.34161958 0.42017046 0.72784895
9.30459404 2.67383504 0.54561317 0.42692214 0.58643514 0.20320624
10.38980961 2.01922154 0.12660559 0.47671503 0.44286296 0.04715254
9.49898434 1.98690534 0.44007984 0.43584135 0.43577525 0.16390179
10.70128441 3.80666423 -0.37365150 0.49100640 0.83489138 -0.13916145
8.05414963 3.10834312 1.42522097 0.36954808 0.68173307 0.53080428
7.90642834 3.25214529 0.01899560 0.36277020 0.71327227 0.00707465
7.49435139 3.55791926 1.84949958 0.34386289 0.78033572 0.68882114
7.89283800 2.93932390 -0.03066383 0.36214662 0.64466316 -0.01142033
7.50282192 3.08571482 1.76093280 0.34425154 0.67677015 0.65583563
7.90576267 2.30105162 -0.11895061 0.36273965 0.50467497 -0.04430155
7.53293467 2.14871645 1.57055211 0.34563321 0.47126424 0.58493090
10.06676006 3.61234927 1.10620010 0.46189258 0.79227352 0.41198927
10.54629898 2.58975506 -0.17395538 0.48389521 0.56799442 -0.06478733
9.03908253 1.96550405 1.77249849 0.41473970 0.43108144 0.66014308
12.11319447 2.51706028 -0.23635347 0.55578899 0.55205077 -0.08802666
12.86676121 2.07943559 2.39155030 0.59036487 0.45606932 0.89070058
8.61571121 2.69258785 0.87648559 0.39531419 0.59054810 0.32643521
8.81891918 2.42199111 0.82728732 0.40463796 0.53119987 0.30811197
7.94074059 1.85070860 0.68234837 0.36434454 0.40590411 0.25413144
11.85629749 2.32598329 0.98489147 0.54400182 0.51014304 0.36680952
9.23211861 1.95473647 1.07114780 0.42359677 0.42871988 0.39893451
7.86747360 2.81757498 0.26036316 0.36098284 0.61796075 0.09696874
7.52624941 2.94801664 2.19697309 0.34532645 0.64656967 0.81823289
10.80957890 4.48612213 0.88627779 0.49597529 0.98391253 0.33008218
7.43738365 2.38298845 2.05810881 0.34124905 0.52264565 0.76651478
7.69710207 2.13659477 0.15446825 0.35316569 0.46860570 0.05752961
7.53942823 1.97757030 1.98184085 0.34593114 0.43372786 0.73810983
9.30147076 2.72043204 0.54631776 0.42677885 0.59665501 0.20346867
10.01336288 1.99580741 0.11726242 0.45944256 0.43772769 0.04367280
7.81108236 1.95612454 0.38753814 0.35839543 0.42902431 0.14433333
9.17116165 1.96418583 0.42069203 0.42079988 0.43079233 0.15668106
10.72086716 3.87056327 -0.37448165 0.49190491 0.84890592 -0.13947062
7.45116425 3.58046031 1.84285629 0.34188133 0.78527951 0.68634689
7.88451672 2.97859192 -0.03058747 0.36176482 0.65327555 -0.01139189
7.50804520 3.12925053 1.76568639 0.34449121 0.68631852 0.65760601
7.92169857 2.34616613 -0.11888636 0.36347082 0.51456964 -0.04427762
7.55662012 2.19393635 1.57777715 0.34671995 0.48118204 0.58762175
10.00827789 4.04167843 1.17845476 0.45920923 0.88643551 0.43889955
10.05879974 3.68096209 1.10805011 0.46152732 0.80732191 0.41267827
8.97721577 2.26125574 -0.16862862 0.41190109 0.49594679 -0.06280345
8.76235580 1.96245921 1.71959293 0.40204266 0.43041363 0.64043915
11.70785618 2.51034236 -0.23318475 0.53719091 0.55057734 -0.08684651
12.27933502 2.06467080 2.28323531 0.56341201 0.45283106 0.85036010
8.74988651 2.46238756 0.82140553 0.40147054 0.54005975 0.30592138
8.46878433 2.51357150 1.10612214 0.38857275 0.55128556 0.41196024
12.01928425 2.89180946 1.10607910 0.55148011 0.63424212 0.41194421
11.84144878 2.40043211 0.98489147 0.54332054 0.52647144 0.36680952
7.72266769 1.96677351 0.93927193 0.35433871 0.43135989 0.34981912
7.85712767 2.86967492 0.26074409 0.36050814 0.62938750 0.09711061
7.52550173 3.00234580 2.20229602 0.34529215 0.65848535 0.82021534
7.81819391 2.22283888 0.15958954 0.35872173 0.48752105 0.05943697
7.56801796 2.03586149 1.99286115 0.34724292 0.44651249 0.74221420
9.66757584 1.99081469 0.10876861 0.44357681 0.43663266 0.04050940
8.90898132 1.96722627 0.40546724 0.40877026 0.43145919 0.15101080
10.70572376 3.94128513 -0.37468919 0.49121010 0.86441690 -0.13954793
7.82512712 3.11976862 1.38988853 0.35903984 0.68423891 0.51764518
7.43552256 3.63064671 1.84462786 0.34116367 0.79628658 0.68700671
7.82828522 3.01379323 -0.03109652 0.35918477 0.66099602 -0.01158148
7.50983095 3.18545961 1.77087200 0.34457314 0.69864649 0.65953732
7.90871620 2.39646816 -0.11888177 0.36287516 0.52560204 -0.04427591
7.54080629 2.24081922 1.57737577 0.34599438 0.49146456 0.58747226
9.99185944 4.10827446 1.17966616 0.45845592 0.90104163 0.43935069
10.06713676 3.75583529 1.11198139 0.46190986 0.82374334 0.41414243
8.48412228 1.95557141 1.66630411 0.38927650 0.42890298 0.62059242
11.31286430 2.50077486 -0.23009565 0.51906753 0.54847896 -0.08569601
11.70231247 2.04428530 2.17674971 0.53693652 0.44836003 0.81070101
8.51240635 2.45391726 0.79703826 0.39057425 0.53820199 0.29684612
8.43955040 2.56273532 1.10416782 0.38723141 0.56206834 0.41123238
10.42606258 4.30945921 0.46309417 0.47837842 0.94516617 0.17247316
7.69546509 3.60694623 2.37943482 0.35309058 0.79108846 0.88618833
7.71339512 2.87258291 0.25436357 0.35391325 0.63002527 0.09473427
7.45463991 3.02865744 2.18685961 0.34204081 0.66425610 0.81446630
8.56110954 3.67524099 0.67730546 0.39280888 0.80606711 0.25225326
7.55134106 2.08235264 1.99185932 0.34647775 0.45670912 0.74184108
8.00862217 2.45485091 0.45345560 0.36745915 0.53840679 0.16888340
9.44453716 2.01043463 2.36850595 0.43334314 0.44093579 0.88211799
9.32617378 1.98238122 0.10037474 0.42791229 0.43478301 0.03738322
8.60428524 1.95740747 0.38762569 0.39478993 0.42930567 0.14436595
9.28135109 3.76395440 1.65888131 0.42585570 0.82552409 0.61782789
7.47712994 3.70952201 1.86101472 0.34307271 0.81358576 0.69310975
7.87814474 3.08977079 -0.03015479 0.36147246 0.67765969 -0.01123074
7.50582123 3.23950624 1.77476120 0.34438917 0.71050024 0.66098583
7.69573545 2.16392183 1.18692529 0.35310298 0.47459915 0.44205427
7.91644478 2.45316005 -0.11882669 0.36322978 0.53803593 -0.04425539
7.54158640 2.29267526 1.58058691 0.34603018 0.50283784 0.58866823
10.00793648 4.18868160 1.18523908 0.45919356 0.91867679 0.44142628
10.05448914 3.82322979 1.11336887 0.46132955 0.83852458 0.41465917
10.59221172 2.81393099 -0.17428789 0.48600185 0.61716151 -0.06491116
8.24260139 1.95395708 1.62029934 0.37819481 0.42854893 0.60345858
10.93797779 2.49075150 -0.22716577 0.50186658 0.54628062 -0.08460482
11.22475529 2.03444195 2.08892679 0.51502478 0.44620115 0.77799255
11.67023945 3.89789867 1.24507868 0.53546494 0.85490119 0.46371272
8.48918533 2.50511932 0.79619801 0.38950881 0.54943180 0.29653317
8.49520302 2.63786387 1.11477673 0.38978490 0.57854581 0.41518351
7.73479033 1.95667183 0.66471797 0.35489494 0.42914435 0.24756522
9.29324913 3.90742588 0.39913666 0.42640162 0.85699075 0.14865305
7.82231665 2.96888566 0.26083931 0.35891089 0.65114671 0.09714607
7.58526421 3.13695359 2.23157215 0.34803423 0.68800801 0.83111888
7.54556704 2.13184404 1.99386299 0.34621280 0.46756375 0.74258733
8.00066090 2.50748968 0.45401925 0.36709386 0.54995167 0.16909333
9.01458073 1.97609615 0.09273032 0.41361549 0.43340454 0.03453615
8.31368923 1.94699430 0.37061676 0.38145652 0.42702183 0.13803120
7.52160645 3.56783342 1.41666615 0.34511343 0.78251010 0.52761817
9.27393723 3.82893610 1.66188121 0.42551553 0.83977610 0.61894518
7.88979912 3.46500158 0.02024309 0.36200720 0.75995666 0.00753926
7.41192627 3.73526096 1.85038543 0.34008098 0.81923091 0.68915105
7.84742260 3.13478494 -0.03030750 0.36006284 0.68753237 -0.01128762
7.49247885 3.28972507 1.77648973 0.34377697 0.72151440 0.66162956
7.68008614 2.21169043 1.18662333 0.35238495 0.48507595 0.44194183
7.52169704 2.76996374 1.68005681 0.34511760 0.60751843 0.62571442
7.91423130 2.50704694 -0.11879457 0.36312822 0.54985458 -0.04424343
7.52515984 2.33943820 1.58018553 0.34527647 0.51309407 0.58851874
9.99054623 4.25538683 1.18645048 0.45839566 0.93330681 0.44187742
10.06178284 3.89846992 1.11730003 0.46166420 0.85502648 0.41612330
8.28688526 2.25277138 -0.16640083 0.38022667 0.49408597 -0.06197374
7.98619699 1.94563234 1.57122755 0.36643022 0.42672312 0.58518243
10.59095001 2.48245764 -0.22445883 0.48594394 0.54446161 -0.08359665
10.77873230 2.02443123 2.00695848 0.49455994 0.44400558 0.74746454
11.62483788 3.96405721 1.24261987 0.53338176 0.86941135 0.46279696
8.47708797 2.55954981 0.79661816 0.38895375 0.56136972 0.29668966
9.97737026 3.56094670 1.40776336 0.45779109 0.78099972 0.52430242
8.48223972 2.69237804 1.11533511 0.38919011 0.59050208 0.41539147
9.17235756 2.18430161 1.07013023 0.42085475 0.47906893 0.39855555
10.08856392 4.31857443 0.44670573 0.46289301 0.94716537 0.16636951
7.75501823 2.99935794 0.25836331 0.35582304 0.65783000 0.09622392
7.58852768 3.19421721 2.23849201 0.34818399 0.70056725 0.83369607
7.78256083 2.37211657 0.15988219 0.35708678 0.52026117 0.05954596
7.54877567 2.18401170 1.99837124 0.34636003 0.47900534 0.74426633
7.99045181 2.55952144 0.45444199 0.36662543 0.56136352 0.16925077
8.72100830 1.96990108 0.08553557 0.40014553 0.43204582 0.03185657
8.08766365 1.94828212 0.35753298 0.37108579 0.42730427 0.13315833
7.51854086 3.62448144 1.42044294 0.34497279 0.79493439 0.52902478
9.27698898 3.89853501 1.66688108 0.42565554 0.85504079 0.62080729
7.89523029 3.52680397 0.02079345 0.36225641 0.77351141 0.00774424
7.46460438 3.82104516 1.86987257 0.34249800 0.83804542 0.69640875
7.86465645 3.19901085 -0.02979845 0.36085358 0.70161861 -0.01109803
7.49843597 3.34861398 1.78297174 0.34405032 0.73443013 0.66404372
7.69260740 2.26766086 1.19085038 0.35295945 0.49735159 0.44351611
7.90784454 2.55978012 -0.11877162 0.36283517 0.56142020 -0.04423488
7.51591873 2.38843942 1.58138967 0.34485248 0.52384114 0.58896720
8.44020557 3.65446258 0.98364794 0.38726145 0.80150992 0.36634639
9.26596069 3.65892887 1.02086973 0.42514953 0.80248952 0.38020912
10.62766171 2.56150794 -0.22488876 0.48762840 0.56179917 -0.08375677
10.76193810 2.09137249 2.00622678 0.49378937 0.45868737 0.74719203
10.25651646 3.56705856 1.08257580 0.47059914 0.78234017 0.40319070
8.74609852 2.70013499 0.82812756 0.40129673 0.59220338 0.30842492
9.98639107 3.63513398 1.41267645 0.45820501 0.79727072 0.52613223
8.51982594 2.76321411 1.12343144 0.39091468 0.60603809 0.41840684
7.90523577 1.81731021 0.61570561 0.36271548 0.39857903 0.22931123
7.84556675 1.92350972 0.89689296 0.35997769 0.42187110 0.33403566
8.29021072 3.60665298 0.34369266 0.38037926 0.79102415 0.12800369
7.76950788 3.06112456 0.26007748 0.35648787 0.67137688 0.09686234
7.41396999 3.17617488 2.19218254 0.34017476 0.69661015 0.81644875
7.87826014 2.45518589 0.16412555 0.36147776 0.53848022 0.06112634
7.55534172 2.23739362 2.00388145 0.34666130 0.49071327 0.74631858
12.30909729 4.52109623 0.86942589 0.56477761 0.99158317 0.32380593
8.28541470 2.71068716 0.47755185 0.38015920 0.59451771 0.17785773
8.43177795 1.96099401 0.07844076 0.38687479 0.43009230 0.02921420
7.84256744 1.94205844 0.34325975 0.35984007 0.42593926 0.12784246
7.48855019 3.66816568 1.41906953 0.34359673 0.80451536 0.52851325
9.26682949 3.96292067 1.66954768 0.42518941 0.86916208 0.62180048
7.75288248 3.52147436 0.01837185 0.35572505 0.77234250 0.00684235
7.47847176 3.88775396 1.87961614 0.34313428 0.85267627 0.70003760
7.92393017 3.28107238 -0.02870400 0.36357322 0.71961665 -0.01069042
7.48436832 3.39887381 1.78470027 0.34340483 0.74545330 0.66468745
7.67441893 2.31481743 1.19024658 0.35212493 0.50769413 0.44329125
7.90110683 2.61253190 -0.11874867 0.36252603 0.57298994 -0.04422634
7.49143839 2.43261433 1.57938278 0.34372923 0.53352976 0.58821976
10.03122997 4.01400900 1.11891878 0.46026236 0.88036698 0.41672617
10.61158657 2.61061263 -0.22485691 0.48689082 0.57256901 -0.08374491
10.32757187 2.05833220 1.92572224 0.47385937 0.45144087 0.71720922
10.08040142 3.55880904 1.06357622 0.46251848 0.78053087 0.39611459
11.98810482 3.75505018 1.18817496 0.55004954 0.82357121 0.44251969
10.00996208 3.69731617 1.41903460 0.45928651 0.81090873 0.52850026
8.24318600 2.71715212 1.08434582 0.37822163 0.59593564 0.40384993
7.74976110 1.93901265 0.88544559 0.35558185 0.42527127 0.32977223
7.90249109 3.48135829 0.32208970 0.36258954 0.76354408 0.11995795
7.75128269 3.09623027 0.25988701 0.35565165 0.67907643 0.09679140
7.60960102 3.30188036 2.25552535 0.34915090 0.72418034 0.84003991
10.80981731 4.49187899 0.82677215 0.49598622 0.98517513 0.30792010
7.46991014 2.69497228 2.09331131 0.34274146 0.59107107 0.77962548
7.92762089 2.51145005 0.16646670 0.36374256 0.55082029 0.06199827
7.53172684 2.26909614 2.00037503 0.34557778 0.49766636 0.74501264
12.23536491 4.55947256 0.86513525 0.56139451 1.00000000 0.32220793
8.78220940 2.91778708 0.51545763 0.40295359 0.63993961 0.19197522
8.16163540 1.93939948 0.07174564 0.37447983 0.42535609 0.02672069
7.80814934 1.97270012 0.34171346 0.35826087 0.43265972 0.12726656
7.50644493 3.72100115 1.42593646 0.34441778 0.81610340 0.53107077
8.39502811 3.63903141 1.51255190 0.38518858 0.79812551 0.56332952
7.88682508 3.62767935 0.02141720 0.36187074 0.79563576 0.00797655
7.45489597 3.92021632 1.87828743 0.34205255 0.85979599 0.69954276
7.87884617 3.30606604 -0.02911124 0.36150464 0.72509837 -0.01084209
7.49668741 3.44708800 1.79161453 0.34397006 0.75602782 0.66726261
7.61903667 2.77959752 1.27862024 0.34958380 0.60963136 0.47620481
7.69369078 2.36015725 1.19507742 0.35300916 0.51763821 0.44509041
7.87044096 2.94399405 -0.06242969 0.36111900 0.64568740 -0.02325109
7.46542883 2.89666104 1.67838359 0.34253585 0.63530618 0.62509125
7.90578508 2.65542531 -0.11870736 0.36274067 0.58239746 -0.04421095
7.50223827 2.47519875 1.58419943 0.34422475 0.54286951 0.59001368
10.06104565 4.09934187 1.12585616 0.46163037 0.89908248 0.41930991
7.56048632 1.97987294 1.49225271 0.34689736 0.43423289 0.55576932
8.99455833 2.27599454 -0.21172026 0.41269681 0.49917933 -0.07885235
9.61892414 1.98141313 1.79362166 0.44134453 0.43457070 0.66801012
10.06344795 3.62410641 1.06424677 0.46174061 0.79485214 0.39636433
12.00217819 3.84236622 1.19237614 0.55069524 0.84272164 0.44408438
7.83967161 2.94712377 1.08378696 0.35970721 0.64637381 0.40364179
8.03435230 2.70489812 1.05586922 0.36863971 0.59324801 0.39324421
8.54541874 2.51075602 1.06612706 0.39208895 0.55066806 0.39706460
7.66821051 1.97007453 0.87628770 0.35184005 0.43208387 0.32636151
7.78760815 3.48907495 0.31666237 0.35731837 0.76523650 0.11793662
7.79280281 3.16956186 0.26302963 0.35755673 0.69515973 0.09796183
7.41214514 3.27221107 2.20229602 0.34009102 0.71767318 0.82021534
7.46913195 2.74789834 2.09797025 0.34270576 0.60267901 0.78136063
7.77086210 2.51600337 0.16105276 0.35655001 0.55181897 0.05998192
7.52843237 2.31976652 2.00338054 0.34542662 0.50877959 0.74613202
12.48457527 4.22602797 0.79277587 0.57282907 0.92686772 0.29525864
7.95106077 1.94272923 0.06664936 0.36481807 0.42608640 0.02482265
7.47412920 3.76363969 1.42421973 0.34293503 0.82545507 0.53043139
7.51768732 3.31725693 1.35488951 0.34493360 0.72755277 0.50461030
7.81502199 3.65417790 0.02042654 0.35857621 0.80144751 0.00760759
7.42324448 3.96328831 1.87651587 0.34060031 0.86924273 0.69888294
7.48196507 3.49741292 1.79334307 0.34329456 0.76706523 0.66790640
7.66927004 2.40551662 1.19356775 0.35188869 0.52758658 0.44452816
7.86672401 2.99912262 -0.06228609 0.36094844 0.65777838 -0.02319761
7.47070265 2.95291615 1.68382144 0.34277782 0.64764422 0.62711650
7.89083815 2.70569038 -0.11870277 0.36205488 0.59342182 -0.04420924
7.48468018 2.52166677 1.58379805 0.34341913 0.55306107 0.58986419
10.01672554 4.15489912 1.12354374 0.45959684 0.91126752 0.41844869
10.61086941 2.75222707 -0.22512761 0.48685792 0.60362840 -0.08384573
9.30804729 1.97906590 1.73690271 0.42708060 0.43405589 0.64688593
10.07217216 3.69897246 1.06804669 0.46214089 0.81127203 0.39777955
8.81918907 2.89022255 0.84157157 0.40465033 0.63389403 0.31343195
7.80992174 2.99204850 1.08205295 0.35834220 0.65622687 0.40299597
8.01344967 2.75404739 1.05531085 0.36768064 0.60402763 0.39303625
7.72567320 1.91754150 0.60163432 0.35447663 0.42056212 0.22407056
8.57309914 2.57762289 1.07229543 0.39335901 0.56533355 0.39936194
7.68447351 2.02572751 0.88010347 0.35258624 0.44428989 0.32778263
