7.57091427 2.35637832 0.87781399 0.43020955 0.52067834 0.33325306
3.27186823 1.85341156 1.03334832 0.18592060 0.40954003 0.39230007
3.48865104 1.86894679 1.27789247 0.19823906 0.41297278 0.48513874
5.08772516 1.85913026 1.36671007 0.28910482 0.41080365 0.51885742
4.17851830 1.88373196 1.44945359 0.23744008 0.41623977 0.55027014
4.78295994 1.87746954 1.57926607 0.27178687 0.41485602 0.59955209
6.37613344 1.89505792 1.62083018 0.36231732 0.41874242 0.61533153
6.28267813 1.87840939 0.02597905 0.35700682 0.41506368 0.00986268
8.00327110 1.92580032 1.92450976 0.45477778 0.42553544 0.73062032
12.75903606 3.98898530 0.65834135 0.72501934 0.88142812 0.24993253
7.32255697 1.91942239 2.18353629 0.41609690 0.42412615 0.82895708
3.72424936 1.90333724 -0.19992720 0.21162669 0.42057186 -0.07590030
4.03125668 1.90730608 -0.23044994 0.22907208 0.42144886 -0.08748795
3.62104106 1.83192110 0.65190840 0.20576200 0.40479136 0.24749032
3.55115724 1.87110817 -0.06421950 0.20179091 0.41345036 -0.02438027
3.69494629 2.20661569 0.94290400 0.20996158 0.48758596 0.35796380
3.78174591 1.85624313 -0.08424092 0.21489388 0.41016570 -0.03198120
3.87635684 2.06610823 0.93771410 0.22027005 0.45653865 0.35599351
5.01150799 2.11337352 -0.27252248 0.28477386 0.46698263 -0.10346036
6.29590511 2.42008066 -0.34848097 0.35775843 0.53475434 -0.13229722
4.96248627 1.84252894 0.77448523 0.28198826 0.40713534 0.29402536
4.29573536 1.88022888 -0.09576344 0.24410081 0.41546571 -0.03635561
4.67065191 1.87741339 -0.12629409 0.26540506 0.41484359 -0.04794625
4.70982742 1.86301637 1.00338614 0.26763117 0.41166234 0.38092524
3.60964990 1.84883201 0.35609886 0.20511471 0.40852809 0.13518927
3.22967243 1.86102927 1.44423711 0.18352287 0.41122326 0.54828978
5.44866610 1.91580081 -0.15705074 0.30961493 0.42332590 -0.05962270
5.79800892 1.86962271 1.15565097 0.32946599 0.41312212 0.43873101
6.16323614 1.94265282 -0.18930037 0.35021967 0.42925927 -0.07186594
7.05023241 1.87864554 1.32376838 0.40062231 0.41511586 0.50255507
4.99632311 2.11458063 0.47145796 0.28391099 0.46724936 0.17898417
4.36979723 1.87775624 1.77398729 0.24830930 0.41491935 0.67347604
3.76938534 1.65452838 0.46184501 0.21419151 0.36559370 0.17533471
4.01721001 1.83383906 1.90619791 0.22827390 0.40521517 0.72366846
4.96886587 2.00016737 0.61587703 0.28235078 0.44196799 0.23381138
4.70036077 1.85878515 2.14148164 0.26709324 0.41072741 0.81299150
10.71376419 3.65340137 1.00109804 0.60879880 0.80727565 0.38005656
12.10836124 3.64768314 1.03728843 0.68804538 0.80601215 0.39379588
7.73509359 2.75470710 0.97199142 0.43953887 0.60869527 0.36900654
8.42246246 2.67713022 0.99432302 0.47859791 0.59155345 0.37748450
3.53575945 1.81847847 0.07381541 0.20091595 0.40182102 0.02802326
3.26680946 1.87780368 1.03553438 0.18563314 0.41492984 0.39312997
3.58822083 1.84447861 1.07915819 0.20389701 0.40756613 0.40969130
3.46370459 1.84258866 0.20511171 0.19682151 0.40714854 0.07786855
3.38319492 1.84052432 1.24262035 0.19224663 0.40669239 0.47174802
4.99236393 1.86027944 1.34366775 0.28368601 0.41105759 0.51010966
4.08547449 1.87232494 1.42048645 0.23215295 0.41371924 0.53927308
4.67524767 1.86961401 1.54689312 0.26566622 0.41312021 0.58726209
6.20455980 1.88603890 1.57929265 0.35256782 0.41674954 0.59956223
6.10425472 1.86748993 0.02163222 0.34686810 0.41265085 0.00821245
7.75099325 1.91732395 1.86570525 0.44044235 0.42366245 0.70829582
12.74323368 4.07209730 0.65893602 0.72412133 0.89979303 0.25015828
7.15084028 1.92296743 2.13516378 0.40633926 0.42490947 0.81059295
3.68566012 1.91275191 -0.19948205 0.20943390 0.42265218 -0.07573131
3.41094851 1.95430827 0.65100253 0.19382370 0.43183470 0.24714641
3.97765541 1.91285682 -0.22949527 0.22602624 0.42267537 -0.08712552
3.58132291 1.84035695 0.64657521 0.20350505 0.40665540 0.24546564
3.51998806 1.88290989 -0.06462311 0.20001976 0.41605812 -0.02453350
3.73951101 1.86494327 -0.08467361 0.21249393 0.41208813 -0.03214546
3.41048193 1.84810877 0.82406241 0.19379719 0.40836829 0.31284681
4.81652498 2.06608295 -0.26762265 0.27369416 0.45653307 -0.10160019
6.29921055 2.46682429 -0.34910503 0.35794628 0.54508305 -0.13253413
4.91007280 1.85843337 0.76784271 0.27900991 0.41064966 0.29150358
4.21272087 1.87515104 -0.09646351 0.23938359 0.41434368 -0.03662138
4.58089495 1.87521958 -0.12648685 0.26030472 0.41435885 -0.04801943
4.83273172 1.94620872 1.03308916 0.27461508 0.43004498 0.39220166
3.56282926 1.85297668 0.35125291 0.20245416 0.40944391 0.13334955
3.20192027 1.87181616 1.43685520 0.18194588 0.41360679 0.54548728
5.35191393 1.91931379 -0.15675148 0.30411708 0.42410213 -0.05950909
5.70606804 1.87933993 1.13916600 0.32424155 0.41526929 0.43247265
5.99656010 1.93215573 -0.18801059 0.34074846 0.42693976 -0.07137629
6.85986185 1.87469268 1.28937101 0.38980469 0.41424242 0.48949644
5.00662994 2.15623999 0.47436377 0.28449667 0.47645465 0.18008733
4.31688499 1.88702941 1.75691605 0.24530262 0.41696841 0.66699511
3.74989986 1.67410076 0.46039996 0.21308427 0.36991853 0.17478611
4.02217817 1.86682677 1.91425204 0.22855620 0.41250432 0.72672611
4.62032890 1.86110914 2.10982347 0.26254553 0.41124091 0.80097276
6.53861809 1.99093556 2.42635059 0.37155035 0.43992808 0.92113906
12.10805225 3.73068953 1.03951025 0.68802780 0.82435369 0.39463937
7.73140860 2.51278162 0.90350705 0.43932948 0.55523807 0.34300715
3.56133962 1.86026430 0.07605020 0.20236953 0.41105425 0.02887168
3.58684182 1.87228847 1.08235192 0.20381865 0.41371116 0.41090378
3.42758512 1.85093367 0.20266964 0.19476905 0.40899250 0.07694145
4.95157337 1.88072157 1.33565295 0.28136814 0.41557458 0.50706691
4.02716255 1.87605143 1.40384579 0.22883944 0.41454265 0.53295559
4.59791660 1.87259197 1.52471173 0.26127195 0.41377822 0.57884115
6.09260559 1.89356208 1.55321085 0.34620616 0.41841191 0.58966053
5.95869446 1.86444879 0.01813478 0.33859679 0.41197887 0.00688468
7.53311300 1.91429234 1.81523514 0.42806152 0.42299256 0.68913537
10.83757591 3.54150534 0.54118186 0.61583430 0.78255051 0.20545413
6.94604445 1.91534269 2.07666659 0.39470196 0.42322466 0.78838509
3.65415883 1.92552114 -0.19915561 0.20764388 0.42547375 -0.07560738
4.24263191 2.47221923 0.82164598 0.24108326 0.54627514 0.31192943
3.88093138 1.89693952 -0.22754441 0.22053000 0.41915819 -0.08638489
3.56793618 1.86191916 0.64624190 0.20274436 0.41141990 0.24533910
3.50283074 1.90209973 -0.06473318 0.19904481 0.42029843 -0.02457529
3.67585683 1.86244607 -0.08541173 0.20887685 0.41153634 -0.03242568
3.35418892 1.84526491 0.81282687 0.19059838 0.40773988 0.30858135
4.58575392 2.00029230 -0.26173294 0.26058084 0.44199559 -0.09936422
6.29102278 2.50929451 -0.34935465 0.35748100 0.55446750 -0.13262890
4.94817829 1.90826380 0.77599490 0.28117523 0.42166048 0.29459849
4.14812565 1.87743306 -0.09698407 0.23571303 0.41484794 -0.03681900
4.49505186 1.87349665 -0.12667044 0.25542676 0.41397813 -0.04808913
3.55286717 1.87626183 0.35149521 0.20188808 0.41458914 0.13344154
3.20284462 1.89955270 1.44276071 0.18199840 0.41973561 0.54772925
4.96241474 2.44521880 0.50518698 0.28198418 0.54030901 0.19178905
5.20656443 1.90365231 -0.15627933 0.29585776 0.42064148 -0.05932984
5.56591988 1.87154341 1.11271322 0.31627777 0.41354653 0.42243013
5.84928274 1.92583442 -0.18688004 0.33237958 0.42554298 -0.07094708
6.68119621 1.87157261 1.25716925 0.37965220 0.41355300 0.47727138
4.21288872 1.87270844 1.71850550 0.23939313 0.41380396 0.65241295
3.69615698 1.67778063 0.45346382 0.21003038 0.37073165 0.17215288
3.93767929 1.85735869 1.87881386 0.22375464 0.41041219 0.71327233
4.54386091 1.86388195 2.07974839 0.25820029 0.41185361 0.78955507
6.53315926 2.03423834 2.42906189 0.37124017 0.44949651 0.92216837
12.10527706 3.81324077 1.04154694 0.68787009 0.84259468 0.39541259
5.92152023 1.96665132 2.57254767 0.33648440 0.43456209 0.97664130
3.51966763 1.86654413 0.07424109 0.20000155 0.41244185 0.02818486
3.63649225 1.92698097 1.10151446 0.20663999 0.42579633 0.41817865
3.45595598 1.89466941 0.20668162 0.19638120 0.41865659 0.07846455
3.54747367 1.81358647 0.19015466 0.20158160 0.40074006 0.07219026
3.16382551 1.77442074 1.16829681 0.17978118 0.39208576 0.44353187
4.78232813 1.85159779 1.29207289 0.27175096 0.40913925 0.49052218
3.96210337 1.87583137 1.38473976 0.22514251 0.41449404 0.52570218
4.51190805 1.87105525 1.49953282 0.25638461 0.41343868 0.56928223
5.95678425 1.89203799 1.52085030 0.33848822 0.41807511 0.57737517
5.85726452 1.87351859 0.01578649 0.33283314 0.41398299 0.00599318
7.35891581 1.91978109 1.77541482 0.41816294 0.42420539 0.67401797
8.50333595 2.84255838 0.39607069 0.48319346 0.62810737 0.15036416
6.77675533 1.91503763 2.02885652 0.38508227 0.42315724 0.77023453
3.62088490 1.93701851 -0.19879949 0.20575312 0.42801428 -0.07547218
4.23039865 2.50084686 0.82233262 0.24038813 0.55260086 0.31219012
3.82405925 1.89926386 -0.22650672 0.21729830 0.41967180 -0.08599095
4.11001968 2.17419386 0.75190574 0.23354770 0.48042184 0.28545329
3.56415582 1.96498680 -0.06319216 0.20252955 0.43419430 -0.02399025
4.13957739 2.58242798 1.07355654 0.23522730 0.57062751 0.40756470
3.61951470 1.86284864 -0.08604804 0.20567526 0.41162530 -0.03266725
3.36817884 1.88044703 0.81930888 0.19139336 0.41551393 0.31104219
4.46363974 1.97996724 -0.25876334 0.25364181 0.43750447 -0.09823684
3.68014169 1.65531266 0.61911261 0.20912033 0.36576700 0.23503974
6.29923868 2.55847955 -0.35016593 0.35794786 0.56533575 -0.13293689
4.95267677 1.94575942 0.77871227 0.28143084 0.42994571 0.29563010
4.07279158 1.87391341 -0.09761233 0.23143226 0.41407022 -0.03705752
4.42416954 1.87695682 -0.12681732 0.25139895 0.41474271 -0.04814489
3.48810244 1.86276925 0.34374171 0.19820789 0.41160774 0.13049801
3.16525531 1.89726520 1.42947328 0.17986242 0.41923016 0.54268485
5.00248861 2.49409389 0.51189321 0.28426135 0.55110872 0.19433500
5.11139822 1.89585137 -0.15597342 0.29045004 0.41891775 -0.05921371
5.50137758 1.87852740 1.10121202 0.31261021 0.41508976 0.41806382
5.73191404 1.91757452 -0.18597242 0.32571021 0.42371783 -0.07060252
6.51712513 1.85926867 1.22716296 0.37032905 0.41083422 0.46587980
3.74392724 1.65591872 0.32169607 0.21274488 0.36590090 0.12212861
4.16319084 1.87394452 1.70143414 0.23656911 0.41407710 0.64593196
3.69717979 1.69935703 0.45490885 0.21008851 0.37549928 0.17270146
3.89097190 1.85757482 1.86028945 0.22110054 0.41045997 0.70623976
5.97328758 1.88903260 2.22098374 0.33942601 0.41741103 0.84317362
12.09096813 3.87145138 1.04191720 0.68705702 0.85545719 0.39555314
4.98754406 1.86630332 0.58150285 0.28341213 0.41238865 0.22076158
5.72706270 1.93140769 2.49076676 0.32543454 0.42677447 0.94559401
8.41633892 2.83609462 0.99991953 0.47824994 0.62667906 0.37960917
3.50030184 1.87739158 0.07360257 0.19890110 0.41483876 0.02794246
3.32933307 1.99175453 1.06723273 0.18918598 0.44010904 0.40516394
3.62055659 1.94048703 1.09938538 0.20573446 0.42878070 0.41737035
3.56551480 1.84388256 0.19261961 0.20260677 0.40743443 0.07312606
3.29291391 1.86625671 1.22057521 0.18711650 0.41237834 0.46337882
4.68509865 1.83979142 1.26752770 0.26622599 0.40653044 0.48120385
4.42198467 1.85863066 1.47195578 0.25127479 0.41069326 0.55881286
5.82234192 1.87913489 1.48800659 0.33084869 0.41522399 0.56490642
5.70941734 1.85643816 0.01213915 0.32443187 0.41020879 0.00460851
7.13527966 1.89801002 1.72262955 0.40545505 0.41939473 0.65397859
5.44922161 1.88205242 1.71543169 0.30964649 0.41586867 0.65124601
6.59967041 1.89914894 1.97767162 0.37501958 0.41964641 0.75080270
3.59066725 1.94253635 -0.19844337 0.20403603 0.42923352 -0.07533699
4.25399733 2.54212475 0.82954293 0.24172910 0.56172186 0.31492746
3.76133966 1.89058244 -0.22526149 0.21373431 0.41775349 -0.08551821
3.24050808 1.73863959 0.58757681 0.18413860 0.38417938 0.22306749
4.18166399 2.63645601 1.08817184 0.23761882 0.58256584 0.41311324
3.58935523 1.86890852 -0.08635346 0.20396148 0.41296431 -0.03278320
3.41044688 1.92482698 0.83227295 0.19379519 0.42532036 0.31596386
4.39054680 1.97203815 -0.25703108 0.24948838 0.43575239 -0.09757921
3.63824153 1.65691590 0.61304158 0.20673940 0.36612126 0.23273493
6.28526163 2.58737993 -0.35010353 0.35715362 0.57172173 -0.13291320
4.94161320 1.96835208 0.77841038 0.28080216 0.43493789 0.29551551
4.02230835 1.87347293 -0.09802519 0.22856361 0.41397288 -0.03721425
4.32323647 1.85868454 -0.12704679 0.24566354 0.41070518 -0.04823201
3.41367531 1.85026336 0.33501902 0.19397864 0.40884438 0.12718652
3.14852309 1.91419244 1.42725861 0.17891164 0.42297050 0.54184407
5.01718903 1.89650261 -0.15568081 0.28509668 0.41906166 -0.05910262
5.59090900 1.91002882 -0.18488964 0.31769773 0.42205048 -0.07019145
6.35230398 1.85598421 1.19752276 0.36096326 0.41010848 0.45462719
3.70270514 1.66539621 0.31789616 0.21040247 0.36799511 0.12068601
4.09027195 1.87178743 1.67582715 0.23242556 0.41360044 0.63621056
3.68642950 1.72255337 0.45490885 0.20947762 0.38062486 0.17270146
3.73954558 1.81340563 1.79182947 0.21249589 0.40070009 0.68024963
3.73047709 1.61014915 0.43357065 0.21198058 0.35578743 0.16460064
4.39939260 1.86199617 2.02197242 0.24999103 0.41143692 0.76762104
5.90585423 1.90840864 2.19997263 0.33559418 0.42169249 0.83519697
5.62942314 1.93763530 2.45296240 0.31988627 0.42815056 0.93124193
10.59860516 3.64014602 1.29806054 0.60225499 0.80434668 0.49279535
3.50242972 1.90705931 0.07445392 0.19902202 0.42139432 0.02826566
3.35774040 2.03780031 1.08089578 0.19080020 0.45028359 0.41035098
3.40453482 1.85364068 1.03551018 0.19345924 0.40959063 0.39312080
3.52554893 1.85156476 0.18999033 0.20033576 0.40913194 0.07212787
3.29927945 1.89722180 1.22750366 0.18747821 0.41922057 0.46600914
4.60502052 1.84214485 1.24849272 0.26167563 0.40705046 0.47397742
4.35222292 1.86186171 1.45217240 0.24731067 0.41140720 0.55130231
5.68153763 1.87271273 1.45419705 0.32284763 0.41380492 0.55207098
5.58746433 1.85609734 0.00924127 0.31750199 0.41013348 0.00350835
6.95226955 1.89668643 1.68049407 0.39505568 0.41910228 0.63798231
5.36337948 1.88991237 1.69160771 0.30476862 0.41760543 0.64220148
6.46783447 1.90568066 1.94111097 0.36752814 0.42108968 0.73692280
3.57664323 1.96408737 -0.19841368 0.20323913 0.43399554 -0.07532571
4.23962164 2.56983137 0.82988626 0.24091221 0.56784409 0.31505778
3.70654011 1.89256394 -0.22426531 0.21062039 0.41819134 -0.08514002
3.40148377 1.85139680 0.62057590 0.19328587 0.40909484 0.23559526
4.44035292 2.84029984 1.16257739 0.25231856 0.62760830 0.44136056
3.58640480 1.89605319 -0.08622620 0.20379382 0.41896236 -0.03273489
3.35579681 1.92217600 0.82146955 0.19068976 0.42473459 0.31186247
4.30546331 1.96605301 -0.25505134 0.24465360 0.43442988 -0.09682762
3.65278196 1.69148386 0.61751497 0.20756564 0.37375957 0.23443320
6.30580091 2.64216089 -0.35135168 0.35832074 0.58382642 -0.13338704
4.59152174 1.86391497 0.72285473 0.26090857 0.41186091 0.27442437
3.96175933 1.87537920 -0.09850984 0.22512296 0.41439411 -0.03739825
4.82596827 2.36269331 1.11493838 0.27423075 0.52207375 0.42327487
4.26741314 1.86676633 -0.12715694 0.24249144 0.41249096 -0.04827382
3.45401335 1.90065742 0.34228793 0.19627081 0.41997972 0.12994610
3.05128789 1.88078511 1.38739610 0.17338635 0.41558862 0.52671069
4.93249464 1.89967585 -0.15542145 0.28028402 0.41976282 -0.05900415
5.26491261 1.87114215 1.05712414 0.29917333 0.41345787 0.40132630
5.46346521 1.90535223 -0.18391833 0.31045589 0.42101711 -0.06982270
6.21041393 1.85739338 1.17227364 0.35290048 0.41041985 0.44504163
3.65970969 1.67358589 0.31387269 0.20795929 0.36980474 0.11915854
4.02600288 1.87276983 1.65377676 0.22877353 0.41381752 0.62783933
3.66126657 1.73881817 0.45259678 0.20804776 0.38421884 0.17182371
3.78377557 1.86464846 1.81921339 0.21500921 0.41202298 0.69064564
5.86875868 1.93713892 2.19048381 0.33348626 0.42804086 0.83159465
4.97661066 1.93390405 0.58338016 0.28279087 0.42732608 0.22147427
5.50063610 1.93159974 2.40127063 0.31256807 0.42681691 0.91161770
3.60617232 1.85585392 0.05532979 0.20491709 0.41007969 0.02100538
3.34205437 1.84728658 1.01954138 0.18990886 0.40818661 0.38705841
3.48562837 1.85881805 0.18736103 0.19806731 0.41073465 0.07112969
4.52150822 1.84211957 1.22845590 0.25693011 0.40704489 0.46637064
4.28084517 1.86353636 1.43178940 0.24325469 0.41177726 0.54356414
5.56125927 1.87147617 1.42570031 0.31601292 0.41353166 0.54125243
5.47332764 1.85684133 0.00654324 0.31101629 0.41029787 0.00248407
6.75268745 1.88847256 1.63419127 0.38371462 0.41728729 0.62040389
5.24348354 1.88434708 1.65674317 0.29795563 0.41637570 0.62896550
6.49987507 1.95944428 1.95461023 0.36934882 0.43296960 0.74204767
3.56423187 1.98652112 -0.19841368 0.20253387 0.43895265 -0.07532571
4.21669436 2.59226370 0.82851291 0.23960939 0.57280087 0.31453639
3.66254330 1.89940310 -0.22351816 0.20812032 0.41970256 -0.08485637
3.44344831 1.90201306 0.63090897 0.19567047 0.42027926 0.23951811
4.40936136 2.85960269 1.15903425 0.25055748 0.63187355 0.44001544
3.55498624 1.90824342 -0.08650617 0.20200850 0.42165598 -0.03284118
3.67218781 2.13185215 0.90530390 0.20866835 0.47106579 0.34368932
4.23330021 1.96502566 -0.25341806 0.24055299 0.43420288 -0.09620756
3.60109520 1.69485462 0.61016577 0.20462859 0.37450442 0.23164316
6.28539276 2.68017173 -0.35122684 0.35716107 0.59222549 -0.13333966
3.89055824 1.87134731 -0.09910221 0.22107704 0.41350320 -0.03762313
4.53837013 2.25606132 1.04968417 0.25788829 0.49851173 0.39850181
4.19152117 1.86536491 -0.12731759 0.23817895 0.41218129 -0.04833481
4.94869423 2.16587782 1.07242548 0.28120455 0.47858429 0.40713531
4.81635857 1.88932037 -0.15504904 0.27368471 0.41747463 -0.05886278
5.11298704 1.85283542 1.02798772 0.29054031 0.40941271 0.39026496
5.34385157 1.90180624 -0.18301070 0.30365896 0.42023358 -0.06947813
6.04806042 1.85083187 1.14299929 0.34367490 0.40897000 0.43392792
3.65271807 1.69824135 0.31431976 0.20756200 0.37525275 0.11932827
3.95514011 1.86979246 1.62888098 0.22474684 0.41315964 0.61838794
3.64315748 1.75831151 0.45144075 0.20701873 0.38852620 0.17138484
3.72626090 1.86521816 1.79666185 0.21174100 0.41214886 0.68208420
4.95514727 1.88055134 0.39505288 0.28157124 0.41553697 0.14997776
5.59999275 1.88658559 2.09288359 0.31821391 0.41687033 0.79454172
12.08373833 4.12169552 1.04858255 0.68664622 0.91075253 0.39808360
4.96252155 1.96439815 0.58311200 0.28199026 0.43406424 0.22137247
5.31142902 1.90203190 2.32257557 0.30181658 0.42028344 0.88174194
3.57313871 1.86747861 0.05418701 0.20303999 0.41264835 0.02057154
3.32869530 1.86731446 1.01900911 0.18914974 0.41261208 0.38685632
4.21311617 1.86591864 1.41260540 0.23940606 0.41230366 0.53628111
5.43022490 1.86498213 1.39430571 0.30856705 0.41209671 0.52933383
5.34805632 1.85234034 0.00354543 0.30389789 0.40930331 0.00134599
6.60777760 1.89320803 1.60131633 0.37548026 0.41833368 0.60792327
5.13105154 1.88001156 1.62420297 0.29156682 0.41541770 0.61661196
6.48927116 2.00080514 1.95517278 0.36874625 0.44210893 0.74226123
3.55862284 2.01284933 -0.19853240 0.20221514 0.44477028 -0.07537079
4.19365263 2.61450958 0.82713950 0.23830007 0.57771641 0.31401500
3.63279843 1.91314828 -0.22310309 0.20643009 0.42273977 -0.08469880
4.34579325 2.85707307 1.14663339 0.24694531 0.63131458 0.43530756
3.56405663 1.94191837 -0.08620074 0.20252392 0.42909697 -0.03272523
3.70090389 2.17945647 0.91610730 0.21030012 0.48158470 0.34779072
4.15410471 1.95972610 -0.25158679 0.23605280 0.43303186 -0.09551234
3.60458827 1.72433567 0.61272204 0.20482709 0.38101870 0.23261362
6.30148077 2.73383403 -0.35235018 0.35807526 0.60408300 -0.13376611
3.83570051 1.87447572 -0.09953301 0.21795979 0.41419446 -0.03778668
4.48054886 2.26231742 1.03922677 0.25460264 0.49989411 0.39453176
4.12494707 1.86716747 -0.12745528 0.23439594 0.41257960 -0.04838708
4.96367550 2.20956993 1.07884777 0.28205582 0.48823872 0.40957347
3.45396614 1.95773959 0.34568009 0.19626813 0.43259293 0.13123389
3.48578477 1.85546398 0.32088247 0.19807619 0.40999353 0.12181973
4.75247192 1.89856362 -0.15486285 0.27005440 0.41951707 -0.05879209
5.23391438 1.90021193 -0.18218270 0.29741189 0.41988128 -0.06916379
5.93112183 1.85625255 1.12250721 0.33702999 0.41016778 0.42614833
3.62584233 1.71343398 0.31230801 0.20603482 0.37860981 0.11856452
3.89120054 1.86926901 1.60683060 0.22111353 0.41304398 0.61001670
3.65685201 1.79349136 0.45548686 0.20779692 0.39629972 0.17292090
3.65912366 1.86011386 1.76927793 0.20792601 0.41102099 0.67168820
4.97288513 1.92324603 0.39825842 0.28257915 0.42497101 0.15119471
5.57203341 1.91617143 2.08678365 0.31662515 0.42340779 0.79222596
12.07265663 4.20275164 1.05006373 0.68601650 0.92866313 0.39864591
4.97210503 2.00451612 0.58633029 0.28253484 0.44292891 0.22259426
5.17647696 1.88998151 2.26779771 0.29414806 0.41762072 0.86094606
3.54894924 1.88339961 0.05352039 0.20166545 0.41616634 0.02031847
3.34714556 1.90519893 1.02859032 0.19019815 0.42098325 0.39049375
4.34432602 1.83467090 1.18537676 0.24686193 0.40539899 0.45001611
4.13681269 1.86364460 1.39042401 0.23507020 0.41180116 0.52786016
5.31413078 1.86210430 1.36677492 0.30197009 0.41146082 0.51888204
5.24193764 1.85293436 0.00104725 0.29786780 0.40943459 0.00039758
6.43131351 1.88698268 1.56056976 0.36545289 0.41695806 0.59245425
5.01530457 1.87298644 1.59050059 0.28498960 0.41386539 0.60381716
6.46557856 2.03810954 1.95179796 0.36739996 0.45035189 0.74098003
3.55109382 2.03818107 -0.19862142 0.20178731 0.45036772 -0.07540458
4.15056562 2.62385178 0.82164598 0.23585169 0.57978076 0.31192943
3.60479426 1.92752922 -0.22272952 0.20483878 0.42591748 -0.08455697
3.39692736 1.93257260 0.62657577 0.19302696 0.42703187 0.23787305
3.47990131 2.05610657 -0.06370583 0.19774187 0.45432863 -0.02418526
4.29052639 2.85929847 1.13644683 0.24380481 0.63180631 0.43144035
3.70899153 2.21558237 0.92172509 0.21075968 0.48956728 0.34992346
4.06974840 1.95089293 -0.24960707 0.23125933 0.43108004 -0.09476076
3.60785270 1.75392723 0.61527824 0.20501257 0.38755742 0.23358406
6.27685452 2.77016640 -0.35210055 0.35667589 0.61211121 -0.13367136
3.76666236 1.86980641 -0.10010742 0.21403678 0.41316271 -0.03800475
4.05487633 1.86655211 -0.12760215 0.23041424 0.41244364 -0.04844284
4.93181467 2.23270035 1.07483375 0.28024536 0.49334976 0.40804958
4.24804401 2.44873714 0.45955965 0.24139079 0.54108644 0.17446710
3.46178985 1.87078106 0.31926373 0.19671270 0.41337809 0.12120519
4.63687372 1.88577223 -0.15449044 0.26348567 0.41669062 -0.05865071
4.92604542 1.85474920 0.99386752 0.27991754 0.40983561 0.37731159
5.13172388 1.90006244 -0.18141837 0.29160503 0.41984826 -0.06887362
5.80123472 1.85612762 1.09945369 0.32964930 0.41014019 0.41739628
3.59534597 1.72661722 0.30984923 0.20430189 0.38152283 0.11763108
3.81066680 1.85973811 1.57766700 0.21653728 0.41093796 0.59894502
3.69144988 1.83960927 0.46300101 0.20976290 0.40649018 0.17577358
3.61004710 1.86356699 1.75075340 0.20513727 0.41178402 0.66465551
3.66180396 1.69106925 0.42938292 0.20807831 0.37366796 0.16301081
4.93482208 1.94414246 0.39545357 0.28041628 0.42958841 0.15012988
5.57052374 1.95491874 2.09085035 0.31653938 0.43196961 0.79376984
6.57358599 1.92637074 2.35825872 0.37353736 0.42566147 0.89528865
5.08679008 1.89321446 2.23307943 0.28905171 0.41833508 0.84776562
3.52822804 1.90096784 0.05304423 0.20048799 0.42004833 0.02013770
3.25473261 1.88033497 1.00304031 0.18494688 0.41548917 0.38079393
4.30776167 1.85133553 1.17836380 0.24478419 0.40908128 0.44735369
4.07113600 1.86520767 1.37183952 0.23133819 0.41214654 0.52080476
5.19829130 1.85784268 1.33924425 0.29538766 0.41051915 0.50843030
5.13414288 1.85159802 -0.00150089 0.29174247 0.40913931 -0.00056980
6.27944279 1.88581645 1.52584267 0.35682297 0.41670039 0.57927048
4.92664146 1.87489605 1.56551445 0.27995142 0.41428736 0.59433144
6.04304266 1.94809687 1.82580423 0.34338978 0.43046221 0.69314778
3.54855609 2.06654239 -0.19879949 0.20164311 0.45663458 -0.07547218
4.13896084 2.65308905 0.82267600 0.23519225 0.58624119 0.31232047
3.58203983 1.94446957 -0.22248048 0.20354579 0.42966071 -0.08446243
4.28575420 2.46778154 0.80190438 0.24353364 0.54529458 0.30443475
3.53018332 2.11628604 -0.06234827 0.20059909 0.46762621 -0.02366988
4.24829912 2.86972809 1.12980354 0.24140529 0.63411093 0.42891830
4.13715744 2.50391531 1.03580892 0.23508978 0.55327892 0.39323419
4.00001812 1.94814789 -0.24802329 0.22729698 0.43047348 -0.09415949
3.58793283 1.77214479 0.61368060 0.20388065 0.39158288 0.23297752
6.28306532 2.82012153 -0.35291183 0.35702881 0.62314957 -0.13397935
3.66980839 1.60256732 0.57762510 0.20853315 0.35411209 0.21928942
3.72277546 1.87707210 -0.10043053 0.21154295 0.41476819 -0.03812741
3.56898069 1.85413742 0.82589561 0.20280372 0.40970042 0.31354278
3.95048785 1.84918165 -0.12783621 0.22448248 0.40860537 -0.04853170
4.93908358 2.27339435 1.07965052 0.28065842 0.50234175 0.40987822
4.56148148 1.87989354 -0.15425102 0.25920156 0.41539162 -0.05855982
4.88978529 1.86733091 0.98811692 0.27785710 0.41261572 0.37512842
5.02897263 1.88940954 -0.18062222 0.28576627 0.41749433 -0.06857137
3.62818003 1.76373291 0.31499031 0.20616765 0.38972414 0.11958283
3.75671697 1.85510910 1.55846179 0.21347164 0.40991512 0.59165400
5.07700157 2.56867170 0.69160515 0.28849548 0.56758785 0.26256078
3.65019798 1.70664680 0.42882454 0.20741880 0.37711006 0.16279882
4.94774771 1.97631800 0.39785773 0.28115076 0.43669811 0.15104260
5.30808973 1.88997722 1.99392807 0.30162683 0.41761976 0.75697428
6.49380970 1.93649614 2.33252716 0.36900416 0.42789885 0.88551992
4.96404076 1.87372148 2.18215919 0.28207660 0.41402781 0.82843429
5.84996367 2.53886151 1.61516678 0.33241826 0.56100082 0.61318147
3.64212275 1.71401143 0.14612274 0.20695993 0.37873739 0.05547399
3.98598266 1.84939039 1.34546161 0.22649942 0.40865147 0.51079065
5.08926678 1.84555113 1.31267953 0.28919244 0.40780315 0.49834529
5.03323412 1.84244394 -0.00394910 0.28600845 0.40711656 -0.00149924
6.12148285 1.87037671 1.48880053 0.34784707 0.41328874 0.56520778
4.83574820 1.86607659 1.53878498 0.27478650 0.41233855 0.58418387
5.92972422 1.94282937 1.79374325 0.33695057 0.42929828 0.68097615
3.55252481 2.09142590 -0.19903690 0.20186862 0.46213299 -0.07556231
5.69490004 3.69766545 1.14919889 0.32360694 0.81705654 0.43628153
3.58162498 1.96609521 -0.22268802 0.20352222 0.43443921 -0.08454122
4.26041079 2.48006964 0.79923779 0.24209353 0.54800981 0.30342242
3.51846647 2.13185334 -0.06238496 0.19993329 0.47106606 -0.02368381
3.93353462 1.93842828 -0.24643950 0.22351912 0.42832577 -0.09355822
3.60596466 1.80240703 0.61847353 0.20490529 0.39826977 0.23479712
4.63874817 2.11420131 -0.29705793 0.26359218 0.46716556 -0.11277499
3.65315485 1.61589026 0.57611549 0.20758682 0.35705599 0.21871632
3.66946244 1.87165701 -0.10087929 0.20851348 0.41357163 -0.03829778
3.58610344 1.88471341 0.83217007 0.20377670 0.41645664 0.31592482
3.91274881 1.85420978 -0.12790966 0.22233799 0.40971640 -0.04855959
4.93898964 2.30156970 1.08205879 0.28065309 0.50856751 0.41079250
5.79094744 3.43231416 0.68271512 0.32906473 0.75842303 0.25918576
3.20340466 1.89510727 1.41504037 0.18203023 0.41875333 0.53720552
4.48330069 1.88039136 -0.15401162 0.25475901 0.41550162 -0.05846893
4.94371128 1.92389739 1.00191844 0.28092140 0.42511496 0.38036802
4.93470430 1.88981557 -0.17992160 0.28040957 0.41758406 -0.06830538
5.51520872 1.83268440 1.04749167 0.31339616 0.40496004 0.39766943
3.66324162 1.80961120 0.32080197 0.20816000 0.39986166 0.12178917
3.69831920 1.85498130 1.53854525 0.21015325 0.40988687 0.58409286
3.64119577 1.73038888 0.42910373 0.20690726 0.38235626 0.16290481
4.87081766 1.98087919 0.39084563 0.27677929 0.43770596 0.14838052
5.16010380 1.87334430 1.94173908 0.29321769 0.41394445 0.73716128
6.53031731 1.99198735 2.35034132 0.37107867 0.44016048 0.89228290
4.87306690 1.87409830 2.14666915 0.27690709 0.41411108 0.81496084
3.54000449 1.82356358 0.16774772 0.20115717 0.40294465 0.06368370
3.57896304 1.71216154 0.14203624 0.20337096 0.37832865 0.05392260
3.94142389 1.85908604 1.33407116 0.22396742 0.41079387 0.50646639
5.03030729 1.85981321 1.30012167 0.28584212 0.41095456 0.49357781
4.93339443 1.84151030 -0.00629739 0.28033516 0.40691024 -0.00239074
6.00364876 1.87606609 1.46240795 0.34115127 0.41454589 0.55518812
4.74034882 1.86318696 1.51147449 0.26936552 0.41170004 0.57381576
5.77892351 1.93421328 1.75099540 0.32838148 0.42739442 0.66474742
3.55300856 2.12197614 -0.19927432 0.20189612 0.46888351 -0.07565244
5.68633699 3.74316883 1.15228903 0.32312036 0.82711118 0.43745467
3.59372306 2.00206304 -0.22326912 0.20420967 0.44238687 -0.08476183
4.23282862 2.49981904 0.79690450 0.24052620 0.55237377 0.30253661
3.49481130 2.14758611 -0.06260511 0.19858912 0.47454244 -0.02376738
3.54512477 2.04117537 -0.08579351 0.20144813 0.45102933 -0.03257062
3.86598325 1.93510163 -0.24490520 0.21968058 0.42759070 -0.09297574
4.33554888 2.20595145 0.75331473 0.24636318 0.48743919 0.28598818
4.61447001 2.13830614 -0.29668349 0.26221257 0.47249189 -0.11263283
3.68268704 1.65645397 0.58275795 0.20926496 0.36601919 0.22123806
3.62397647 1.87703180 -0.10122034 0.20592879 0.41475928 -0.03842726
3.73250794 1.99271095 0.87065333 0.21209599 0.44032037 0.33053458
3.82697654 1.84352469 -0.12809783 0.21746407 0.40735537 -0.04863102
3.88142037 1.84327161 0.84604073 0.22055778 0.40729943 0.32119066
3.21227312 1.92754853 1.42448437 0.18253417 0.42592174 0.54079086
4.40346050 1.87918937 -0.15376557 0.25022218 0.41523603 -0.05837552
4.93516970 1.95638216 1.00268507 0.28043601 0.43229297 0.38065907
4.83690071 1.88767326 -0.17918913 0.27485198 0.41711068 -0.06802731
5.40291882 1.83353865 1.02773154 0.30701539 0.40514880 0.39016771
5.01083422 2.52309012 0.49224579 0.28473559 0.55751586 0.18687606
3.65834808 1.86361778 1.52645302 0.20788193 0.41179523 0.57950217
3.61183143 1.87822640 0.45519784 0.20523867 0.41502324 0.17281118
3.40851307 1.83370686 1.66618514 0.19368531 0.40518597 0.63255006
3.62131333 1.74897158 0.42770782 0.20577747 0.38646239 0.16237487
5.08126783 1.88065851 1.91598356 0.28873789 0.41556066 0.72738343
5.99629927 1.87205613 2.15966344 0.34073365 0.41365981 0.81989402
4.76856422 1.86796832 2.10500717 0.27096882 0.41275656 0.79914433
5.80810499 1.93415618 2.46035957 0.33003968 0.42738178 0.93405020
3.48839688 2.09637165 0.07881708 0.19822462 0.46322581 0.02992209
3.33372974 2.22241783 1.10330331 0.18943582 0.49107766 0.41885775
4.06640291 1.83256543 1.11925519 0.23106922 0.40493375 0.42491373
3.57253242 1.86910307 0.17157868 0.20300554 0.41300729 0.06513808
3.85724115 1.84950972 1.30889225 0.21918382 0.40867785 0.49690747
4.91696692 1.85266781 1.27307403 0.27940166 0.40937567 0.48330948
4.83938360 1.84150732 -0.00849578 0.27499306 0.40690958 -0.00322534
5.83775091 1.86511433 1.42397654 0.33172429 0.41212592 0.54059803
4.63808441 1.85630012 1.48183966 0.26355445 0.41017830 0.56256521
5.38482666 1.84143412 1.63287640 0.30598733 0.40689343 0.61990476
3.55495334 2.15365911 -0.19954140 0.20200662 0.47588438 -0.07575385
5.67579126 3.78761148 1.15503573 0.32252109 0.83693147 0.43849742
3.61598277 2.04411292 -0.22409928 0.20547456 0.45167845 -0.08507699
4.27469778 2.56058455 0.80823755 0.24290538 0.56580085 0.30683908
3.55301118 2.07541132 -0.08548808 0.20189627 0.45859432 -0.03245467
3.77551770 1.91911495 -0.24272750 0.21453997 0.42405820 -0.09214900
3.59353185 1.85305941 0.62039071 0.20419881 0.40946221 0.23552495
4.61724997 2.17485881 -0.29724514 0.26237056 0.48056877 -0.11284606
3.65238380 1.67061424 0.57943672 0.20754302 0.36914811 0.21997719
3.58209991 1.88378894 -0.10152550 0.20354921 0.41625237 -0.03854311
3.71476889 2.01330304 0.86939842 0.21108799 0.44487053 0.33005816
3.79731250 1.85882699 -0.12814373 0.21577844 0.41073665 -0.04864845
4.92205811 2.36935425 1.08486855 0.27969098 0.52354556 0.41185918
3.21287465 1.95537484 1.43029606 0.18256836 0.43207037 0.54299718
4.33480167 1.88188553 -0.15355942 0.24632071 0.41583177 -0.05829725
4.92278004 1.98735189 1.00268507 0.27973199 0.43913621 0.38065907
4.74862909 1.88803542 -0.17853628 0.26983604 0.41719070 -0.06777947
5.41175413 1.87445605 1.03175676 0.30751744 0.41419011 0.39169586
3.58695292 1.85535014 1.50084603 0.20382497 0.40996838 0.56978077
3.64253640 1.72404361 0.28700620 0.20698345 0.38095418 0.10895895
3.60868597 1.90554690 0.45664290 0.20505993 0.42106014 0.17335978
3.39372015 1.85331511 1.66457438 0.19284472 0.40951872 0.63193852
3.66550303 1.79845786 0.43636250 0.20828851 0.39739716 0.16566053
5.01031017 2.11211562 0.40887675 0.28470582 0.46670470 0.15522586
4.96738625 1.87364078 1.87667239 0.28226671 0.41400999 0.71245939
5.97001457 1.90514958 2.15438509 0.33924004 0.42097235 0.81789017
3.78831458 1.65526628 0.42031902 0.21526714 0.36575675 0.15956980
4.69855642 1.87441266 2.07877564 0.26699072 0.41418055 0.78918582
5.71860409 1.94463730 2.42712831 0.32495388 0.42969775 0.92143428
3.49215746 2.12872815 0.07988127 0.19843832 0.47037548 0.03032610
3.32923150 2.24983191 1.10658240 0.18918021 0.49713525 0.42010263
5.88769293 3.45096016 0.42432603 0.33456218 0.76254314 0.16109101
3.30881882 2.12266827 1.26907444 0.18802027 0.46903646 0.48179105
4.77624416 2.18469834 1.32413185 0.27140525 0.48274297 0.50269306
3.51856637 1.86884785 0.16790096 0.19993897 0.41295090 0.06374188
3.81803679 1.86046743 1.29930019 0.21695608 0.41109914 0.49326596
4.48143387 1.89596689 0.01667001 0.25465295 0.41894329 0.00632860
4.82381916 1.85190296 1.25133920 0.27410865 0.40920666 0.47505805
4.73436880 1.83610392 -0.01099396 0.26902571 0.40571561 -0.00417374
5.72222710 1.86828971 1.39804697 0.32515976 0.41282758 0.53075415
4.55202103 1.85476840 1.45743454 0.25866398 0.40983984 0.55330002
5.36952209 1.87397957 1.63175142 0.30511767 0.41408485 0.61947763
3.55154371 2.18228436 -0.19971946 0.20181288 0.48220956 -0.07582144
5.67468262 3.83872199 1.15984261 0.32245809 0.84822512 0.44032231
3.57175994 2.04903674 -0.22335213 0.20296164 0.45276645 -0.08479334
4.26528311 2.59146094 0.80957085 0.24237040 0.57262349 0.30734524
3.54852843 2.10274935 -0.08536082 0.20164153 0.46463507 -0.03240636
3.72616887 1.92335987 -0.24168815 0.21173577 0.42499620 -0.09175442
3.56611824 1.86727965 0.61751497 0.20264105 0.41260439 0.23443320
4.61433268 2.20896268 -0.29761958 0.26220480 0.48810455 -0.11298821
3.62923670 1.68775773 0.57732320 0.20622770 0.37293625 0.21917482
3.56667423 1.90435696 -0.10156140 0.20267265 0.42079720 -0.03855674
3.36878586 1.85117257 0.78783065 0.19142784 0.40904528 0.29909182
3.75145292 1.86589205 -0.12823093 0.21317251 0.41229779 -0.04868155
4.74838305 2.32334280 1.04874337 0.26982206 0.51337862 0.39814463
4.52867460 2.79582238 0.51068431 0.25733736 0.61778033 0.19387604
3.21643448 1.98522472 1.43756068 0.18277064 0.43866619 0.54575515
4.25898075 1.88053060 -0.15332666 0.24201228 0.41553238 -0.05820889
4.50959826 1.85178828 0.91795963 0.25625336 0.40918133 0.34849393
4.64940643 1.88290489 -0.17778789 0.26419783 0.41605702 -0.06749534
5.26251221 1.86042500 1.00467789 0.29903692 0.41108975 0.38141564
3.50444889 1.87816477 0.44132555 0.19913676 0.41500962 0.16754471
3.32293963 1.84145343 1.63477409 0.18882269 0.40689769 0.62062520
4.88545752 2.42758679 0.62983620 0.27761117 0.53641295 0.23911084
4.98598576 2.13880658 0.40767467 0.28332359 0.47260249 0.15476950
4.86431980 1.86935878 1.84142792 0.27641004 0.41306379 0.69907916
4.60647058 1.87093461 2.04251409 0.26175803 0.41341200 0.77541947
5.59066916 1.94084179 2.37728119 0.31768411 0.42885908 0.90251034
3.48548746 2.15486240 0.08030694 0.19805929 0.47615024 0.03048770
3.31977487 2.27399135 1.10822201 0.18864284 0.50247365 0.42072508
3.26987100 2.12698817 1.25899673 0.18580711 0.46999103 0.47796515
3.60543680 1.87727761 0.03690350 0.20487529 0.41481361 0.01401003
3.58307052 1.88892508 1.05069995 0.20360436 0.41738728 0.39888743
4.77649403 2.22114205 1.32813919 0.27141944 0.49079576 0.50421441
3.50325394 1.88900781 0.16759448 0.19906886 0.41740558 0.06362552
3.77370620 1.86849105 1.28790975 0.21443704 0.41287208 0.48894170
4.73809671 1.85289824 1.23153651 0.26923755 0.40942660 0.46754017
4.66500282 1.84327161 -0.01254283 0.26508406 0.40729943 -0.00476176
5.59950638 1.86765134 1.37026536 0.31818628 0.41268653 0.52020717
4.47145653 1.85445118 1.43477261 0.25408599 0.40976974 0.54469669
5.25626087 1.87198973 1.60025299 0.29868171 0.41364515 0.60751957
3.53945398 2.20562220 -0.19974914 0.20112589 0.48736641 -0.07583271
5.65855980 3.87989616 1.16155934 0.32154194 0.85732323 0.44097406
3.54841661 2.06545424 -0.22310309 0.20163518 0.45639414 -0.08469880
4.23545170 2.60998774 0.80690426 0.24067526 0.57671726 0.30633292
4.91837358 3.54517412 1.34239066 0.27948159 0.78336120 0.50962478
3.54728007 2.13215661 -0.08518265 0.20157060 0.47113305 -0.03233872
3.66631937 1.92144060 -0.24035183 0.20833489 0.42457208 -0.09124710
3.53345299 1.87842202 0.61368060 0.20078489 0.41506648 0.23297752
3.61497712 1.70885575 0.57671934 0.20541741 0.37759817 0.21894556
3.54061103 1.91903448 -0.10170500 0.20119163 0.42404041 -0.03861126
3.27364063 1.82518184 0.76733410 0.18602131 0.40330222 0.29131049
3.68776107 1.86352265 -0.12836403 0.20955329 0.41177422 -0.04873208
4.51572084 2.24582171 0.99897087 0.25660127 0.49624914 0.37924901
4.50094700 2.81786203 0.50923055 0.25576174 0.62265033 0.19332415
3.19597363 2.00049424 1.43392837 0.18160796 0.44204021 0.54437613
4.17788839 1.87581658 -0.15307395 0.23740427 0.41449076 -0.05811295
4.56710720 1.88339686 -0.17718281 0.25952125 0.41616574 -0.06726563
3.55344343 1.86749148 0.31275508 0.20192082 0.41265121 0.11873425
3.39376807 1.84573150 0.42485216 0.19284743 0.40784299 0.16129075
3.25085378 1.82787073 1.60416853 0.18472648 0.40389636 0.60900611
4.78774834 1.87424982 1.81635010 0.27205896 0.41414455 0.68955863
3.69153190 1.66808224 0.40905493 0.20976757 0.36858863 0.15529349
4.51121283 1.86495054 2.00470972 0.25634509 0.41208974 0.76106745
5.41582298 1.91898417 2.30704212 0.30774865 0.42402929 0.87584484
3.51430011 2.06022525 0.05618687 0.19969654 0.45523870 0.02133077
3.25644231 2.14749122 1.25899673 0.18504404 0.47452149 0.47796515
3.55304956 1.87821090 0.03492633 0.20189844 0.41501981 0.01325942
4.12997675 2.21413493 1.22101724 0.23468176 0.48924744 0.46354663
4.01710987 1.90231979 1.11524785 0.22826821 0.42034706 0.42339239
3.49306035 1.91194832 0.16774772 0.19848962 0.42247462 0.06368370
3.25960159 1.83889222 1.17703938 0.18522356 0.40633175 0.44685090
3.55619121 1.81232202 0.14372721 0.20207697 0.40046066 0.05456456
4.67235661 1.86086988 1.21704662 0.26550195 0.41118807 0.46203923
4.59387827 1.84890211 -0.01414166 0.26104248 0.40854359 -0.00536874
5.47333622 1.86430442 1.34155762 0.31101680 0.41194695 0.50930858
4.39811850 1.85620248 1.41443503 0.24991862 0.41015673 0.53697574
5.20104313 1.88941002 1.58675361 0.29554400 0.41749445 0.60239470
3.55249095 2.24504137 -0.20022397 0.20186670 0.49607670 -0.07601297
5.66474819 3.93682766 1.16808295 0.32189357 0.86990309 0.44345069
3.56990480 2.10787272 -0.22393325 0.20285623 0.46576715 -0.08501396
4.20555639 2.62824225 0.80423766 0.23897648 0.58075088 0.30532056
4.84886837 3.54133821 1.32910395 0.27553204 0.78251356 0.50458062
3.45331979 2.10587025 -0.08637891 0.19623140 0.46532467 -0.03279287
4.39443779 2.87939262 1.12828600 0.24970947 0.63624644 0.42834216
3.64185143 1.93780351 -0.24000537 0.20694453 0.42818773 -0.09111557
3.41588974 1.84284949 0.59418935 0.19410448 0.40720618 0.22557788
4.23248005 2.09368420 -0.28532547 0.24050640 0.46263197 -0.10832088
3.63632441 1.74678302 0.58215410 0.20663045 0.38597879 0.22100882
3.54595709 1.95097136 -0.10152550 0.20149542 0.43109736 -0.03854311
3.34356117 1.89238632 0.78741235 0.18999448 0.41815209 0.29893300
3.63851976 1.86766315 -0.12846041 0.20675521 0.41268912 -0.04876867
3.11698389 1.97207856 1.40196407 0.17711945 0.43576133 0.53224123
4.12357855 1.87458718 -0.15290770 0.23431818 0.41421911 -0.05804984
4.47315311 1.86977434 -0.17645034 0.25418240 0.41315562 -0.06698756
4.99767876 1.82987094 0.95637524 0.28398803 0.40433836 0.36307803
3.46934581 1.84372056 0.30314347 0.19714206 0.40739864 0.11508530
4.95975161 2.44482112 0.44539344 0.28183287 0.54022115 0.16908903
3.44208980 1.89347649 0.43438938 0.19559327 0.41839299 0.16491146
3.15177298 1.79110575 1.55825996 0.17909631 0.39577258 0.59157735
3.73931384 1.64745474 0.27284214 0.21248272 0.36403066 0.10358171
4.70727015 1.86804616 1.78856111 0.26748586 0.41277376 0.67900884
3.67463994 1.68129122 0.40771395 0.20880769 0.37150738 0.15478441
4.42932129 1.85522580 1.97153449 0.25169170 0.40994090 0.74847281
5.19210386 1.86815608 2.21414542 0.29503605 0.41279805 0.84057754
3.52351332 2.08787131 0.05723442 0.20022008 0.46134755 0.02172846
3.76069045 2.30089569 0.22515711 0.21369743 0.50841856 0.08547858
3.25896788 2.17116690 1.26403558 0.18518755 0.47975299 0.47987810
3.51779962 1.88066781 0.03363687 0.19989540 0.41556272 0.01276989
4.05511475 2.19830227 1.20134532 0.23042779 0.48574898 0.45607841
3.22783375 1.84090924 1.16841090 0.18341838 0.40677744 0.44357517
3.57427931 1.84263766 0.14584091 0.20310481 0.40715936 0.05536700
4.50908709 1.83987725 -0.01619016 0.25622430 0.40654939 -0.00614643
5.37428093 1.85922909 1.31886923 0.30538806 0.41082549 0.50069517
4.31731081 1.84575105 1.39061093 0.24532682 0.40784732 0.52793115
5.07847691 1.87249506 1.55131793 0.28857931 0.41375682 0.58894187
3.53683138 2.25850391 -0.20013493 0.20097686 0.49905145 -0.07597917
5.64774275 3.96461511 1.16842628 0.32092726 0.87604320 0.44358101
3.56682014 2.12873721 -0.22409928 0.20268095 0.47037750 -0.08507699
4.18978119 2.64593887 0.80357099 0.23808007 0.58466125 0.30506745
4.81803560 3.55368137 1.32511795 0.27377999 0.78524101 0.50306737
3.62565565 1.95111907 -0.23980740 0.20602421 0.43113002 -0.09104041
3.36741996 1.83696890 0.58684021 0.19135024 0.40590677 0.22278786
4.15090942 2.07812333 -0.28282923 0.23587123 0.45919356 -0.10737321
3.66370058 1.78100920 0.58819276 0.20818608 0.39354160 0.22330134
3.61544204 1.87748563 -0.12849712 0.20544383 0.41485956 -0.04878261
3.62014699 1.85476756 0.79907793 0.20571119 0.40983966 0.30336171
3.21942806 2.06444168 1.45499563 0.18294074 0.45617041 0.55237412
4.08273220 1.88690317 -0.15280131 0.23199712 0.41694051 -0.05800945
4.39494705 1.86993742 -0.17587709 0.24973841 0.41319168 -0.06676993
4.93627596 1.84286034 0.94649518 0.28049889 0.40720856 0.35932717
3.38617945 1.82642055 0.29397896 0.19241622 0.40357593 0.11160609
3.24478579 1.87181473 1.61141717 0.18438166 0.41360649 0.61175793
3.60097718 1.87345445 0.43301231 0.20462188 0.41396880 0.16438867
4.62577105 1.86910415 1.76145005 0.26285475 0.41300753 0.66871637
3.67117476 1.70772612 0.40878671 0.20861079 0.37734857 0.15519167
4.35149765 1.85452116 1.94144523 0.24726945 0.40978521 0.73704970
5.10366297 1.87295568 2.18091416 0.29001048 0.41385859 0.82796162
3.52234650 2.11711359 0.05790104 0.20015377 0.46780908 0.02198153
3.67652035 2.28171206 0.21841955 0.20891455 0.50417966 0.08292074
3.26736236 2.20635915 1.27285361 0.18566456 0.48752925 0.48322579
3.52167559 1.91139197 0.03441055 0.20011565 0.42235169 0.01306361
3.32534218 1.82569253 0.98184818 0.18895920 0.40341508 0.37274855
3.53076839 1.98374701 0.17295782 0.20063233 0.43833965 0.06566166
3.25067616 1.88135540 1.18135357 0.18471639 0.41571465 0.44848874
3.53604913 1.85131407 0.14372721 0.20093241 0.40907654 0.05456456
4.41790485 1.83552408 -0.01833860 0.25104296 0.40558749 -0.00696206
5.26696825 1.85962331 1.29479182 0.29929015 0.41091260 0.49155441
4.23731709 1.84277463 1.36794901 0.24078125 0.40718964 0.51932776
4.98025513 1.87227833 1.52431929 0.28299797 0.41370893 0.57869214
3.54432487 2.29491639 -0.20052074 0.20140268 0.50709736 -0.07612564
4.96745491 3.53094912 1.02799749 0.28227061 0.78021795 0.39026868
3.55337453 2.15110612 -0.22409928 0.20191690 0.47532025 -0.08507699
5.71326542 3.64957738 1.11189604 0.32465053 0.80643070 0.42211989
4.79872894 3.58622932 1.32600379 0.27268291 0.79243296 0.50340372
3.58182669 1.95645201 -0.23891652 0.20353368 0.43230841 -0.09070220
3.38680983 1.87546957 0.59259170 0.19245204 0.41441408 0.22497134
3.85918283 1.96402681 -0.27309379 0.21929416 0.43398216 -0.10367725
3.64888406 1.80226016 0.58758891 0.20734414 0.39823732 0.22307208
3.57696795 1.88630474 -0.12856598 0.20325758 0.41680828 -0.04880875
3.63107586 1.88912022 0.80429602 0.20633221 0.41743040 0.30534270
3.20952868 2.08664370 1.45644855 0.18237822 0.46107629 0.55292571
3.98048091 1.86958742 -0.15246880 0.22618680 0.41311434 -0.05788321
4.93664885 2.16678500 1.01878679 0.28052008 0.47878474 0.38677192
4.30588579 1.86447239 -0.17520833 0.24467760 0.41198409 -0.06651604
4.93748188 1.87868440 0.94905668 0.28056741 0.41512445 0.36029962
3.45285654 1.89102554 0.30403760 0.19620508 0.41785142 0.11542474
3.48669553 1.97595894 0.44594964 0.19812794 0.43661878 0.16930020
3.22823620 1.88936543 1.60900092 0.18344125 0.41748458 0.61084068
3.43638849 1.81632745 0.40872338 0.19526930 0.40134570 0.15516762
3.69663644 1.68430352 0.27043799 0.21005762 0.37217298 0.10266900
4.53402376 1.86487496 1.73027217 0.25764132 0.41207305 0.65688002
3.66215992 1.73161507 0.40905493 0.20809853 0.38262719 0.15529349
4.28568888 1.85810232 1.91675663 0.24352993 0.41057652 0.72767693
5.06574059 1.89534926 2.16958523 0.28785560 0.41880679 0.82366073
3.53634882 2.15570617 0.05942474 0.20094945 0.47633669 0.02255999
3.17351842 2.40570521 1.31360245 0.18033198 0.53157789 0.49869567
3.65534377 2.30055213 0.21776222 0.20771120 0.50834268 0.08267119
3.24085951 2.21833229 1.26781476 0.18415856 0.49017492 0.48131284
3.57940531 1.97240329 0.03784911 0.20339608 0.43583310 0.01436902
3.31212282 1.84560072 0.98133051 0.18820803 0.40781409 0.37255204
3.58937883 1.84284949 0.00975525 0.20396282 0.40720618 0.00370348
3.64795971 1.80722702 1.01857007 0.20729162 0.39933482 0.38668966
3.50315118 1.86236560 0.14203624 0.19906302 0.41151854 0.05392260
3.60160589 1.89099121 1.24294734 0.20465761 0.41784382 0.47187218
6.06938076 2.54643250 1.60344231 0.34488642 0.56267375 0.60873038
4.35647535 1.84243286 -0.01968761 0.24755231 0.40711412 -0.00747420
5.15436792 1.85678589 1.26932526 0.29289174 0.41028562 0.48188627
4.18024063 1.84903193 1.35284102 0.23753794 0.40857226 0.51359218
4.89659882 1.87634087 1.50182045 0.27824426 0.41460660 0.57015067
3.54816651 2.32930064 -0.20084718 0.20162097 0.51469511 -0.07624956
5.67562675 4.09196138 1.18525028 0.32251173 0.90418231 0.44996807
3.57226181 2.19310999 -0.22488792 0.20299016 0.48460165 -0.08537639
5.71509790 3.70140839 1.11689591 0.32475466 0.81788355 0.42401806
4.81952667 3.64942241 1.33840466 0.27386472 0.80639648 0.50811154
3.58341360 1.98674369 -0.23931247 0.20362385 0.43900183 -0.09085252
3.38010740 1.89964128 0.59355026 0.19207118 0.41975519 0.22533526
3.81828427 1.97368371 -0.27209526 0.21697015 0.43611601 -0.10329816
4.68799591 2.34570026 0.76663500 0.26639062 0.51831883 0.29104510
3.57034922 1.91154754 -0.12855221 0.20288149 0.42238608 -0.04880353
4.02731848 2.12494326 0.89862299 0.22884829 0.46953917 0.34115297
6.46346140 4.27289438 0.80677116 0.36727965 0.94416225 0.30628237
3.20259976 2.11083722 1.45935440 0.18198448 0.46642220 0.55402887
3.91823101 1.87020183 -0.15228260 0.22264951 0.41325009 -0.05781252
4.91399050 2.19372511 1.01686990 0.27923253 0.48473758 0.38604420
4.22623825 1.86195445 -0.17461917 0.24015170 0.41142771 -0.06629237
4.93292475 1.91248500 0.95052040 0.28030846 0.42259321 0.36085528
4.22514439 2.43473339 0.57282352 0.24008955 0.53799212 0.21746656
3.22257733 1.91338420 1.61222255 0.18311970 0.42279190 0.61206371
3.36891103 1.80820978 0.39978954 0.19143496 0.39955199 0.15177599
3.68778205 1.70834231 0.27063832 0.20955448 0.37748471 0.10274506
4.46330738 1.86837447 1.70722771 0.25362292 0.41284630 0.64813143
3.65120769 1.75459075 0.40905493 0.20747618 0.38770401 0.15529349
4.20989799 1.85641897 1.88743889 0.23922320 0.41020456 0.71654677
5.00174665 1.90754068 2.14692760 0.28421918 0.42150068 0.81505901
3.18826890 2.44882631 1.32643628 0.18117015 0.54110616 0.50356787
3.64081693 2.32347393 0.21776222 0.20688574 0.51340759 0.08267119
3.25972724 2.26120377 1.28104186 0.18523070 0.49964803 0.48633435
3.32393193 1.87981379 0.98857808 0.18887907 0.41537401 0.37530351
