-1.89912283 -34.80635834 1.71936417 -0.68749410 -0.97072333 0.69340074
-1.69627392 -34.02699280 1.67732894 -0.61406153 -0.94898742 0.67644840
-1.08945882 -32.31477356 0.45539790 -0.39439076 -0.90123487 0.18365698
-1.45595932 -33.42042542 1.64444566 -0.52706617 -0.93207067 0.66318691
-1.21111524 -32.47890091 1.59379041 -0.43843114 -0.90581226 0.64275819
-0.65509486 -30.95043373 0.43015450 -0.23714836 -0.86318445 0.17347659
-2.09865403 -35.84875870 0.31917801 -0.75972563 -0.99979508 0.12872100
-0.98543715 -31.77520370 1.55590546 -0.35673428 -0.88618672 0.62747961
-0.76966041 -31.11191177 1.52025521 -0.27862179 -0.86768800 0.61310226
-0.56275588 -30.47514534 1.48609495 -0.20372108 -0.84992903 0.59932578
-2.00595951 -35.19110489 1.54227412 -0.72616965 -0.98145360 0.62198222
-0.41072533 -29.83442497 1.45182812 -0.14868508 -0.83205980 0.58550638
-1.79592383 -34.36428452 1.50237215 -0.65013546 -0.95839423 0.60589021
-0.21932417 -29.25725174 1.42096686 -0.07939669 -0.81596291 0.57306033
-1.54188180 -33.55670547 1.46332717 -0.55817068 -0.93587142 0.59014380
0.17897590 -27.94281197 2.30809212 0.06479037 -0.77930415 0.93082827
-0.99639434 -31.73827934 2.47961116 -0.36070085 -0.88515687 1.00000000
-0.03518613 -28.66689110 1.38946700 -0.01273760 -0.79949820 0.56035680
-1.30063212 -32.81119919 1.42732966 -0.47083679 -0.91507983 0.57562643
-0.79059702 -31.49683380 2.45923424 -0.28620097 -0.87842315 0.99178219
-0.68969697 -30.98286057 0.25656536 -0.24967453 -0.86408883 0.10347000
0.14166276 -28.09936142 1.35924411 0.05128279 -0.78367019 0.54816824
-1.06976235 -32.09196854 1.39266551 -0.38726053 -0.89502102 0.56164676
-0.59698701 -31.72238541 2.47747493 -0.21611296 -0.88471365 0.99913847
0.31200427 -27.58268547 1.33178818 0.11294746 -0.76926047 0.53709555
-0.84897774 -31.40710640 1.35971534 -0.30733514 -0.87592071 0.54835832
-0.37250224 -29.81615448 2.32004595 -0.13484809 -0.83155030 0.93564910
-0.63765419 -30.75871277 1.32857466 -0.23083472 -0.85783750 0.53579962
-0.18146060 -29.28173828 2.27584100 -0.06568985 -0.81664580 0.91782171
-1.96100092 -35.05932617 1.37269759 -0.70989436 -0.97777843 0.55359387
-1.38794994 -33.56804657 2.44348979 -0.50244641 -0.93618774 0.98543262
-0.43442205 -30.10293579 1.29714823 -0.15726344 -0.83954841 0.52312565
0.00287722 -28.70226860 2.22802091 0.00104157 -0.80048484 0.89853638
-1.69946504 -34.23074341 1.33650672 -0.61521673 -0.95466983 0.53899848
-0.28622833 -29.49537277 1.26810265 -0.10361641 -0.82260388 0.51141191
0.13586700 -28.14981461 2.18250108 0.04918469 -0.78507727 0.88017875
-1.50247633 -33.43390656 1.30186319 -0.54390562 -0.93244666 0.52502716
-0.97237116 -32.02057266 2.32350421 -0.35200432 -0.89302987 0.93704379
-0.09846854 -28.90526581 1.23991418 -0.03564622 -0.80614626 0.50004381
-1.26435232 -32.70590210 1.27014256 -0.45770329 -0.91214317 0.51223457
-0.74877495 -31.07112885 2.25010300 -0.27106112 -0.86655056 0.90744185
-2.13710189 -35.85610580 -0.05541580 -0.77364397 -1.00000000 -0.02234858
0.08193386 -28.34595108 1.21324933 0.02966056 -0.79054737 0.48929015
-1.03492987 -31.96027565 1.23773408 -0.37465096 -0.89134818 0.49916458
-0.54238313 -30.42523193 2.20014739 -0.19634601 -0.84853697 0.88729531
-1.86561990 -35.01206970 -0.05738477 -0.67536587 -0.97646046 -0.02314265
0.25543904 -27.80151367 1.18734634 0.09247050 -0.77536345 0.47884378
-0.81655520 -31.27700996 1.20807660 -0.29559800 -0.87229246 0.48720405
-0.34424633 -29.78796577 2.15095782 -0.12461928 -0.83076411 0.86745769
-1.71621633 -34.31078339 2.28829336 -0.62128085 -0.95690209 0.92284364
-1.60616088 -34.19403839 -0.05928948 -0.58144009 -0.95364618 -0.02391080
-0.60742098 -30.62425041 1.17979443 -0.21989012 -0.85408747 0.47579816
-2.05224752 -35.38627243 1.15955782 -0.74292618 -0.98689669 0.46763697
-0.15431318 -29.18732262 2.10467982 -0.05586231 -0.81401265 0.84879428
-1.47172070 -33.66915131 2.24221468 -0.53277189 -0.93900746 0.90426058
-1.35821140 -33.40214157 -0.06112994 -0.49168086 -0.93156075 -0.02465303
-0.40683120 -29.99410248 1.15254378 -0.14727539 -0.83651310 0.46480829
-1.78490579 -34.53821945 1.12802541 -0.64614683 -0.96324515 0.45492029
0.02813607 -28.63135719 2.06192636 0.01018543 -0.79850715 0.83155233
-1.23080873 -32.90621567 2.18768096 -0.44556031 -0.91772979 0.88226777
-1.12237525 -32.66846848 -0.06283271 -0.40630671 -0.91109920 -0.02533974
-0.26050279 -29.38627052 1.12632477 -0.09430361 -0.81956112 0.45423442
-1.58321249 -33.72772217 1.09802926 -0.57313263 -0.94064099 0.44282317
0.15942977 -28.06458664 2.01840663 0.05771456 -0.78270036 0.81400126
-1.04976439 -32.13202667 2.13258362 -0.38002115 -0.89613819 0.86004758
-0.94621474 -31.93973351 -0.06451712 -0.34253553 -0.89077532 -0.02601905
-0.07478737 -28.81985283 1.10191107 -0.02707349 -0.80376416 0.44438866
-1.33963394 -32.97016907 1.06993532 -0.48495570 -0.91951340 0.43149319
-0.72902459 -31.25724792 -0.06609596 -0.26391137 -0.87174129 -0.02665578
0.10389654 -28.27426338 1.07844293 0.03761119 -0.78854805 0.43492422
-1.10815239 -32.28282547 1.04447520 -0.40115795 -0.90034389 0.42122540
-0.61514932 -30.65869713 2.02774382 -0.22268783 -0.85504818 0.81776685
-0.52090865 -30.59931755 -0.06761514 -0.18857212 -0.85339212 -0.02726845
-0.41345754 -30.03558350 1.98349702 -0.14967416 -0.83766997 0.79992259
-0.32140893 -29.96802902 -0.06907007 -0.11635200 -0.83578593 -0.02785520
-1.70567095 -35.13609314 -0.25481439 -0.61746335 -0.97991937 -0.10276385
-0.67163122 -30.91946602 0.99414021 -0.24313462 -0.86232078 0.40092584
-0.21966951 -29.41715431 1.93967283 -0.07952171 -0.82042247 0.78224880
-1.45933294 -33.68804169 2.06318331 -0.52828747 -0.93953431 0.83205920
-0.13005759 -29.37346649 -0.07043779 -0.04708165 -0.81920403 -0.02840679
-1.44965065 -34.30085373 -0.25200137 -0.52478242 -0.95662516 -0.10162939
-0.47441965 -30.74122047 0.98748255 -0.17174283 -0.85734969 0.39824089
-0.03376288 -28.84737587 1.89937150 -0.01222237 -0.80453175 0.76599568
-1.21865380 -32.90076828 2.01119804 -0.44116014 -0.91757786 0.81109411
0.05383276 -28.79770660 -0.07175962 0.01948779 -0.80314654 -0.02893987
-0.31594855 -29.54799271 0.94373208 -0.11437531 -0.82407147 0.38059682
0.10046779 -28.24471855 1.85681558 0.03636996 -0.78772408 0.74883336
-1.03773391 -32.09029388 1.95790994 -0.37566602 -0.89497429 0.78960359
0.18618865 -28.22714424 -0.07306767 0.06740143 -0.78723395 -0.02946739
-0.12750669 -29.00376701 0.92375904 -0.04615820 -0.80889338 0.37254190
-0.81468731 -31.25424576 1.90292799 -0.29492179 -0.87165755 0.76743001
-1.11479759 -32.33288193 0.88986862 -0.40356356 -0.90173990 0.35887426
-0.60608184 -30.62022400 1.86123562 -0.21940534 -0.85397518 0.75061589
-2.04508424 -35.43585205 1.97659326 -0.74033302 -0.98827946 0.79713839
-0.40573266 -30.00479698 1.82084608 -0.14687771 -0.83681136 0.73432726
-1.77274907 -34.49298477 1.91961920 -0.64174604 -0.96198356 0.77416140
-0.67941767 -30.98133469 0.84655797 -0.24595337 -0.86404628 0.34140754
-2.11659002 -35.73769379 0.75674558 -0.76621854 -0.99669760 0.30518720
-0.21319374 -29.39606667 1.78097761 -0.07717744 -0.81983435 0.71824872
-1.51817620 -33.67577744 1.87025762 -0.54958910 -0.93919230 0.75425440
-0.47743443 -30.49729347 0.83106267 -0.17283419 -0.85054672 0.33515847
-1.85398281 -35.03952789 0.73895854 -0.67115313 -0.97722626 0.29801387
-0.02832491 -28.80209160 1.74215162 -0.01025379 -0.80326879 0.70259064
-1.28691053 -33.18592072 1.84052169 -0.46586949 -0.92553055 0.74226224
-0.27806383 -29.61017418 0.80280280 -0.10066081 -0.82580560 0.32376158
0.14917932 -28.22493935 1.70449805 0.05400383 -0.78717250 0.68740541
-1.05050087 -32.35130692 1.79032755 -0.38028777 -0.90225381 0.72201949
-0.13642825 -29.08542442 0.78610086 -0.04938786 -0.81117076 0.31702587
0.27657974 -27.70106506 1.67036235 0.10012356 -0.77256203 0.67363882
-0.87056535 -31.38800621 1.73263991 -0.31514999 -0.87538803 0.69875467
-0.66001332 -30.79007339 1.69671893 -0.23892887 -0.85871214 0.68426812
-0.45634720 -30.14883614 1.65830016 -0.16520049 -0.84082854 0.66877431
-0.26095566 -29.52624512 1.62107074 -0.09446755 -0.82346493 0.65376008
-0.07355499 -28.94832993 1.58657718 -0.02662736 -0.80734730 0.63984919
0.10661557 -28.38322639 1.55291617 0.03859549 -0.79158700 0.62627405
0.23624991 -27.85136604 1.52127707 0.08552392 -0.77675378 0.61351436
1.34289849 -25.97681808 -0.34494981 0.48613748 -0.72447407 -0.13911448
1.48152709 -25.53858376 -0.34152630 0.53632188 -0.71225202 -0.13773382
1.63612854 -25.43695831 -0.34079385 0.59228855 -0.70941776 -0.13743842
1.80079651 -25.49600410 -0.34135115 0.65189940 -0.71106452 -0.13766317
1.92568207 -25.55105591 -0.34186071 0.69710869 -0.71259987 -0.13786867
2.09166741 -25.60622787 -0.34240210 0.75719643 -0.71413857 -0.13808702
2.25807428 -25.65633583 -0.34291163 0.81743675 -0.71553606 -0.13829251
2.42519331 -25.70536232 -0.34342116 0.87793481 -0.71690333 -0.13849799
2.59182453 -25.74135780 -0.34383518 0.93825638 -0.71790725 -0.13866496
2.76238418 -25.80809212 -0.34450394 1.00000000 -0.71976840 -0.13893466
