7.65363169 -7.31624794 1.09371281 0.65505081 -0.73832077 0.44615197
7.93177795 -7.07175970 0.42818892 0.67885649 -0.71364814 0.17466864
7.59924173 -7.28099060 0.36368933 0.65039575 -0.73476273 0.14835769
8.13895988 -7.05503988 0.80464256 0.69658858 -0.71196085 0.32823321
7.84937572 -7.30589008 0.74575704 0.67180395 -0.73727548 0.30421239
8.04170799 -6.54123211 1.77237356 0.68826509 -0.66010988 0.72299415
7.79842186 -7.04665756 1.74254572 0.66744292 -0.71111494 0.71082664
8.05874348 -6.95473814 0.05744772 0.68972307 -0.70183891 0.02343432
8.27385426 -6.40745926 2.34199309 0.70813376 -0.64661014 0.95535576
7.82964802 -7.24617100 -0.00208090 0.67011547 -0.73124892 -0.00084885
8.03221512 -6.94738150 2.31579518 0.68745261 -0.70109648 0.94466901
7.38796234 -7.20474100 2.17280984 0.63231295 -0.72706801 0.88634181
7.88722086 -6.99081755 1.14744067 0.67504299 -0.70547986 0.46806887
7.66930532 -7.26230669 1.09070659 0.65639228 -0.73287725 0.44492567
7.96951342 -7.03826094 0.42850816 0.68208617 -0.71026760 0.17479886
7.74628162 -7.35258865 0.37111738 0.66298044 -0.74198806 0.15138778
8.15848923 -7.00495243 0.80307263 0.69826001 -0.70690626 0.32759279
7.83105421 -7.22007942 0.73984116 0.67023587 -0.72861588 0.30179915
8.06783295 -6.49956465 1.77134347 0.69050103 -0.65590495 0.72257394
7.81980705 -6.99928570 1.73987913 0.66927326 -0.70633441 0.70973885
8.09903908 -6.92316723 0.05763118 0.69317186 -0.69865292 0.02350916
8.35820484 -6.40983486 2.35749435 0.71535307 -0.64684987 0.96167910
7.82103300 -7.16992188 -0.00281902 0.66937816 -0.72355419 -0.00114995
7.99083948 -6.84578705 2.29418850 0.68391138 -0.69084406 0.93585509
7.55148602 -7.29460526 2.21129322 0.64630848 -0.73613667 0.90204012
7.91452837 -6.92677259 1.14477539 0.67738014 -0.69901675 0.46698165
7.72057772 -7.21941471 1.09163153 0.66078049 -0.72854877 0.44530296
7.98493099 -6.96316385 0.42648622 0.68340570 -0.70268917 0.17397407
8.21604061 -6.96512270 0.80464256 0.70318568 -0.70288688 0.32823321
7.84830904 -7.14518404 0.73671889 0.67171264 -0.72105777 0.30052549
8.11932278 -6.45730877 1.77374697 0.69490784 -0.65164071 0.72355437
7.85182953 -6.93954372 1.73721254 0.67201394 -0.70030558 0.70865113
8.12248135 -6.85541439 0.05715420 0.69517821 -0.69181561 0.02331458
8.30331612 -6.28557110 2.33047795 0.71065527 -0.63430977 0.95065844
7.90588856 -7.15695333 -0.00213180 0.67664069 -0.72224551 -0.00086961
8.09621048 -6.84853220 2.31233811 0.69292974 -0.69112110 0.94325876
7.57448578 -7.22545862 2.20460033 0.64827693 -0.72915870 0.89930993
7.92328787 -6.84711933 1.13920259 0.67812985 -0.69097853 0.46470836
7.75995827 -7.16536045 1.09070659 0.66415095 -0.72309387 0.44492567
7.63980484 -7.44435501 1.41845655 0.65386742 -0.75124872 0.57862282
11.51519775 -9.90337372 0.67124867 0.98555034 -0.99940109 0.27381861
7.83220911 -7.24922848 0.37073645 0.67033470 -0.73155743 0.15123239
8.01939392 -6.71304512 0.77725637 0.68635529 -0.67744839 0.31706172
7.90340662 -7.10507917 0.73786920 0.67642826 -0.71701062 0.30099472
7.60799503 -7.37599897 0.67603916 0.65114492 -0.74435055 0.27577275
8.18922520 -6.42922592 1.78027046 0.70089060 -0.64880675 0.72621548
7.90565968 -6.89916945 1.73954582 0.67662108 -0.69623119 0.70960289
8.18385792 -6.81957054 0.05759449 0.70043123 -0.68819845 0.02349419
8.36767960 -6.25190496 2.33756423 0.71616399 -0.63091236 0.95354915
7.94623566 -7.10313129 -0.00220816 0.68009388 -0.71681404 -0.00090076
8.14656353 -6.80380058 2.31449890 0.69723934 -0.68660700 0.94414020
7.53534651 -7.39297533 1.67451656 0.64492714 -0.74606371 0.68307590
7.73668432 -7.28746223 2.23890066 0.66215903 -0.73541582 0.91330189
7.95556402 -6.78820133 1.13750648 0.68089229 -0.68503278 0.46401647
7.79310322 -7.10573149 1.08885658 0.66698772 -0.71707642 0.44417098
7.64356852 -7.35512161 1.40978634 0.65418953 -0.74224371 0.57508606
11.58329105 -9.83598995 0.67167437 0.99137825 -0.99260104 0.27399227
7.87318611 -7.19582319 0.37045076 0.67384177 -0.72616804 0.15111585
8.28907204 -6.84993362 0.80307263 0.70943618 -0.69126254 0.32759279
7.62821388 -7.30327845 0.67328089 0.65287536 -0.73701191 0.27464759
8.19670486 -6.35236359 1.77306020 0.70153075 -0.64105016 0.72327423
7.93095493 -6.83387852 1.73554599 0.67878604 -0.68964231 0.70797127
8.21262550 -6.75660801 0.05726427 0.70289338 -0.68184453 0.02335948
8.34548950 -6.15418243 2.32029152 0.71426481 -0.62105066 0.94650316
8.00118637 -7.06234789 -0.00203000 0.68479693 -0.71269834 -0.00082808
8.17410946 -6.74002838 2.31017756 0.69959688 -0.68017143 0.94237745
7.54897499 -7.31394958 1.66716743 0.64609355 -0.73808879 0.68007803
7.76797390 -7.22541475 2.23471785 0.66483700 -0.72915429 0.91159558
8.01478672 -6.75211906 1.14017177 0.68596095 -0.68139154 0.46510372
7.82875299 -7.04863358 1.08746910 0.67003888 -0.71131438 0.44360501
7.57694244 -7.41102219 1.05329406 0.64848721 -0.74788493 0.42966419
7.70544052 -7.32191610 1.41296542 0.65948498 -0.73889273 0.57638288
8.12088585 -6.81654739 0.42691189 0.69504166 -0.68789333 0.17414771
7.90639925 -7.13548231 0.36968890 0.67668438 -0.72007877 0.15080507
8.32421684 -6.79143381 0.80220044 0.71244413 -0.68535900 0.32723701
8.10878563 -7.10790730 0.75068700 0.69400603 -0.71729600 0.30622342
7.75234127 -7.32903242 0.68155575 0.66349906 -0.73961091 0.27802312
8.24429226 -6.30670738 1.77477694 0.70560360 -0.63644272 0.72397453
7.96623898 -6.77750874 1.73387933 0.68180591 -0.68395376 0.70729142
8.25802517 -6.70738888 0.05733765 0.70677900 -0.67687762 0.02338942
8.33503819 -6.06614399 2.30656195 0.71337026 -0.61216623 0.94090253
8.00325966 -6.97506475 -0.00274266 0.68497437 -0.70389014 -0.00111880
8.06206894 -6.56249285 2.26609969 0.69000769 -0.66225541 0.92439699
7.60621405 -7.27727079 1.66972363 0.65099245 -0.73438734 0.68112075
7.72584581 -7.27346563 -0.04261254 0.66123140 -0.73400337 -0.01738269
7.80888987 -7.17250395 2.23346281 0.66833889 -0.72381479 0.91108364
8.07081127 -6.71302652 1.14235246 0.69075590 -0.67744654 0.46599326
7.88770723 -7.01253319 1.08978152 0.67508459 -0.70767128 0.44454831
7.64913654 -7.38807297 1.05731750 0.65466607 -0.74556899 0.43130544
7.72816086 -7.25173473 1.40834129 0.66142952 -0.73181039 0.57449657
8.14507294 -6.75013113 0.42563486 0.69711173 -0.68119097 0.17362678
7.94363165 -7.07900476 0.36921275 0.67987102 -0.71437931 0.15061083
8.36827850 -6.74024439 0.80237490 0.71621525 -0.68019325 0.32730818
8.16682720 -7.06858349 0.75216597 0.69897366 -0.71332765 0.30682674
7.71034098 -7.41133213 0.32213193 0.65990436 -0.74791616 0.13140543
7.81868124 -7.29919100 0.68370110 0.66917688 -0.73659945 0.27889824
8.29005432 -6.25951958 1.77615035 0.70952028 -0.63168079 0.72453481
8.00263596 -6.72223663 1.73254597 0.68492103 -0.67837596 0.70674753
8.29531765 -6.65162659 0.05722758 0.70997071 -0.67125034 0.02334452
8.41423321 -6.04315376 2.31807709 0.72014832 -0.60984617 0.94559985
8.05449295 -6.93117809 -0.00261540 0.68935931 -0.69946134 -0.00106688
7.64891243 -7.22663021 1.66908455 0.65464687 -0.72927696 0.68086004
7.83155441 -7.28049421 -0.04187657 0.67027867 -0.73471266 -0.01708247
7.83928967 -7.11018658 2.22927999 0.67094070 -0.71752602 0.90937734
8.14532852 -6.71018124 1.14913678 0.69713360 -0.67715937 0.46876076
8.01443100 -7.05818129 1.10435021 0.68593049 -0.71227789 0.45049122
7.57596827 -7.24910212 1.04055309 0.64840382 -0.73154473 0.42446685
7.76515245 -7.21792555 1.40891933 0.66459554 -0.72839850 0.57473236
7.97092199 -7.03619289 0.36883181 0.68220669 -0.71005893 0.15045545
8.25643921 -6.58670092 0.78632694 0.70664322 -0.66469836 0.32076183
8.17134190 -7.00531673 0.74904370 0.69936001 -0.70694304 0.30555308
7.75677776 -7.38591719 0.32281965 0.66387874 -0.74535143 0.13168596
7.76646042 -7.18254900 0.67466003 0.66470748 -0.72482848 0.27521017
8.29101467 -6.19920254 1.76997006 0.70960248 -0.62559384 0.72201371
8.03119755 -6.68192196 1.73187935 0.68736553 -0.67430758 0.70647556
8.34382248 -6.62610817 0.05763118 0.71412212 -0.66867512 0.02350916
8.45534992 -6.01245260 2.32162023 0.72366738 -0.60674793 0.94704515
8.10378075 -6.90744734 -0.00233542 0.69357765 -0.69706655 -0.00095268
8.20238686 -6.52830648 2.28554583 0.70201707 -0.65880543 0.93232954
7.60634613 -7.11915112 1.65214956 0.65100378 -0.71843070 0.67395186
7.84956503 -7.22863674 -0.04207403 0.67182010 -0.72947943 -0.01716302
7.87270880 -7.07316637 2.22927999 0.67380095 -0.71379012 0.90937734
8.19658375 -6.66636848 1.15059054 0.70152038 -0.67273802 0.46935377
8.08705616 -7.03250837 1.10874391 0.69214624 -0.70968711 0.45228353
7.70964718 -7.28445101 1.05418813 0.65984499 -0.73511195 0.43002889
7.78844261 -7.14896202 1.40458429 0.66658884 -0.72143906 0.57296401
8.20947647 -6.65263891 0.42499635 0.70262384 -0.67135251 0.17336631
8.01347065 -6.98465633 0.36873659 0.68584830 -0.70485812 0.15041660
8.29295921 -6.53100538 0.78580362 0.70976889 -0.65907782 0.32054836
8.23646069 -6.97190571 0.75134432 0.70493335 -0.70357138 0.30649155
7.77678204 -7.31244612 0.32127228 0.66559088 -0.73793709 0.13105476
7.85568810 -7.17386580 0.67925715 0.67234421 -0.72395223 0.27708545
8.33932686 -6.15398741 1.77203012 0.71373737 -0.62103099 0.72285402
8.06997967 -6.62881947 1.73121274 0.69068474 -0.66894877 0.70620364
8.37110615 -6.56247568 0.05730096 0.71645725 -0.66225368 0.02337445
8.47697353 -5.94803667 2.31719136 0.72551811 -0.60024738 0.94523853
8.13021755 -6.84219694 -0.00261540 0.69584030 -0.69048178 -0.00106688
8.21104717 -6.45124340 2.27647090 0.70275825 -0.65102863 0.92862767
7.72645712 -7.14075327 1.66876507 0.66128373 -0.72061068 0.68072975
7.89779282 -7.18185949 -0.04203813 0.67594779 -0.72475892 -0.01714837
7.91406393 -7.02097082 2.22844338 0.67734039 -0.70852280 0.90903610
7.52535486 -7.42050934 2.13089442 0.64407200 -0.74884230 0.86924350
8.23520756 -6.61225653 1.15010595 0.70482612 -0.66727728 0.46915612
8.08593941 -6.94264746 1.10180640 0.69205070 -0.70061874 0.44945353
7.74507380 -7.22639465 1.05262351 0.66287702 -0.72925317 0.42939064
7.83761358 -7.10386372 1.40545130 0.67079723 -0.71688795 0.57331765
7.52916718 -7.33200788 1.34231079 0.64439827 -0.73991114 0.54756111
8.20581818 -6.56483221 0.42191023 0.70231074 -0.66249144 0.17210741
11.50083160 -9.90930843 0.58567387 0.98432082 -1.00000000 0.23891057
8.33540535 -6.47999048 0.78597808 0.71340173 -0.65392965 0.32061952
8.22971153 -6.87774134 0.74592137 0.70435572 -0.69406873 0.30427942
7.82550716 -7.26615286 0.32144421 0.66976112 -0.73326540 0.13112488
7.89764071 -7.12170076 0.67895073 0.67593479 -0.71868795 0.27696046
7.67743349 -7.43954849 0.61691552 0.65708792 -0.75076365 0.25165480
8.36985397 -6.09568453 1.77031338 0.71635008 -0.61514729 0.72215372
8.13899708 -6.60039568 1.73721254 0.69659173 -0.66608036 0.70865113
8.41850853 -6.51463270 0.05744772 0.72051424 -0.65742558 0.02343432
8.52220726 -5.90019274 2.31940579 0.72938949 -0.59541923 0.94614184
8.18993950 -6.80506945 -0.00233542 0.70095176 -0.68673503 -0.00095268
7.76240587 -7.08409786 1.66684783 0.66436046 -0.71489328 0.67994761
7.93978024 -7.12942791 -0.04207403 0.67954135 -0.71946776 -0.01716302
7.96981049 -6.98139429 2.23178959 0.68211156 -0.70452893 0.91040111
7.57463264 -7.37581921 2.13169718 0.64828950 -0.74433237 0.86957097
8.22828674 -6.52224731 1.14259481 0.70423377 -0.65819401 0.46609214
7.94029093 -6.73076534 1.07290041 0.67958510 -0.67923665 0.43766209
7.78886127 -7.17624474 1.05239987 0.66662467 -0.72419226 0.42929941
7.86436701 -7.03867483 1.40198314 0.67308700 -0.71030939 0.57190293
7.63207912 -7.33957529 1.35347807 0.65320617 -0.74067485 0.55211651
8.30969238 -6.56253576 0.42616695 0.71120101 -0.66225970 0.17384383
11.56438637 -9.83814812 0.58576912 0.98976028 -0.99281883 0.23894942
8.49151134 -6.51581144 0.79871178 0.72676235 -0.65754449 0.32581389
8.29732418 -6.84624052 0.74855071 0.71014243 -0.69088984 0.30535197
7.85920429 -7.20605993 0.32075652 0.67264515 -0.72720110 0.13084437
7.71970940 -7.38701677 0.61649281 0.66070616 -0.74546242 0.25148237
8.39837551 -6.03609467 1.76825333 0.71879113 -0.60913378 0.72131342
8.12958527 -6.50835657 1.72621286 0.69578618 -0.65679222 0.70416409
8.18077564 -6.24971962 0.05102681 0.70016742 -0.63069183 0.02081507
8.54943466 -5.83994818 2.31674838 0.73171985 -0.58933961 0.94505781
8.20783615 -6.73313570 -0.00274266 0.70248348 -0.67947584 -0.00111880
7.80235529 -7.03122902 1.66588926 0.66777962 -0.70955801 0.67955661
7.96193457 -7.05954123 -0.04234328 0.68143749 -0.71241510 -0.01727285
7.87424088 -6.81118155 2.19246984 0.67393208 -0.68735188 0.89436162
7.60250092 -7.31039095 2.12647915 0.65067470 -0.73772967 0.86744237
8.26440716 -6.46675777 1.14186788 0.70732522 -0.65259427 0.46579558
8.05086708 -6.73825216 1.08330655 0.68904895 -0.67999220 0.44190702
7.92951965 -7.21391773 1.06692910 0.67866319 -0.72799408 0.43522626
7.90843678 -6.98912287 1.40198314 0.67685878 -0.70530885 0.57190293
7.68377781 -7.29694319 1.35459483 0.65763092 -0.73637259 0.55257207
8.47695637 -6.60818672 0.43468043 0.72551662 -0.66686660 0.17731668
11.62902832 -9.76786709 0.58595961 0.99529278 -0.98572642 0.23902713
8.52751255 -6.45872974 0.79818845 0.72984356 -0.65178412 0.32560042
8.33400440 -6.78892517 0.74789333 0.71328181 -0.68510586 0.30508381
7.91026115 -7.16189051 0.32110038 0.67701495 -0.72274375 0.13098463
8.00300980 -7.03634882 0.68063635 0.68495297 -0.71007466 0.27764806
7.74425888 -7.31777239 0.61437911 0.66280729 -0.73847461 0.25062013
8.45222950 -5.99457407 1.77168679 0.72340035 -0.60494375 0.72271401
8.19348907 -6.47553539 1.73121274 0.70125556 -0.65348005 0.70620364
8.46772671 -6.38431549 0.05671391 0.72472668 -0.64427459 0.02313498
8.58595943 -5.78611565 2.31674838 0.73484588 -0.58390713 0.94505781
8.24532413 -6.67764711 -0.00281902 0.70569193 -0.67387623 -0.00114995
7.84342432 -6.97944784 1.66525018 0.67129457 -0.70433247 0.67929590
8.01065540 -7.01331949 -0.04228943 0.68560737 -0.70775068 -0.01725088
7.93922615 -6.78058100 2.19874430 0.67949396 -0.68426377 0.89692110
7.75851488 -7.28671885 -0.11342006 0.66402745 -0.73534083 -0.04626679
7.64828300 -7.26247931 2.12647915 0.65459305 -0.73289466 0.86744237
8.28284645 -6.39775610 1.13847566 0.70890337 -0.64563096 0.46441182
8.11597919 -6.70656013 1.08677530 0.69462168 -0.67679399 0.44332200
8.02800560 -7.21166658 1.07497597 0.68709230 -0.72776687 0.43850875
7.66975498 -7.39915562 0.98693490 0.65643072 -0.74668741 0.40259469
7.91634798 -6.90813589 1.39504707 0.67753589 -0.69713604 0.56907350
7.72226429 -7.24173355 1.35319889 0.66092485 -0.73080111 0.55200261
8.43746948 -6.49283123 0.42925310 0.72213709 -0.65522546 0.17510274
11.68402767 -9.68949795 0.58557868 1.00000000 -0.97781777 0.23887174
8.54395485 -6.38717413 0.79557192 0.73125082 -0.64456308 0.32453308
8.17642975 -6.57490873 0.72669470 0.69979548 -0.66350836 0.29643640
7.91630745 -7.07749557 0.31886530 0.67753243 -0.71422702 0.13007289
8.15717030 -7.08114672 0.69182271 0.69814712 -0.71459544 0.28221124
7.81338120 -7.29079151 0.61663371 0.66872329 -0.73575181 0.25153986
8.49134350 -5.94247580 1.77203012 0.72674799 -0.59968621 0.72285402
8.24177647 -6.43000698 1.73287940 0.70538831 -0.64888555 0.70688349
8.60567093 -6.40361834 0.05895205 0.73653293 -0.64622253 0.02404797
8.61238670 -5.72559547 2.31409121 0.73710769 -0.57779968 0.94397390
8.28087997 -6.62070131 -0.00292083 0.70873505 -0.66812950 -0.00119148
7.88860846 -6.93132877 1.66556978 0.67516172 -0.69947654 0.67942631
7.62361908 -7.45552492 1.59453440 0.65248209 -0.75237590 0.65044922
8.04243946 -6.95240879 -0.04243303 0.68832767 -0.70160383 -0.01730946
8.00263882 -6.74817419 2.20460033 0.68492126 -0.68099344 0.89930993
7.86562538 -7.29506445 -0.11322729 0.67319471 -0.73618299 -0.04618816
7.67949629 -7.20085096 2.12246513 0.65726447 -0.72667545 0.86580497
8.31290340 -6.35865355 1.13847566 0.71147585 -0.64168489 0.46441182
8.15670300 -6.67580748 1.08816278 0.69810712 -0.67369056 0.44388798
8.01877022 -7.13552237 1.06849372 0.68630189 -0.72008276 0.43586451
7.65143204 -7.31198549 0.97916257 0.65486252 -0.73789060 0.39942417
7.96381092 -6.88366699 1.39793706 0.68159807 -0.69466674 0.57025242
7.74906206 -7.19850969 1.35180295 0.66321838 -0.72643918 0.55143321
8.46319962 -6.44937611 0.42893383 0.72433925 -0.65084016 0.17497250
8.19519806 -6.72336721 0.36730811 0.70140183 -0.67849004 0.14983389
8.58678722 -6.35629940 0.79696745 0.73491669 -0.64144731 0.32510233
8.36611366 -6.66327095 0.74345642 0.71602994 -0.67242545 0.30327389
7.95706367 -7.04672194 0.31929514 0.68102062 -0.71112144 0.13024823
7.79264593 -7.41142845 0.25572345 0.66694862 -0.74792588 0.10431580
8.09049416 -6.95700836 0.68170899 0.69244051 -0.70206797 0.27808562
7.84765148 -7.25389099 0.61663371 0.67165637 -0.73202795 0.25153986
8.51600933 -5.90015745 1.77134347 0.72885907 -0.59541565 0.72257394
8.25328732 -6.37659264 1.72887945 0.70637345 -0.64349520 0.70525187
8.60028458 -6.33696556 0.05814485 0.73607188 -0.63949627 0.02371869
8.65721703 -5.69670486 2.31896281 0.74094456 -0.57488418 0.94596118
7.93162584 -6.90313053 1.66780639 0.67884344 -0.69663090 0.68033868
7.59772062 -7.36024714 1.58155131 0.65026557 -0.74276096 0.64515311
8.07967663 -6.91832638 -0.04237918 0.69151467 -0.69816440 -0.01728750
8.04186821 -6.71664143 2.20669198 0.68827879 -0.67781132 0.90016317
7.88815308 -7.24707079 -0.11326401 0.67512274 -0.73133969 -0.04620314
7.71191120 -7.16324615 2.12206388 0.66003877 -0.72288054 0.86564130
8.35745144 -6.30987597 1.13920259 0.71528858 -0.63676250 0.46470836
8.16145992 -6.59438944 1.08261287 0.69851428 -0.66547424 0.44162405
8.04101372 -7.06536341 1.06514084 0.68820566 -0.71300268 0.43449676
7.72898912 -7.29385853 0.98378396 0.66150039 -0.73606133 0.40130934
7.99031878 -6.81939316 1.39475799 0.68386680 -0.68818051 0.56895560
7.79122496 -7.14699602 1.35124457 0.66682696 -0.72124064 0.55120540
8.50675201 -6.39846849 0.42914668 0.72806674 -0.64570284 0.17505933
8.26053047 -6.69064808 0.36873659 0.70699340 -0.67518818 0.15041660
8.50089550 -6.21078634 0.78336155 0.72756553 -0.62676287 0.31955218
8.45631695 -6.64885759 0.74855071 0.72375017 -0.67097092 0.30535197
8.01323605 -7.00708675 0.31998283 0.68582821 -0.70712167 0.13052875
7.78234196 -7.30884981 0.25287017 0.66606671 -0.73757416 0.10315187
8.47815132 -7.19706440 0.71634084 0.72561890 -0.72629333 0.29221278
7.90484142 -7.21522188 0.61776102 0.67655104 -0.72812569 0.25199971
8.56594276 -5.85540342 1.77409029 0.73313272 -0.59089929 0.72369444
8.27753258 -6.31262112 1.72554624 0.70844859 -0.63703954 0.70389217
8.61401939 -6.26403618 0.05755780 0.73724741 -0.63213658 0.02347922
8.67154503 -5.62843561 2.31320524 0.74217087 -0.56799477 0.94361252
8.40823936 -6.57246065 -0.00203000 0.71963537 -0.66326129 -0.00082808
7.96884346 -6.84802341 1.66652834 0.68202883 -0.69106978 0.67981732
7.64381647 -7.31236458 1.58155131 0.65421075 -0.73792887 0.64515311
8.15052128 -6.89061260 -0.04205608 0.69757807 -0.69536763 -0.01715569
8.09902382 -6.67839432 2.21087480 0.69317055 -0.67395163 0.90186942
7.92613840 -7.19063234 -0.11328696 0.67837381 -0.72564423 -0.04621250
7.75100136 -7.10934114 2.12045836 0.66338438 -0.71744072 0.86498636
8.40809155 -6.26552248 1.14089870 0.71962267 -0.63228655 0.46540025
8.25235271 -6.58271742 1.09001279 0.70629346 -0.66429633 0.44464263
7.98750734 -6.93022728 1.05061173 0.68362617 -0.69936538 0.42857000
7.73980570 -7.21254253 0.97874248 0.66242617 -0.72785527 0.39925277
8.04968262 -6.78304958 1.39793706 0.68894756 -0.68451291 0.57025242
7.81985903 -7.08324575 1.34817362 0.66927767 -0.71480727 0.54995269
7.66944599 -7.49850941 1.31232798 0.65640432 -0.75671369 0.53533041
8.63350296 -6.40901184 0.43489328 0.73891497 -0.64676684 0.17740351
8.19646931 -6.55357456 0.36226085 0.70151061 -0.66135538 0.14777498
8.54460621 -6.16073799 0.78388482 0.73130655 -0.62171221 0.31976563
8.49949741 -6.59681892 0.74871504 0.72744584 -0.66571939 0.30541903
8.03437996 -6.93705606 0.31869337 0.68763787 -0.70005453 0.13000275
7.84273958 -7.27342653 0.25360179 0.67123598 -0.73399943 0.10345032
8.26605511 -6.92892551 0.69059682 0.70746624 -0.69923401 0.28171119
8.04322147 -7.24973679 0.62663859 0.68839461 -0.73160875 0.25562108
8.59765720 -5.79817152 1.77306020 0.73584706 -0.58512372 0.72327423
8.33119106 -6.27118921 1.72854614 0.71304101 -0.63285840 0.70511585
8.61090946 -6.17955732 0.05660383 0.73698127 -0.62361139 0.02309007
8.71331692 -5.57803345 2.31497693 0.74574602 -0.56290847 0.94433522
8.45253181 -6.52195024 -0.00197909 0.72342622 -0.65816402 -0.00080732
7.97552347 -6.76723289 1.65885961 0.68260056 -0.68291676 0.67668903
7.66665697 -7.24242592 1.57672036 0.65616560 -0.73087096 0.64318246
8.15674877 -6.80857849 -0.04248688 0.69811106 -0.68708915 -0.01733143
8.09829044 -6.59288454 2.19916248 0.69310778 -0.66532236 0.89709169
7.96223879 -7.13266516 -0.11331450 0.68146354 -0.71979445 -0.04622373
7.78681946 -7.05259180 2.11804986 0.66644990 -0.71171385 0.86400390
8.43287849 -6.20201159 1.13871801 0.72174412 -0.62587732 0.46451068
8.39640427 -6.61205101 1.10527515 0.71862245 -0.66725653 0.45086852
8.03089333 -6.87990379 1.05061173 0.68733948 -0.69428700 0.42857000
7.81857300 -7.19481039 0.98357391 0.66916764 -0.72606581 0.40122366
8.10280895 -6.74117804 1.39996016 0.69349450 -0.68028742 0.57107770
7.86421013 -7.03397226 1.34817362 0.67307359 -0.70983481 0.54995269
7.60927629 -7.34712887 1.29221356 0.65125453 -0.74143708 0.52712524
8.58487034 -6.28988981 0.42904025 0.73475266 -0.63474560 0.17501593
8.24844456 -6.51063108 0.36292747 0.70595902 -0.65702176 0.14804691
8.61403370 -6.12881565 0.78719908 0.73724866 -0.61849076 0.32111758
8.53761864 -6.54085493 0.74838638 0.73070854 -0.66007179 0.30528495
8.08846951 -6.89549160 0.31929514 0.69226724 -0.69586003 0.13024823
7.87209940 -7.20912695 0.25279701 0.67374879 -0.72751063 0.10312203
8.31404305 -6.88065767 0.69105655 0.71157336 -0.69436306 0.28189871
8.12134457 -7.22829866 0.62973869 0.69508094 -0.72944534 0.25688568
7.73798800 -7.43719387 0.56251609 0.66227061 -0.75052601 0.22946395
8.64377308 -5.75056553 1.77512026 0.73979396 -0.58031958 0.72411460
8.37517166 -6.22225666 1.72954607 0.71680516 -0.62792039 0.70552379
8.65283394 -6.12763691 0.05667721 0.74056947 -0.61837178 0.02312001
8.74158764 -5.51902437 2.31320524 0.74816561 -0.55695355 0.94361252
8.47745609 -6.45656586 -0.00223361 0.72555941 -0.65156573 -0.00091115
8.03304482 -6.72963715 1.66205490 0.68752360 -0.67912281 0.67799246
7.70479488 -7.18735504 1.57521069 0.65942973 -0.72531348 0.64256662
8.15482330 -6.55409384 2.20334554 0.69794625 -0.66140777 0.89879805
7.99941969 -7.07585716 -0.11333745 0.68464571 -0.71406168 -0.04623310
7.82952023 -7.00221777 2.11764860 0.67010456 -0.70663029 0.86384022
8.47328949 -6.15006733 1.13896036 0.72520280 -0.62063539 0.46460953
8.44874573 -6.56771994 1.10689390 0.72310215 -0.66278285 0.45152885
8.06180286 -6.81906414 1.04882348 0.68998492 -0.68814731 0.42784053
7.87391043 -7.15492582 0.98504436 0.67390376 -0.72204089 0.40182346
8.17104340 -6.71143723 1.40487325 0.69933450 -0.67728615 0.57308185
7.90528631 -6.98179388 1.34761524 0.67658913 -0.70456922 0.54972494
7.69265223 -7.33466148 1.29918647 0.65839046 -0.74017894 0.52996963
8.57236004 -6.19847775 0.42563486 0.73368192 -0.62552071 0.17362678
8.49374104 -6.61869383 0.37530756 0.72695315 -0.66792691 0.15309705
8.65890312 -6.07913828 0.78789681 0.74108887 -0.61347753 0.32140222
8.57854748 -6.48708248 0.74838638 0.73421150 -0.65464532 0.30528495
8.12397957 -6.83811569 0.31886530 0.69530642 -0.69006991 0.13007289
7.91576004 -7.15817976 0.25272384 0.67748559 -0.72236925 0.10309219
8.21173191 -6.70995569 0.67665213 0.70281690 -0.67713660 0.27602282
8.16061592 -7.17184925 0.62917501 0.69844204 -0.72374874 0.25665575
7.73525858 -7.34180927 0.55808628 0.66203701 -0.74090028 0.22765692
8.65994167 -5.68320847 1.77100015 0.74117780 -0.57352221 0.72243392
8.38869286 -6.15080452 1.72421288 0.71796244 -0.62070978 0.70334822
8.67639256 -6.06286860 0.05634699 0.74258578 -0.61183572 0.02298531
8.76780319 -5.45885277 2.31099081 0.75040931 -0.55088133 0.94270921
8.50508690 -6.39353514 -0.00243723 0.72792423 -0.64520496 -0.00099421
8.07821655 -6.68154240 1.66269398 0.69138974 -0.67426932 0.67825317
7.75851154 -7.14685678 1.57702231 0.66402715 -0.72122657 0.64330566
8.24166107 -6.70554304 -0.04248688 0.70537841 -0.67669135 -0.01733143
8.18510056 -6.49423838 2.20041752 0.70053756 -0.65536749 0.89760363
8.03620148 -7.01886320 -0.11336040 0.68779379 -0.70831007 -0.04624245
7.85430193 -6.93598843 2.11243033 0.67222553 -0.69994676 0.86171156
8.51984501 -6.10247135 1.14017177 0.72918731 -0.61583221 0.46510372
8.39856625 -6.44418907 1.09348154 0.71880746 -0.65031672 0.44605762
8.09379387 -6.75937891 1.04725885 0.69272292 -0.68212420 0.42720228
7.87142038 -7.06271553 0.97832233 0.67369068 -0.71273547 0.39908141
8.18379974 -6.63633823 1.39938211 0.70042628 -0.66970748 0.57084191
7.94899797 -6.93198633 1.34761524 0.68033028 -0.69954288 0.54972494
7.68475246 -7.44354868 0.93859029 0.65771431 -0.75116730 0.38287374
7.70533657 -7.25499773 1.29301810 0.65947604 -0.73213965 0.52745342
8.58346176 -6.12482643 0.42382577 0.73463207 -0.61808819 0.17288880
8.55729580 -6.58228922 0.37664080 0.73239261 -0.66425312 0.15364091
8.74120712 -6.05516052 0.79260659 0.74813306 -0.61105782 0.32332346
8.62392235 -6.43664026 0.74887937 0.73809499 -0.64955497 0.30548605
8.19602871 -6.81114578 0.32049862 0.70147288 -0.68734825 0.13073915
7.94420862 -7.09362793 0.25191906 0.67992038 -0.71585500 0.10276389
8.22264099 -6.63324642 0.67358738 0.70375055 -0.66939551 0.27477261
8.09118557 -7.02084541 0.61846560 0.69249970 -0.70851016 0.25228712
8.70541573 -5.63508892 1.77306020 0.74506974 -0.56866622 0.72327423
8.43355465 -6.10261250 1.72554624 0.72180200 -0.61584646 0.70389217
8.72420597 -6.01502562 0.05656714 0.74667794 -0.60700762 0.02307511
8.82189846 -5.41586113 2.31630564 0.75503916 -0.54654282 0.94487721
8.55150509 -6.34474897 -0.00233542 0.73189700 -0.64028174 -0.00095268
8.13076019 -6.63937426 1.66493070 0.69588679 -0.67001390 0.67916560
7.78574371 -7.08196974 1.57339907 0.66635787 -0.71467853 0.64182764
8.28050709 -6.65112829 -0.04252278 0.70870316 -0.67120004 -0.01734607
8.21494961 -6.43426132 2.19748926 0.70309228 -0.64931488 0.89640915
8.06804657 -6.95775986 -0.11339711 0.69051927 -0.70214385 -0.04625743
7.90804672 -6.89553547 2.11524010 0.67682540 -0.69586444 0.86285770
8.54340839 -6.03853512 1.13799107 0.73120403 -0.60938007 0.46421415
8.28866291 -6.27706099 1.07151294 0.70940119 -0.63345098 0.43709612
8.15914249 -6.72731161 1.05061173 0.69831592 -0.67888808 0.42857000
7.90672398 -7.00518799 0.97706199 0.67671221 -0.70693004 0.39856726
8.23771381 -6.59465790 1.40169418 0.70504057 -0.66550130 0.57178503
7.98340654 -6.87413406 1.34594011 0.68327522 -0.69370472 0.54904163
7.68670988 -7.35256243 0.93237954 0.65788186 -0.74198544 0.38034022
7.76240110 -7.21721506 1.29516363 0.66436005 -0.72832680 0.52832866
10.55620480 -7.42727375 0.54971880 0.90347308 -0.74952495 0.22424363
8.59371758 -6.52475977 0.37635511 0.73550987 -0.65844756 0.15352437
8.74449253 -5.97657633 0.78894347 0.74841422 -0.60312748 0.32182917
8.65938663 -6.37877226 0.74838638 0.74113029 -0.64371520 0.30528495
8.20617199 -6.73296070 0.31869337 0.70234102 -0.67945820 0.13000275
7.99460888 -7.04887199 0.25221172 0.68423396 -0.71133846 0.10288327
8.02044010 -6.38812542 0.64968216 0.68644482 -0.64465904 0.26502112
8.07766247 -6.92043495 0.61311090 0.69134229 -0.69837719 0.25010279
7.75308037 -7.39025259 0.20235966 0.66356230 -0.74578893 0.08254741
7.86065292 -7.27514267 0.56108290 0.67276913 -0.73417258 0.22887932
8.59432411 -5.48726511 1.74284565 0.73556179 -0.55374855 0.71094900
8.46371937 -6.04375696 1.72387958 0.72438371 -0.60990703 0.70321226
8.75520515 -5.95560503 0.05642038 0.74933112 -0.60101116 0.02301524
8.86577606 -5.36636496 2.31896281 0.75879449 -0.54154789 0.94596118
8.58475685 -6.28615522 -0.00243723 0.73474294 -0.63436872 -0.00099421
8.12613201 -6.55107260 1.65534484 0.69549066 -0.66110289 0.67525530
7.83155537 -7.03423500 1.57370102 0.67027873 -0.70986134 0.64195079
8.33311939 -6.60764647 -0.04239713 0.71320605 -0.66681206 -0.01729482
8.24901581 -6.37774563 2.19581628 0.70600790 -0.64361155 0.89572668
8.10856342 -6.90433073 -0.11340629 0.69398701 -0.69675201 -0.04626118
7.92305183 -6.82136869 2.10761380 0.67810965 -0.68837988 0.85974675
8.58805752 -6.00955915 1.14041412 0.73502541 -0.60645598 0.46520257
8.39273930 -6.29409552 1.08238161 0.71830875 -0.63516998 0.44152969
7.31903076 -7.14987850 1.96418512 0.62641335 -0.72153151 0.80123872
8.32643223 -6.79915285 1.07028198 0.71263373 -0.68613797 0.43659398
7.93666220 -6.96522093 0.97664183 0.67927450 -0.70289677 0.39839590
8.24074268 -6.53368855 1.39649200 0.70529985 -0.65934861 0.56966293
8.01420689 -6.83514881 1.34566092 0.68591130 -0.68977052 0.54892772
7.72995520 -7.32445383 0.93358165 0.66158307 -0.73914886 0.38083059
7.78756285 -7.17251635 1.29355443 0.66651356 -0.72381604 0.52767223
8.66833401 -6.04260635 0.42499635 0.74189603 -0.60979092 0.17336631
8.61001873 -6.47335863 0.37549803 0.73690504 -0.65326041 0.15317474
8.77255917 -5.93530273 0.78894347 0.75081635 -0.59896237 0.32182917
8.23004341 -6.68792963 0.31826356 0.70438409 -0.67491388 0.12982742
8.01120567 -6.99662685 0.25140694 0.68565446 -0.70606613 0.10255498
8.30919170 -6.55352163 0.67496651 0.71115816 -0.66135007 0.27533519
8.07677364 -6.85383081 0.61001074 0.69126624 -0.69165581 0.24883817
7.77325964 -7.33993864 0.20172460 0.66528940 -0.74071151 0.08228835
7.89779568 -7.24071121 0.56134349 0.67594802 -0.73069793 0.22898562
8.78019142 -5.54742241 1.77580702 0.75146961 -0.55981934 0.72439474
8.48567295 -5.99923944 1.72254634 0.72626263 -0.60541457 0.70266843
8.78483295 -5.91539478 0.05645707 0.75186682 -0.59695333 0.02303021
8.61105061 -6.24327707 -0.00248814 0.73699331 -0.63004166 -0.00101497
8.13373375 -6.49427366 1.65055192 0.69614124 -0.65537101 0.67330015
7.86019278 -6.99330044 1.57279527 0.67272973 -0.70573044 0.64158130
8.36573982 -6.56953669 -0.04237918 0.71599793 -0.66296619 -0.01728750
8.29764080 -6.35303354 2.20083570 0.71016955 -0.64111775 0.89777422
8.14558792 -6.86992025 -0.11339252 0.69715583 -0.69327950 -0.04625556
7.96999216 -6.79669857 2.11162758 0.68212712 -0.68589032 0.86138409
8.63873386 -5.96447849 1.14235246 0.73936266 -0.60190666 0.46599326
8.44009304 -6.24716377 1.08353782 0.72236162 -0.63043386 0.44200134
7.83365393 -7.16712427 -0.17315072 0.67045838 -0.72327191 -0.07063238
7.49402809 -7.22887135 1.99945533 0.64139080 -0.72950310 0.81562632
8.36898708 -6.74670267 1.07028198 0.71627587 -0.68084496 0.43659398
7.98927307 -6.92304897 0.97790223 0.68377733 -0.69864100 0.39891002
8.26446342 -6.46839762 1.39331293 0.70732999 -0.65275973 0.56836611
8.04489613 -6.77443075 1.34342754 0.68853790 -0.68364316 0.54801667
7.77582312 -7.27574062 0.93358165 0.66550881 -0.73423296 0.38083059
7.84275675 -7.13275909 1.29543185 0.67123741 -0.71980393 0.52843803
7.64136553 -7.45938587 1.23039377 0.65400100 -0.75276554 0.50190747
8.68800449 -5.97560835 0.42382577 0.74357957 -0.60302979 0.17288880
8.64892006 -6.41793919 0.37540278 0.74023449 -0.64766771 0.15313590
8.84286404 -5.90212440 0.79243213 0.75683355 -0.59561414 0.32325229
8.57714081 -6.17342806 0.73293924 0.73409110 -0.62299281 0.29898369
8.27034092 -6.63483953 0.31817758 0.70783305 -0.66955626 0.12979235
8.05651951 -6.94746113 0.25148010 0.68953276 -0.70110452 0.10258483
8.46051121 -6.58672571 0.68569320 0.72410911 -0.66470087 0.27971089
8.11662388 -6.80037975 0.60972893 0.69467688 -0.68626177 0.24872321
7.80311346 -7.27598810 0.20102605 0.66784447 -0.73425794 0.08200340
7.90756512 -7.15886688 0.55821657 0.67678416 -0.72243857 0.22771007
8.51996994 -5.94354153 1.72187960 0.72919804 -0.59979379 0.70239645
8.81015301 -5.85235929 0.05620023 0.75403392 -0.59059209 0.02292544
8.60138226 -6.15404558 -0.00325171 0.73616588 -0.62103683 -0.00132645
8.16506004 -6.43572569 1.64863467 0.69882238 -0.64946264 0.67251807
7.89952898 -6.93985271 1.57188940 0.67609638 -0.70033675 0.64121181
8.38469124 -6.49973202 -0.04263049 0.71761996 -0.65592188 -0.01739001
8.38114738 -6.33370447 2.21254802 0.71731663 -0.63916713 0.90255195
8.18398857 -6.81475687 -0.11340629 0.70044243 -0.68771267 -0.04626118
8.04096985 -6.77052069 2.11925411 0.68820190 -0.68324858 0.86449516
8.69903946 -5.92568541 1.14574456 0.74452406 -0.59799182 0.46737698
8.46956635 -6.18696022 1.08215034 0.72488415 -0.62435842 0.44143537
7.63043213 -7.26811218 2.02399135 0.65306520 -0.73346311 0.82563514
8.38785076 -6.67546558 1.06692910 0.71789038 -0.67365605 0.43522626
8.30180550 -6.41392946 1.39273500 0.71052599 -0.64726305 0.56813037
8.08426094 -6.72121191 1.34286916 0.69190705 -0.67827255 0.54778886
7.84920311 -7.25234556 0.93738818 0.67178917 -0.73187202 0.38238338
7.87560129 -7.07276964 1.29328632 0.67404848 -0.71375006 0.52756286
7.59256887 -7.31880093 1.21334982 0.64982462 -0.73857838 0.49495479
8.74854565 -5.93655729 0.42531562 0.74876112 -0.59908897 0.17349656
8.69229317 -6.36583710 0.37559325 0.74394667 -0.64240980 0.15321359
8.75314426 -5.76342106 0.77917510 0.74915469 -0.58161688 0.31784442
8.61413765 -6.11825705 0.73277491 0.73725754 -0.61742520 0.29891664
8.28990269 -6.56541920 0.31697410 0.70950729 -0.66255069 0.12930143
8.09089661 -6.88891220 0.25104114 0.69247496 -0.69519603 0.10240577
8.49222851 -6.52616453 0.68477374 0.72682375 -0.65858930 0.27933580
8.15458679 -6.74542379 0.60930622 0.69792598 -0.68071592 0.24855077
7.83689022 -7.21600676 0.20051801 0.67073536 -0.72820491 0.08179616
7.92109013 -7.08116865 0.55548048 0.67794174 -0.71459764 0.22659396
7.63206482 -7.32289362 0.49205819 0.65320498 -0.73899138 0.20072247
8.83912277 -5.43048382 1.77374697 0.75651336 -0.54801846 0.72355437
8.57499027 -5.90222597 1.72554624 0.73390704 -0.59562439 0.70389217
8.86182213 -5.80672264 0.05653045 0.75845611 -0.58598667 0.02306014
8.64151096 -6.10103703 -0.00322625 0.73960036 -0.61568749 -0.00131607
8.23342609 -6.40606451 1.65438628 0.70467365 -0.64646935 0.67486429
7.93999529 -6.88748503 1.57128561 0.67955977 -0.69505203 0.64096552
8.43013573 -6.45055866 -0.04257664 0.72150940 -0.65095949 -0.01736804
8.51968575 -6.35439587 2.23890066 0.72917372 -0.64125526 0.91330189
8.22664547 -6.76320124 -0.11340629 0.70409328 -0.68250990 -0.04626118
8.07432556 -6.71233177 2.11684585 0.69105667 -0.67737639 0.86351275
8.83509350 -5.93716049 1.16028249 0.75616848 -0.59914982 0.47330737
8.50183582 -6.12896347 1.08122540 0.72764599 -0.61850566 0.44105804
7.95449209 -7.09601927 -0.17329037 0.68080050 -0.71609634 -0.07068934
7.65446234 -7.19989395 2.01824069 0.65512192 -0.72657883 0.82328933
8.40145588 -6.60058451 1.06290567 0.71905476 -0.66609943 0.43358499
8.04833317 -6.79895306 0.97412109 0.68883210 -0.68611783 0.39736760
8.35139751 -6.36882353 1.39446902 0.71477044 -0.64271122 0.56883770
8.14008713 -6.68161964 1.34538174 0.69668502 -0.67427707 0.54881382
7.96971703 -7.27114439 0.94760585 0.68210357 -0.73376912 0.38655141
7.91097260 -7.01527405 1.29167712 0.67707580 -0.70794791 0.52690643
7.66135168 -7.29287910 1.21741998 0.65571153 -0.73596245 0.49661511
8.76240826 -5.86596251 0.42382577 0.74994761 -0.59196490 0.17288880
8.96484852 -5.82191515 0.79749072 0.76727384 -0.58751982 0.32531580
9.08926773 -6.37143898 0.77681559 0.77792245 -0.64297515 0.31688192
8.33572006 -6.51688576 0.31723198 0.71342868 -0.65765291 0.12940662
8.13860321 -6.84180689 0.25126061 0.69655800 -0.69044244 0.10249529
8.43442059 -6.39814663 0.67527300 0.72187614 -0.64567035 0.27546024
8.17983818 -6.68014050 0.60775614 0.70008719 -0.67412782 0.24791846
7.88355637 -7.16796589 0.20058151 0.67472935 -0.72335684 0.08182206
7.97441816 -7.03916693 0.55626225 0.68250591 -0.71035904 0.22691286
7.74880838 -7.34221649 0.49788642 0.66319668 -0.74094135 0.20309994
8.86125755 -5.36771631 1.77134347 0.75840777 -0.54168427 0.72257394
8.60375881 -5.84267616 1.72387958 0.73636925 -0.58961493 0.70321226
8.89645004 -5.74984598 0.05649376 0.76141977 -0.58024693 0.02304517
8.67803574 -6.04547453 -0.00325171 0.74272639 -0.61008036 -0.00132645
8.27508163 -6.35540533 1.65470576 0.70823878 -0.64135712 0.67499459
7.98461246 -6.83874989 1.57158756 0.68337840 -0.69013393 0.64108866
8.44812489 -6.38063192 -0.04282794 0.72304904 -0.64390284 -0.01747056
8.50266171 -6.25910950 2.22384191 0.72771668 -0.63163936 0.90715903
8.26897717 -6.71137857 -0.11340629 0.70771635 -0.67728025 -0.04626118
8.09668350 -6.64526939 2.11162758 0.69297022 -0.67060882 0.86138409
8.82583332 -5.85090542 1.15349817 0.75537592 -0.59044540 0.47053987
8.53856087 -6.07426929 1.08099413 0.73078918 -0.61298621 0.44096372
7.82489872 -7.26763630 2.05159426 0.66970903 -0.73341507 0.83689505
8.40186882 -6.51607656 1.05709398 0.71909010 -0.65757126 0.43121427
8.10614300 -6.76101875 0.97622168 0.69377983 -0.68228966 0.39822450
8.38966465 -6.31503773 1.39418006 0.71804559 -0.63728338 0.56871986
8.16040039 -6.61284494 1.34147322 0.69842356 -0.66733670 0.54721946
8.01376438 -7.21959686 0.94740546 0.68587345 -0.72856718 0.38646966
7.70529079 -7.45609808 0.85843515 0.65947217 -0.75243378 0.35017651
7.93547726 -6.94849348 1.28819060 0.67917311 -0.70120871 0.52548420
7.68970919 -7.22826004 1.21436739 0.65813857 -0.72944140 0.49536991
8.80409813 -5.81408310 0.42414501 0.75351566 -0.58672947 0.17301904
9.02140903 -5.77832985 0.79958391 0.77211463 -0.58312142 0.32616967
9.40745258 -6.50746870 0.80475181 0.80515492 -0.65670264 0.32827777
8.37650204 -6.46438265 0.31723198 0.71691906 -0.65235460 0.12940662
8.15993309 -6.77262402 0.25023636 0.69838357 -0.68346083 0.10207748
8.47285652 -6.34383345 0.67511976 0.72516572 -0.64018935 0.27539772
8.21544552 -6.62359285 0.60719252 0.70313472 -0.66842133 0.24768855
7.94184828 -7.13028431 0.20115305 0.67971838 -0.71955419 0.08205521
8.01698208 -6.98761511 0.55613196 0.68614882 -0.70515668 0.22685970
8.93884277 -5.33811331 1.78027046 0.76504809 -0.53869689 0.72621548
8.64848042 -5.79400635 1.72554624 0.74019682 -0.58470339 0.70389217
8.92902565 -5.69169140 0.05642038 0.76420784 -0.57437825 0.02301524
8.73230743 -6.00218964 -0.00299718 0.74737132 -0.60571223 -0.00122262
8.32272911 -6.30923462 1.65630341 0.71231681 -0.63669777 0.67564631
7.98673010 -6.75389862 1.56343532 0.68355966 -0.68157113 0.63776314
8.49607658 -6.33338594 -0.04273819 0.72715306 -0.63913500 -0.01743394
8.57192612 -6.22734547 2.23178959 0.73364478 -0.62843388 0.91040111
8.29851532 -6.64926243 -0.11344301 0.71024442 -0.67101175 -0.04627615
8.14587688 -6.60044765 2.11363459 0.69718057 -0.66608560 0.86220276
8.76759338 -5.73358631 1.13968718 0.75039136 -0.57860613 0.46490604
8.57655811 -6.02050018 1.08099413 0.73404121 -0.60756010 0.44096372
7.75157785 -7.10975933 2.02015758 0.66343373 -0.71748292 0.82407123
8.32411098 -6.37277555 1.04032958 0.71243507 -0.64311004 0.42437565
8.11933708 -6.68587494 0.97223049 0.69490910 -0.67470652 0.39659640
8.43076897 -6.26337671 1.39446902 0.72156358 -0.63207000 0.56883770
8.17399597 -6.53911877 1.33644795 0.69958717 -0.65989655 0.54516953
7.95769691 -7.07935572 0.93378198 0.68107480 -0.71441472 0.38091230
7.66432047 -7.32344770 0.84714109 0.65596563 -0.73904729 0.34556940
7.99399662 -6.91143036 1.29087257 0.68418157 -0.69746846 0.52657825
7.73061943 -7.17574501 1.21360421 0.66163993 -0.72414184 0.49505857
8.85385895 -5.76734591 0.42499635 0.75777459 -0.58201295 0.17336631
8.63942528 -6.07982063 0.36559394 0.73942184 -0.61354643 0.14913464
9.04067230 -5.71092463 0.79783958 0.77376336 -0.57631922 0.32545811
9.46953106 -6.46287680 0.80688810 0.81046802 -0.65220261 0.32914922
8.41854477 -6.41283226 0.31731796 0.72051734 -0.64715236 0.12944169
8.22084808 -6.73645735 0.25111431 0.70359713 -0.67981106 0.10243561
8.60569763 -6.35902977 0.68400759 0.73653519 -0.64172286 0.27902329
8.03870201 -6.39748669 0.58746457 0.68800777 -0.64560378 0.23964104
7.99098682 -7.08421373 0.20134358 0.68392402 -0.71490496 0.08213293
7.68375731 -7.30233574 0.12700529 0.65762913 -0.73691678 0.05180854
8.06072807 -6.93710518 0.55613196 0.68989295 -0.70005947 0.22685970
7.85363293 -7.25648355 0.49895692 0.67216831 -0.73228961 0.20353663
8.68307114 -5.73846149 1.72521293 0.74315739 -0.57909811 0.70375615
8.98156071 -5.64608669 0.05678729 0.76870418 -0.56977606 0.02316491
8.76488876 -5.94382811 -0.00307354 0.75015986 -0.59982270 -0.00125377
8.35904026 -6.25445795 1.65566432 0.71542454 -0.63116997 0.67538559
8.07749367 -6.74422550 1.57309723 0.69132787 -0.68059498 0.64170450
8.53570271 -6.27987909 -0.04273819 0.73054457 -0.63373536 -0.01743394
8.59019184 -6.15858936 2.22635174 0.73520809 -0.62149537 0.90818286
8.35109329 -6.60569668 -0.11341088 0.71474439 -0.66661531 -0.04626305
8.17191124 -6.53686714 2.10962057 0.69940877 -0.65966934 0.86056536
8.80953312 -5.70188570 1.14186788 0.75398088 -0.57540703 0.46579558
8.63904476 -6.00389194 1.08585036 0.73938930 -0.60588408 0.44294468
9.89564800 -8.51921749 -0.18126388 0.84693807 -0.85971868 -0.07394193
7.77626324 -7.06524897 2.01785731 0.66554648 -0.71299112 0.82313293
7.43394279 -7.52239847 1.93413866 0.63624829 -0.75912446 0.78898203
8.38577175 -6.35743141 1.04480004 0.71771240 -0.64156157 0.42619926
8.14613724 -6.64375925 0.97160035 0.69720286 -0.67045641 0.39633933
8.45380497 -6.21889973 1.39331293 0.72353518 -0.62758160 0.56836611
8.23571777 -6.52518463 1.34203160 0.70486975 -0.65849042 0.54744720
7.96405029 -7.01814699 0.93017578 0.68161857 -0.70823783 0.37944126
8.00687504 -6.85696125 1.28738606 0.68528384 -0.69197172 0.52515596
7.75851774 -7.13385344 1.21258664 0.66402769 -0.71991438 0.49464348
8.87757778 -5.72340155 0.42478353 0.75980461 -0.57757831 0.17327949
8.70071793 -6.06194401 0.36749858 0.74466771 -0.61174238 0.14991158
9.07255840 -5.67141676 0.79836291 0.77649236 -0.57233226 0.32567158
9.46358871 -6.39356804 0.80327284 0.80995947 -0.64520830 0.32767448
8.44228172 -6.36828852 0.31697410 0.72254896 -0.64265722 0.12930143
8.23080826 -6.67996836 0.25009003 0.70444959 -0.67411047 0.10201779
8.62912178 -6.31370831 0.68339461 0.73853999 -0.63714921 0.27877322
8.34253216 -6.57619238 0.61212450 0.71401167 -0.66363788 0.24970043
8.00472260 -7.02936840 0.20051801 0.68509960 -0.70937026 0.08179616
7.79364586 -7.33745718 0.12960340 0.66703421 -0.74046105 0.05286837
8.76269531 -7.46742821 0.61345905 0.74997216 -0.75357711 0.25024483
7.90244293 -7.23290110 0.50014633 0.67634577 -0.72990978 0.20402181
8.70342445 -5.69314909 1.72387958 0.74489933 -0.57452536 0.70321226
8.99446774 -5.59527540 0.05649376 0.76980883 -0.56464845 0.02304517
8.78616810 -5.89798737 -0.00317535 0.75198114 -0.59519666 -0.00129530
8.38365459 -6.21148062 1.65470576 0.71753120 -0.62683290 0.67499459
8.12135506 -6.71618938 1.57551265 0.69508183 -0.67776573 0.64268982
8.56843853 -6.24193478 -0.04270229 0.73334628 -0.62990618 -0.01741930
8.54405880 -6.06497860 2.20669198 0.73125970 -0.61204863 0.90016317
8.37112427 -6.55761528 -0.11344301 0.71645880 -0.66176319 -0.04627615
8.17042255 -6.47267294 2.10119152 0.69928133 -0.65319121 0.85712695
8.84518528 -5.64642143 1.14186788 0.75703222 -0.56980985 0.46579558
8.66514397 -5.94160700 1.08423162 0.74162304 -0.59959853 0.44228438
9.93524742 -8.44523716 -0.18120404 0.85032725 -0.85225296 -0.07391752
7.82635641 -7.02148199 2.01939082 0.66983378 -0.70857435 0.82375848
7.49494219 -7.48946667 1.93779790 0.64146906 -0.75580114 0.79047477
8.41280174 -6.29511547 1.04301190 0.72002584 -0.63527292 0.42546985
8.18153286 -6.58744335 0.97076011 0.70023227 -0.66477329 0.39599657
8.49271202 -6.16566038 1.39331293 0.72686511 -0.62220895 0.56836611
8.25630474 -6.45740938 1.33840215 0.70663172 -0.65165085 0.54596668
7.96738911 -6.93277884 0.92476642 0.68190432 -0.69962287 0.37723464
7.76906872 -7.26189756 0.85028857 0.66493070 -0.73283595 0.34685332
8.00280762 -6.76693821 1.27907205 0.68493569 -0.68288702 0.52176452
7.78852654 -7.07160139 1.21004283 0.66659606 -0.71363217 0.49360582
9.04160500 -5.74870443 0.43287134 0.77384317 -0.58013177 0.17657872
8.70246410 -5.98218966 0.36540347 0.74481714 -0.60369396 0.14905694
9.11310768 -5.61742735 0.79888618 0.77996284 -0.56688392 0.32588503
9.46215820 -6.30627060 0.79916459 0.80983704 -0.63639867 0.32599860
8.50138760 -6.32940102 0.31800568 0.72760761 -0.63873285 0.12972222
8.56501007 -6.18485022 0.67358738 0.73305285 -0.62414551 0.27477261
8.49845409 -6.61330318 0.62241119 0.72735655 -0.66738290 0.25389662
8.04419231 -6.97501469 0.20032749 0.68847769 -0.70388514 0.08171844
7.95945597 -7.40020275 0.13370042 0.68122536 -0.74679303 0.05453964
8.15333939 -6.86215973 0.55756509 0.69781923 -0.69249636 0.22744432
7.88710880 -7.12810564 0.49526966 0.67503339 -0.71933430 0.20203251
8.76715755 -5.65658236 1.72954607 0.75035405 -0.57083523 0.70552379
9.02944565 -5.53865147 0.05649376 0.77280247 -0.55893421 0.02304517
8.83470917 -5.85041761 -0.00299718 0.75613558 -0.59039617 -0.00122262
8.42890072 -6.16333151 1.65598392 0.72140372 -0.62197393 0.67551601
8.15727711 -6.66001606 1.57430494 0.69815624 -0.67209697 0.64219713
8.55708027 -6.15188217 -0.04325875 0.73237419 -0.62081850 -0.01764629
8.53387547 -5.97760773 2.19414306 0.73038816 -0.60323155 0.89504415
8.41374207 -6.50611496 -0.11343842 0.72010630 -0.65656602 -0.04627428
8.21401215 -6.42362928 2.10199428 0.70301205 -0.64824194 0.85745442
8.88048840 -5.59073448 1.14186788 0.76005369 -0.56419015 0.46579558
8.69901848 -5.88481236 1.08376908 0.74452221 -0.59386712 0.44209570
10.00805569 -8.39932919 -0.18129048 0.85655874 -0.84762013 -0.07395278
7.86443138 -6.96697426 2.01785731 0.67309248 -0.70307374 0.82313293
7.55163002 -7.45191336 1.94035935 0.64632082 -0.75201142 0.79151964
8.45699215 -6.24566507 1.04368246 0.72380793 -0.63028264 0.42574337
8.22120667 -6.53466702 0.97055000 0.70362782 -0.65944731 0.39591089
8.52161884 -6.10528088 1.39157891 0.72933918 -0.61611575 0.56765878
8.31080151 -6.41632557 1.34091485 0.71129596 -0.64750487 0.54699165
8.01835060 -6.88905096 0.92576820 0.68626595 -0.69521004 0.37764329
7.69183922 -7.09924793 0.83473611 0.65832084 -0.71642214 0.34050909
8.04821491 -6.71905613 1.27960849 0.68882197 -0.67805499 0.52198333
7.82248306 -7.01323557 1.20826209 0.66950226 -0.70774215 0.49287939
8.91999817 -5.59341192 0.42297441 0.76343518 -0.56446040 0.17254151
8.75143814 -5.93526411 0.36607009 0.74900866 -0.59895843 0.14932887
9.02549553 -5.48578596 0.78632694 0.77246439 -0.55359930 0.32076183
8.72304153 -5.73284864 0.72225773 0.74657828 -0.57853168 0.29462644
8.54582596 -6.27940083 0.31826356 0.73141098 -0.63368708 0.12982742
8.29844761 -6.56358337 0.24935843 0.71023864 -0.66236544 0.10171935
8.58581352 -6.11821795 0.67190176 0.73483336 -0.61742127 0.27408502
8.39765263 -6.45012951 0.60972893 0.71872926 -0.65091622 0.24872321
8.07264900 -6.91136265 0.19969243 0.69091320 -0.69746166 0.08145938
7.89699554 -7.24978209 0.13000311 0.67587954 -0.73161334 0.05303142
8.21935558 -6.82988405 0.55951947 0.70346940 -0.68923920 0.22824156
7.91687012 -7.06508780 0.49408022 0.67758060 -0.71297485 0.20154729
8.74436665 -5.56421709 1.71787977 0.74840343 -0.56151420 0.70076483
9.03665924 -5.46530437 0.05590670 0.77341986 -0.55153239 0.02280570
8.87631035 -5.79808283 -0.00292083 0.75969613 -0.58511478 -0.00119148
8.45463371 -6.10103226 1.65342760 0.72360611 -0.61568701 0.67447323
8.10213757 -6.53027868 1.55528319 0.69343704 -0.65900451 0.63443774
8.64129829 -6.13030863 -0.04275614 0.73958212 -0.61864144 -0.01744127
8.56804276 -5.92165279 2.19330645 0.73331243 -0.59758484 0.89470285
8.44651699 -6.44703960 -0.11346137 0.72291142 -0.65060437 -0.04628364
8.24801636 -6.36709118 2.10038877 0.70592237 -0.64253640 0.85679948
8.91206264 -5.53273916 1.14138329 0.76275605 -0.55833757 0.46559793
8.73087120 -5.82672119 1.08307540 0.74724841 -0.58800483 0.44181272
10.02054024 -8.30316639 -0.18111758 0.85762721 -0.83791584 -0.07388225
7.86957216 -6.88389635 2.00788951 0.67353249 -0.69468987 0.81906682
7.49147940 -7.29982233 1.91254878 0.64117271 -0.73666316 0.78017503
8.54271126 -6.22626352 1.05016470 0.73114437 -0.62832475 0.42838764
8.27147675 -6.49026775 0.97181040 0.70793027 -0.65496677 0.39642501
8.57437420 -6.06187201 1.39418006 0.73385429 -0.61173511 0.56871986
8.32736015 -6.34592962 1.33672714 0.71271312 -0.64040089 0.54528344
