-16.84072876 3.59268641 0.17808761 -0.69183987 0.96193314 0.08865090
-16.86100960 3.37609816 0.17764731 -0.69267303 0.90394217 0.08843172
-16.77515411 3.05861497 0.17500557 -0.68914598 0.81893677 0.08711667
-16.82161713 2.95796943 0.17551924 -0.69105476 0.79198921 0.08737238
-16.98523331 3.62449503 0.08318430 -0.69777632 0.97044981 0.04140862
-16.98185349 2.87609243 0.17816100 -0.69763750 0.77006680 0.08868743
-16.84364128 2.74412036 0.17526241 -0.69195956 0.73473161 0.08724453
-16.99218941 3.40326619 0.08270071 -0.69806206 0.91121632 0.04116789
-16.93935776 3.30965209 0.08180988 -0.69589168 0.88615137 0.04072445
-17.16786385 2.82621574 -0.39606062 -0.70527905 0.75671244 -0.19715649
-17.90105057 2.71343398 0.19434170 -0.73539931 0.72651541 0.09674209
-17.14774704 2.71239948 -0.39549676 -0.70445263 0.72623843 -0.19687581
-18.52537537 2.68841076 0.20560583 -0.76104742 0.71981549 0.10234930
-16.82618713 3.06836367 0.07982460 -0.69124252 0.82154697 0.03973619
-17.18224716 2.60728359 -0.39576384 -0.70586991 0.69809389 -0.19700876
-16.80060577 2.33235168 0.17335448 -0.69019157 0.62448156 0.08629477
-16.85824585 3.61109424 0.01689278 -0.69255948 0.96686178 0.00840912
-16.90839005 2.27697587 1.35533178 -0.69461948 0.60965478 0.67467564
-16.99549484 2.87921906 0.08152990 -0.69819790 0.77090394 0.04058507
-16.96979904 2.17672038 1.35951817 -0.69714224 0.58281165 0.67675966
-17.00727654 3.71601820 0.61097085 -0.69868189 0.99495488 0.30413747
-16.91852570 2.75682664 0.08030819 -0.69503587 0.73813367 0.03997691
-16.87091446 3.39269614 0.01660558 -0.69307995 0.90838623 0.00826615
-16.97393608 2.09600258 1.35899484 -0.69731224 0.56119967 0.67649913
-19.28042221 2.58326292 -0.42653859 -0.79206580 0.69166243 -0.21232824
-19.21096039 2.32652140 0.21720017 -0.78921217 0.62292051 0.10812089
-16.93971443 3.32348990 0.01709024 -0.69590634 0.88985640 0.00850741
-16.93607903 2.22303057 0.77213341 -0.69575697 0.59521109 0.38436317
-16.99270821 1.98999977 1.35951817 -0.69808340 0.53281766 0.67675966
-17.00796318 3.52073765 0.60925156 -0.69871008 0.94266903 0.30328161
-16.98798561 1.95146930 0.17588615 -0.69788939 0.52250117 0.08755503
-16.96222687 3.21736002 0.01710819 -0.69683117 0.86144036 0.00851635
-16.97349739 2.11951637 0.77341044 -0.69729418 0.56749541 0.38499889
-16.99695396 1.88232505 1.35882044 -0.69825780 0.50398797 0.67641228
-16.92784882 3.39350152 0.60478145 -0.69541889 0.90860182 0.30105641
-17.03172302 1.84810662 0.17647320 -0.69968617 0.49482608 0.08784726
-16.95062637 3.10499215 0.01682098 -0.69635463 0.83135414 0.00837338
-16.98449516 2.01259494 0.77330399 -0.69774598 0.53886741 0.38494587
-16.66387939 2.31336093 0.07626127 -0.68457466 0.61939681 0.03796238
-16.83979225 2.97561431 0.01563626 -0.69180143 0.79671353 0.00778363
-16.96980667 3.63993764 -0.09801713 -0.69714260 0.97458452 -0.04879231
-16.99283600 1.90539873 0.77309120 -0.69808865 0.51016593 0.38483995
-16.84446716 2.27934742 1.26307034 -0.69199347 0.61028975 0.62874854
-19.85860062 1.89933157 0.22817077 -0.81581813 0.50854146 0.11358198
-16.94689369 2.88474607 0.01644403 -0.69620126 0.77238381 0.00818573
-16.88271332 3.51031280 -0.09827415 -0.69356465 0.93987781 -0.04892026
-17.04022598 1.80233145 0.77500671 -0.70003551 0.48256990 0.38579348
-20.57133293 1.88217700 1.67018569 -0.84509814 0.50394833 0.83140796
-16.98495483 2.18992925 1.27358758 -0.69776487 0.58634830 0.63398391
-16.95143700 3.06711984 0.60314816 -0.69638795 0.82121396 0.30024338
-16.96041870 3.72121668 0.49766779 -0.69675690 0.99634677 0.24773590
-22.12897682 1.97392559 0.26977831 -0.90908825 0.52851379 0.13429396
-16.94494438 2.77500057 0.01626452 -0.69612122 0.74299973 0.00809638
-16.98284340 3.42005253 -0.09809056 -0.69767815 0.91571081 -0.04882887
-16.98915291 2.10912156 1.27309453 -0.69793737 0.56471223 0.63373846
-16.92239952 2.97963262 0.60125691 -0.69519502 0.79778945 0.29930192
-16.88984871 3.62228799 0.49437553 -0.69385779 0.96985888 0.24609704
-24.11282158 2.03457999 0.30613905 -0.99058729 0.54475391 0.15239410
-16.98307610 3.33688211 -0.09812728 -0.69768769 0.89344215 -0.04884714
-16.96853447 2.24823785 0.67795318 -0.69709033 0.60196024 0.33748084
-17.04759407 2.00775099 1.27687418 -0.70033818 0.53757048 0.63562000
-16.96049118 2.87656593 0.60211658 -0.69675988 0.77019358 0.29972985
-16.90249252 3.51404953 0.49400973 -0.69437724 0.94087827 0.24591495
-17.00974464 1.95448816 0.08005366 -0.69878328 0.52330947 0.03985021
-16.98209763 3.22597790 -0.09817776 -0.69764751 0.86374778 -0.04887227
-16.99223328 2.14283943 0.67842937 -0.69806391 0.57374007 0.33771789
-16.99648857 1.89346135 1.27161562 -0.69823873 0.50696969 0.63300228
-16.93089104 2.76227808 0.60005343 -0.69554389 0.73959327 0.29870284
-16.93599129 3.41016030 0.49444869 -0.69575340 0.91306221 0.24613346
-17.07735062 1.85368335 0.08076634 -0.70156062 0.49631923 0.04020498
-16.98039818 3.11521792 -0.09822825 -0.69757771 0.83409208 -0.04889740
-24.34194565 1.98732460 1.16332769 -1.00000000 0.53210139 0.57909721
-17.00734520 2.03627229 0.67852461 -0.69868469 0.54520702 0.33776531
-17.07742310 1.79400337 1.27736723 -0.70156360 0.48034006 0.63586539
-17.60039902 3.42980242 0.51844561 -0.72304815 0.91832131 0.25807899
-16.75799179 2.34072661 0.01402073 -0.68844092 0.62672389 0.00697943
-16.98191452 3.00530839 -0.09826956 -0.69764000 0.80466408 -0.04891797
-17.01186562 1.92846286 0.67814368 -0.69887042 0.51634127 0.33757567
-17.66480255 3.32733703 0.52005517 -0.72569394 0.89088649 0.25888020
-16.96846390 2.29755831 1.17758811 -0.69708741 0.61516571 0.58619601
-19.91185379 1.91188300 0.11673043 -0.81800586 0.51190203 0.05810768
-17.00243378 2.89888787 -0.09826497 -0.69848293 0.77617025 -0.04891569
-16.96280670 3.57564998 -0.19548853 -0.69685501 0.95737165 -0.09731296
-17.02960396 1.82218158 0.67842937 -0.69959915 0.48788473 0.33771789
-19.60116196 1.81339633 1.48458827 -0.80524218 0.48553249 0.73901874
-16.89488983 2.43053317 0.59635699 -0.69406492 0.65076941 0.29686278
-17.81904793 3.24074984 0.52503014 -0.73203057 0.86770296 0.26135671
-16.96278381 2.18836975 1.17605579 -0.69685405 0.58593071 0.58543319
-16.92243004 3.73486090 0.41262588 -0.69519627 1.00000000 0.20540258
-22.12425995 1.98635852 0.14485522 -0.90889448 0.53184271 0.07210802
-17.00452614 2.78939319 -0.09830169 -0.69856888 0.74685329 -0.04893396
-16.87562180 3.47442269 -0.19513607 -0.69327331 0.93026829 -0.09713751
-23.27855301 2.04684043 1.78827167 -0.95631438 0.54803658 0.89019042
-16.82499886 2.33970428 0.59283245 -0.69119370 0.62645018 0.29510829
-18.88092422 3.34324670 0.56395191 -0.77565384 0.89514625 0.28073174
-16.98478317 2.10987139 1.17697513 -0.69775784 0.56491297 0.58589083
-16.92811394 3.65255857 0.41224486 -0.69542980 0.97796375 0.20521291
-24.15575218 2.05591393 0.17068930 -0.99235094 0.55046600 0.08496807
-17.00168419 2.70669651 -0.09833840 -0.69845217 0.72471148 -0.04895224
-17.00305939 3.38931060 -0.19549517 -0.69850862 0.90747976 -0.09731627
-16.92851639 2.24566245 0.59670085 -0.69544631 0.60127074 0.29703394
-16.95141792 2.88973188 0.49152225 -0.69638711 0.77371871 0.24467669
-16.99374390 2.00264978 1.17666876 -0.69812596 0.53620464 0.58573836
-16.90982056 1.95686650 0.01493620 -0.69467825 0.52394629 0.00743515
-17.00649452 2.59799266 -0.09836594 -0.69864976 0.69560629 -0.04896595
-17.01026917 3.27977657 -0.19544862 -0.69880486 0.87815225 -0.09729310
-16.81987762 2.16497540 1.76857460 -0.69098330 0.57966697 0.88038534
-16.95220566 2.14049363 0.59713066 -0.69641948 0.57311201 0.29724789
-16.90022087 2.77176309 0.48896161 -0.69428390 0.74213290 0.24340202
-17.00797272 1.89605463 1.17682195 -0.69871050 0.50766402 0.58581460
-16.95699883 3.43639302 0.41173682 -0.69661641 0.92008597 0.20496000
-17.01061058 2.48933554 -0.09839348 -0.69881886 0.66651356 -0.04897966
-17.00694084 3.16846609 -0.19536883 -0.69866812 0.84834915 -0.09725337
-16.81538963 2.05710006 1.76656294 -0.69079894 0.55078357 0.87938398
-16.96928787 2.03440928 0.59730262 -0.69712126 0.54470819 0.29733351
-17.04930115 1.79224551 1.17912054 -0.70040834 0.47986943 0.58695883
-17.61004257 3.45291734 0.43218553 -0.72344434 0.92451030 0.21513925
-16.77441025 2.34691000 -0.09897637 -0.68911541 0.62837946 -0.04926981
-17.00879478 3.05838180 -0.19530897 -0.69874424 0.81887436 -0.09722358
-16.92812347 1.92172706 0.59498155 -0.69543016 0.51453781 0.29617810
-16.98904228 2.56760359 0.49101013 -0.69793278 0.68746966 0.24442177
-17.71979141 3.35885596 0.43504328 -0.72795296 0.89932561 0.21656182
-16.99694443 2.26950788 -0.09849445 -0.69825745 0.60765529 -0.04902992
-17.00796509 2.94806027 -0.19524246 -0.69871020 0.78933603 -0.09719048
-17.04716301 1.82669628 0.59962362 -0.70032048 0.48909351 0.29848889
-17.00088310 2.46023107 0.49086380 -0.69841921 0.65872091 0.24434893
-16.95749474 2.20820594 1.06967139 -0.69663680 0.59124184 0.53247571
-17.87624931 3.27213645 0.43942514 -0.73438048 0.87610662 0.21874309
-22.21459389 2.00014973 0.06234300 -0.91260552 0.53553528 0.03103396
-17.03070450 2.16521478 -0.09844855 -0.69964433 0.57973105 -0.04900707
-17.00983238 2.86589980 -0.19520257 -0.69878691 0.76733774 -0.09717062
-17.01939201 3.52095962 -0.27622521 -0.69917959 0.94272846 -0.13750318
-18.91229057 1.98011374 1.99992323 -0.77694243 0.53017068 0.99554926
-16.76292801 2.34490180 0.48164546 -0.68864369 0.62784183 0.23976010
-21.94912338 1.91871083 1.55486083 -0.90169960 0.51373017 0.77399999
-16.98552513 2.13052726 1.07093966 -0.69778830 0.57044351 0.53310704
-19.08628082 3.39936996 0.47797289 -0.78409022 0.91017312 0.23793191
-16.89538002 3.64505649 0.29403338 -0.69408500 0.97595507 0.14636797
-17.02881050 2.08346438 -0.09847609 -0.69956654 0.55784255 -0.04902078
-17.01762962 2.75738025 -0.19516931 -0.69910723 0.73828191 -0.09715407
-16.91766739 3.38906050 -0.27522203 -0.69500065 0.90741277 -0.13700381
-19.00348473 1.86894274 2.00886416 -0.78068882 0.50040489 1.00000000
-16.77780724 2.28089786 1.64968252 -0.68925500 0.61070490 0.82120162
-17.00115585 2.26968288 0.48991269 -0.69843042 0.60770214 0.24387547
-17.01442337 2.02566838 1.07206690 -0.69897550 0.54236782 0.53366822
-16.84902763 2.89423823 0.40519574 -0.69218081 0.77492529 0.20170391
-16.91794968 3.53882861 0.29403338 -0.69501221 0.94751281 0.14636797
-17.04156494 1.97642875 -0.09847609 -0.70009053 0.52918404 -0.04902078
-17.01287651 2.64704490 -0.19509616 -0.69891196 0.70873988 -0.09711765
-16.99555206 3.29379940 -0.27568382 -0.69820023 0.88190687 -0.13723367
-16.92788506 2.19323111 1.66417682 -0.69542038 0.58723235 0.82841682
-16.99525833 2.16027379 0.48918110 -0.69818819 0.57840812 0.24351129
-17.01690292 1.91759551 1.07136238 -0.69907737 0.51343155 0.53331751
-16.83531761 2.78313732 0.40417966 -0.69161761 0.74517828 0.20119810
-16.91438103 3.42726898 0.29338384 -0.69486564 0.91764301 0.14604464
-17.02125931 2.53892756 -0.19506957 -0.69925630 0.67979175 -0.09710441
-16.98446655 3.18102121 -0.27542904 -0.69774485 0.85171074 -0.13710685
-16.95120049 2.08805490 1.66522717 -0.69637823 0.55907166 0.82893968
-16.99460793 2.05175400 0.48866895 -0.69816142 0.54935217 0.24325635
-17.01869774 1.80957150 1.07065773 -0.69915110 0.48450840 0.53296673
-16.94922829 2.69255662 0.40729144 -0.69629717 0.72092557 0.20274714
-17.68097305 3.46800327 0.31236997 -0.72635823 0.92854953 0.15549582
-16.76360130 2.39325118 -0.19415185 -0.68867135 0.64078724 -0.09664758
-17.01002121 3.07531691 -0.27547681 -0.69879466 0.82340866 -0.13713063
-17.01534081 1.98756754 1.67068875 -0.69901317 0.53216642 0.83165842
-16.94760132 1.93805063 0.48647413 -0.69623035 0.51890838 0.24216378
-17.70241356 3.35684276 0.31236997 -0.72723907 0.89878654 0.15549582
-20.04154205 1.94584095 -0.09163748 -0.82333362 0.52099425 -0.04561657
-16.98443222 2.31573081 -0.19484346 -0.69774342 0.62003136 -0.09699185
-16.98370361 2.96042728 -0.27511057 -0.69771349 0.79264724 -0.13694832
-17.01761055 1.87951505 1.66963851 -0.69910640 0.50323564 0.83113557
-17.02500916 1.83868802 0.48888844 -0.69941038 0.49230430 0.24336560
-17.15384102 2.50428057 0.41281641 -0.70470297 0.67051506 0.20549741
-18.41134834 3.37237787 0.32985720 -0.75636303 0.90294605 0.16420084
-16.97986412 2.22456908 0.97983134 -0.69755572 0.59562302 0.48775390
-17.05465317 2.24342299 -0.19504297 -0.70062816 0.60067111 -0.09709117
-17.01520729 2.88338923 -0.27525389 -0.69900769 0.77202052 -0.13701966
-21.53403282 1.91941905 1.38884103 -0.88464713 0.51391983 0.69135636
-16.81900597 2.37492085 0.40170297 -0.69094747 0.63587934 0.19996522
-19.14140129 3.41375327 0.34799397 -0.78635460 0.91402423 0.17322922
-16.99015808 2.14452887 0.97983134 -0.69797862 0.57419240 0.48775390
-24.07853508 2.07490277 -0.08238471 -0.98917872 0.55555022 -0.04101059
-17.05451775 2.13449955 -0.19499642 -0.70062262 0.57150710 -0.09706800
-16.99746513 2.77058983 -0.27496728 -0.69827884 0.74181873 -0.13687699
-18.72926140 1.86238229 1.84924197 -0.76942337 0.49864838 0.92054105
-17.00618172 2.32215881 1.58951283 -0.69863689 0.62175244 0.79124951
-19.14271355 1.85721838 0.56607360 -0.78640854 0.49726576 0.28178790
-23.75441170 1.96906614 1.54539621 -0.97586334 0.52721274 0.76928854
-16.87318230 2.89749575 0.28993636 -0.69317311 0.77579749 0.14432850
-16.99933434 2.03726482 0.97957081 -0.69835562 0.54547274 0.48762420
-17.07553864 2.02823567 -0.19502302 -0.70148617 0.54305524 -0.09708124
-17.01651382 2.66404939 -0.27498320 -0.69906139 0.71329278 -0.13688491
-16.94938660 2.20609903 1.58230042 -0.69630367 0.59067768 0.78765923
-17.04185677 2.18810296 0.40792650 -0.70010251 0.58585930 0.20306325
-16.79638863 2.77566171 0.28753811 -0.69001836 0.74317676 0.14313467
-17.01973152 1.93130589 0.98009193 -0.69919354 0.51710248 0.48788363
-16.99930000 2.55199242 -0.27471250 -0.69835418 0.68328983 -0.13675016
-17.03796959 2.10875940 1.58991361 -0.69994283 0.56461525 0.79144901
-17.03542328 2.07858586 0.40729144 -0.69983822 0.55653638 0.20274714
-16.95761681 2.69313645 0.29118544 -0.69664180 0.72108078 0.14495029
-17.02160835 1.82327938 0.97944051 -0.69927067 0.48817867 0.48755935
-17.00708199 2.44398570 -0.27464882 -0.69867390 0.65437126 -0.13671847
-16.84333611 1.97755015 1.56887734 -0.69194698 0.52948427 0.78097731
-16.98856735 1.96469009 0.40538627 -0.69791329 0.52604103 0.20179875
-17.69156456 2.69671750 0.30932221 -0.72679335 0.72203958 0.15397866
-20.33510780 2.02366376 -0.20579624 -0.83539367 0.54183108 -0.10244408
-16.99634933 2.33351254 -0.27444181 -0.69823301 0.62479234 -0.13661541
-17.00971603 1.88862729 1.58450425 -0.69878209 0.50567538 0.78875631
-16.93896484 1.85125077 0.40341762 -0.69587553 0.49566793 0.20081876
-17.69629097 2.58375907 0.30902243 -0.72698754 0.69179529 0.15382943
-16.94730377 2.23045230 0.88029009 -0.69621813 0.59719825 0.43820289
-22.29784203 2.11095738 -0.21232001 -0.91602546 0.56520373 -0.10569157
-17.02499771 2.25577879 -0.27458513 -0.69940990 0.60397935 -0.13668676
-17.08175659 1.81510389 1.59091532 -0.70174164 0.48598969 0.79194766
-16.75221062 2.36423779 0.28489006 -0.68820345 0.63301897 0.14181648
-16.95564651 2.15031195 0.88017112 -0.69656086 0.57574081 0.43814367
-24.03009796 2.12112808 -0.21805908 -0.98718888 0.56792694 -0.10854844
-17.04280281 2.14926910 -0.27461696 -0.70014137 0.57546163 -0.13670260
-18.70876122 1.86725676 1.75439727 -0.76858115 0.49995351 0.87332797
-19.17079735 1.87943637 0.47403556 -0.78756225 0.50321454 0.23597193
-24.20252609 2.00846791 1.44730783 -0.99427247 0.53776246 0.72046077
-16.97476768 2.04445791 0.88052797 -0.69734639 0.54739869 0.43832132
-17.06788254 2.04358482 -0.27471250 -0.70117164 0.54716492 -0.13675016
-16.82723999 2.20590377 1.43943071 -0.69128573 0.59062541 0.71653962
-21.28653717 1.94966424 0.54116070 -0.87447971 0.52201790 0.26938641
-16.98727798 1.93776274 0.88052797 -0.69786030 0.51883131 0.43832132
-16.97117043 2.11655283 1.45165062 -0.69719863 0.56670189 0.72262257
-23.41578484 1.99437928 0.60866690 -0.96195209 0.53399026 0.30299056
-17.65898514 2.15463352 0.30667415 -0.72545499 0.57689792 0.15266047
-17.00904274 1.83207178 0.88112271 -0.69875443 0.49053282 0.43861738
-16.94656563 2.00538754 1.44813275 -0.69618779 0.53693765 0.72087139
-16.88775444 1.95201647 0.28693855 -0.69377178 0.52264768 0.14283621
-20.48576355 2.06601262 -0.30178195 -0.84158283 0.55316991 -0.15022516
-16.97070312 1.90021408 1.44924366 -0.69717938 0.50877774 0.72142440
-16.97917747 1.85464859 0.28893709 -0.69752753 0.49657768 0.14383107
-22.28281021 2.14300537 -0.31608102 -0.91540796 0.57378453 -0.15734315
-17.00520706 1.82301080 1.45165062 -0.69859689 0.48810676 0.72262257
-19.12143326 1.87868822 0.34224817 -0.78553432 0.50301427 0.17036900
-23.45291710 1.97612643 1.26412106 -0.96347749 0.52910310 0.62927157
-21.20327950 1.95101190 0.39421025 -0.87105936 0.52237874 0.19623539
-23.30463600 1.99879444 0.44662198 -0.95738590 0.53517240 0.22232562
-24.24545479 1.92692053 0.46990499 -0.99603605 0.51592833 0.23391576
-24.16536140 1.76775777 0.46760666 -0.99274570 0.47331288 0.23277166
