38.66054916 5.02029848 3.27480721 0.95871353 0.32736045 0.93369764
39.48701859 3.60369921 3.13068986 0.97920853 0.23498774 0.89260757
38.51770020 5.24798918 3.26503897 0.95517117 0.34220755 0.93091255
39.32075500 3.83786297 3.11885810 0.97508550 0.25025693 0.88923413
39.52983093 3.53063130 1.75387847 0.98027021 0.23022318 0.50005758
38.39126968 5.47662449 3.25684047 0.95203590 0.35711625 0.92857504
39.21259308 4.07623243 3.11195612 0.97240329 0.26580039 0.88726628
38.23590469 5.69975233 3.24619985 0.94818312 0.37166584 0.92554122
39.10299301 4.31339455 3.10505414 0.96968538 0.28126511 0.88529843
38.10287857 5.92483044 3.23765278 0.94488430 0.38634259 0.92310435
38.96424484 4.54612064 3.09585166 0.96624470 0.29644057 0.88267463
38.03912735 6.09862328 3.23451281 0.94330341 0.39767516 0.92220908
38.86917114 4.72083044 3.08977151 0.96388704 0.30783293 0.88094109
38.18870163 6.36907244 3.25125861 0.94701254 0.41531044 0.92698354
38.74778748 4.95337868 3.08221221 0.96087694 0.32299680 0.87878585
39.45236969 3.65126944 2.90642262 0.97834933 0.23808967 0.82866555
38.04389572 6.59081173 3.24201345 0.94342166 0.42976949 0.92434764
38.63687515 5.18617344 3.07563901 0.95812649 0.33817673 0.87691170
39.28379059 3.88468242 2.89523625 0.97416884 0.25330991 0.82547611
38.51864624 5.41694021 3.06857276 0.95519459 0.35322440 0.87489700
39.48449707 3.57416534 1.56766379 0.97914600 0.23306191 0.44696492
39.15945435 4.12094545 2.88757443 0.97108555 0.26871601 0.82329166
37.48019409 6.97910404 3.19945145 0.92944282 0.45508900 0.91221255
38.33988190 5.63775873 3.05657673 0.95076156 0.36762339 0.87147677
39.03766632 4.35624361 2.88021898 0.96806538 0.28405917 0.82119447
37.36518097 7.20084953 3.19317198 0.92659068 0.46954843 0.91042215
38.19139099 5.86136627 3.04720974 0.94707924 0.38220426 0.86880612
38.90259171 4.58876753 2.87194395 0.96471578 0.29922146 0.81883514
37.25070190 7.36096907 3.18602014 0.92375183 0.47998941 0.90838307
38.75980759 4.75715876 2.86259651 0.96117496 0.31020179 0.81617004
37.11392975 7.57649612 3.17799616 0.92036015 0.49404335 0.90609533
38.21707916 6.29611969 3.05493331 0.94771630 0.41055340 0.87100822
38.63620758 4.98854780 2.85539436 0.95810992 0.32529005 0.81411660
39.52270889 3.55645061 2.66467404 0.98009360 0.23190679 0.75973934
36.98761749 7.79306602 3.17101884 0.91722780 0.50816530 0.90410596
38.16104507 6.53343630 3.05361867 0.94632673 0.42602819 0.87063336
38.49937820 5.21695948 2.84727263 0.95471680 0.34018418 0.81180096
39.35262299 3.79062796 2.65424633 0.97587579 0.24717687 0.75676620
36.86589432 8.00962067 3.16456461 0.91420931 0.52228630 0.90226579
39.49915314 3.48860765 1.31356239 0.97950947 0.22748291 0.37451673
38.39081955 5.44806767 2.84144974 0.95202476 0.35525414 0.81014079
39.22482681 4.02726889 2.64691877 0.97270668 0.26260760 0.75467700
36.75263214 8.22713566 3.15898275 0.91140056 0.53646988 0.90067428
37.67404175 6.93865490 3.01993084 0.93424994 0.45245141 0.86102849
39.41078949 3.73053598 1.31114805 0.97731817 0.24325843 0.37382835
38.25720978 5.67449427 2.83378768 0.94871145 0.37001884 0.80795622
39.08172607 4.26094770 2.63860488 0.96915799 0.27784517 0.75230658
37.59444046 8.50321674 0.56936002 0.93227595 0.55447239 0.16233325
36.62450409 8.44040489 3.15217996 0.90822321 0.55037659 0.89873469
37.43388367 7.13799906 3.00349784 0.92829442 0.46545014 0.85634315
38.16168594 5.90557814 2.82919049 0.94634265 0.38508719 0.80664545
38.97093964 4.49685764 2.63268661 0.96641070 0.29322824 0.75061923
37.45848465 8.72017384 0.56781900 0.92890447 0.56861955 0.16189387
36.49706650 8.59230614 3.14433026 0.90506297 0.56028163 0.89649665
37.30983734 7.29677200 2.99593854 0.92521828 0.47580329 0.85418791
38.84630966 4.66812944 2.62535906 0.96332008 0.30439642 0.74853003
37.39363480 8.89103222 0.56737870 0.92729634 0.57976079 0.16176835
36.35522842 8.80031204 3.13648081 0.90154564 0.57384521 0.89425862
37.17728043 7.51372337 2.98870802 0.92193109 0.48995012 0.85212636
38.97893906 4.37056923 1.29783273 0.96660906 0.28499332 0.37003195
38.69942856 4.89739752 2.61704516 0.95967770 0.31934640 0.74615961
39.49735260 3.57697654 2.45092297 0.97946483 0.23324522 0.69879562
36.27795029 9.02326202 3.13456202 0.89962929 0.58838314 0.89371157
37.06884384 7.73457670 2.98361373 0.91924208 0.50435138 0.85067391
38.57098389 5.12762308 2.61014032 0.95649248 0.33435881 0.74419093
39.35690308 3.81365657 2.44323611 0.97598189 0.24867851 0.69660395
36.12017441 9.22533035 3.12549138 0.89571673 0.60155952 0.89112538
36.93181610 7.94850779 2.97621894 0.91584402 0.51830125 0.84856552
37.63511276 6.73536968 2.79976892 0.93328452 0.43919572 0.79825693
38.45105743 5.35780001 2.60394025 0.95351851 0.34936804 0.74242318
39.21306229 4.04850769 2.43541861 0.97241491 0.26399252 0.69437510
36.81692123 8.16619015 2.97079611 0.91299480 0.53249574 0.84701943
37.52343369 6.95894003 2.79440546 0.93051511 0.45377415 0.79672772
38.31199646 5.58409214 2.59647179 0.95007008 0.36412394 0.74029380
39.43784714 3.73623729 1.12058353 0.97798920 0.24363020 0.31949550
39.08369446 4.28344917 2.42864370 0.96920681 0.27931243 0.69244349
36.69881058 8.38229942 2.96520877 0.91006589 0.54658765 0.84542638
38.18542099 5.81094313 2.58998966 0.94693124 0.37891629 0.73844564
39.28034592 3.97041941 1.11632872 0.97408342 0.25890058 0.31828240
38.95491028 4.51715660 2.42199898 0.96601319 0.29455188 0.69054896
36.58124924 8.53706741 2.95863557 0.90715057 0.55667967 0.84355223
38.06694412 5.97663641 2.58350778 0.94399321 0.38972074 0.73659760
39.13795853 4.14237022 1.11239135 0.97055244 0.27011305 0.31715980
38.83610916 4.68890429 2.41561484 0.96306711 0.30575112 0.68872875
35.82625961 9.89763546 0.54411662 0.88842815 0.64539874 0.15513597
36.45904160 8.75049973 2.95288396 0.90412003 0.57059705 0.84191239
37.12014389 7.54964256 2.77264571 0.92051423 0.49229231 0.79052371
37.92427826 6.19869757 2.57603931 0.94045532 0.40420076 0.73446822
38.99991608 4.37565899 1.10883510 0.96712923 0.28532520 0.31614584
38.70293808 4.91968441 2.40883970 0.95976472 0.32079968 0.68679702
39.49869156 3.49983740 2.22435284 0.97949803 0.22821519 0.63419700
36.34140396 8.96416283 2.94762540 0.90120286 0.58452946 0.84041309
37.12856293 7.79463673 2.77708960 0.92072302 0.50826776 0.79179072
37.81180573 6.42453241 2.57082534 0.93766624 0.41892684 0.73298162
38.89622498 4.61163187 1.10642183 0.96455789 0.30071238 0.31545779
38.56246948 5.14818144 2.40167379 0.95628136 0.33569935 0.68475395
39.37653732 3.73856020 2.21840549 0.97646880 0.24378167 0.63250130
36.20513153 9.17229748 2.94088769 0.89782351 0.59810138 0.83849204
37.67441177 6.64505386 2.56392074 0.93425906 0.43330646 0.73101300
38.74747849 4.84100056 1.10261154 0.96086925 0.31566891 0.31437141
38.42856598 5.37621832 2.39502907 0.95296079 0.35056904 0.68285942
36.10434341 9.38858509 2.93727255 0.89532417 0.61220491 0.83746135
37.56518555 6.86947012 2.55912971 0.93155044 0.44794005 0.72964704
38.60927582 5.07025003 1.09918225 0.95744205 0.33061767 0.31339368
38.30714798 5.60480595 2.38929653 0.94994980 0.36547464 0.68122500
35.97914886 9.59781647 2.93168521 0.89221954 0.62584835 0.83586830
36.61943054 8.41118240 2.74904704 0.90809739 0.54847103 0.78379536
37.41934204 7.08611393 2.55180216 0.92793381 0.46206683 0.72755784
38.48556900 5.30014467 1.09626102 0.95437437 0.34560847 0.31256080
38.17648697 5.83087111 2.38304257 0.94670969 0.38021576 0.67944187
36.29822159 9.79276562 0.34063432 0.90013200 0.63856047 0.09712005
35.87580872 9.75160408 2.92675543 0.88965690 0.63587642 0.83446276
36.54639053 8.57589054 2.74644184 0.90628612 0.55921125 0.78305256
37.31698227 7.24909019 2.54686999 0.92539549 0.47269410 0.72615159
38.34934998 5.46559095 1.09270465 0.95099634 0.35639679 0.31154680
38.06579208 5.99761820 2.37757039 0.94396460 0.39108890 0.67788166
36.28831482 9.97375774 0.34111789 0.89988631 0.65036249 0.09725793
35.76197815 9.96241093 2.92231846 0.88683408 0.64962256 0.83319771
37.18267059 7.46578932 2.54052901 0.92206478 0.48682445 0.72434366
38.21737671 5.69195747 1.08959293 0.94772369 0.37115756 0.31065962
37.92101669 6.21917486 2.37053490 0.94037443 0.40553603 0.67587578
38.71055603 4.84500647 2.18617177 0.95995367 0.31593013 0.62331098
38.95867538 4.46128130 3.50735307 0.96610653 0.29090840 1.00000000
35.89315033 9.68192577 1.63417244 0.89008695 0.63133287 0.46592754
35.64500046 10.17162609 2.91771722 0.88393325 0.66326493 0.83188581
36.27511215 8.99453640 2.73372316 0.89955890 0.58651006 0.77942628
37.06274033 7.68431902 2.53531528 0.91909069 0.50107419 0.72285718
38.07420349 5.91534233 1.08616364 0.94417322 0.38572389 0.30968186
37.78676605 6.44116783 2.36428094 0.93704528 0.42001161 0.67409265
38.56255722 5.07283306 2.17915416 0.95628351 0.33078608 0.62131017
36.12552643 10.41901398 0.34065977 0.89584947 0.67939645 0.09712731
35.76035690 9.88759708 1.63064897 0.88679391 0.64474416 0.46492296
35.52680969 10.37976646 2.91311598 0.88100231 0.67683727 0.83057392
36.94348526 7.90205336 2.53024220 0.91613340 0.51527208 0.72141075
37.96722412 6.14323950 1.08394098 0.94152033 0.40058446 0.30904815
39.61745834 4.89755726 0.85967046 0.98244321 0.31935683 0.24510519
37.65908813 6.66311502 2.35854816 0.93387908 0.43448418 0.67245817
38.40927124 5.29844809 2.17189860 0.95248228 0.34549785 0.61924154
35.63793182 10.09524345 1.62769675 0.88375795 0.65828425 0.46408123
35.39403915 10.58283329 2.90736437 0.87770987 0.69007868 0.82893407
36.80932236 8.11559391 2.52418303 0.91280639 0.52919650 0.71968317
37.55759430 6.88876820 2.35463953 0.93136221 0.44919842 0.67134374
38.35348511 5.53654814 2.17059016 0.95109892 0.36102372 0.61886847
35.53350067 10.30729675 1.62569690 0.88116825 0.67211169 0.46351105
35.29253006 10.79453468 2.90440631 0.87519264 0.70388317 0.82809067
36.69533920 8.33260822 2.51967382 0.90997982 0.54334742 0.71839756
40.32544327 5.49999475 0.87915623 1.00000000 0.35864016 0.25066090
37.40182114 7.10332680 2.34721303 0.92749929 0.46318924 0.66922635
38.18960953 5.75813913 2.16285896 0.94703507 0.37547308 0.61666417
35.82526398 11.06801987 0.33936170 0.88840348 0.72171646 0.09675721
35.43279266 10.45938683 1.62312567 0.87867087 0.68202907 0.46277794
35.19367981 10.94595432 2.90029812 0.87274128 0.71375686 0.82691938
37.92807770 8.23358154 1.28276145 0.94054955 0.53689015 0.36573491
36.58958435 8.49014187 2.51488280 0.90735728 0.55361980 0.71703154
37.27783203 7.26189709 2.34121990 0.92442459 0.47352919 0.66751760
38.05354309 5.92121315 2.15631700 0.94366086 0.38610673 0.61479896
34.34200668 12.21724987 0.53094459 0.85162133 0.79665470 0.15138042
35.48647308 11.14697838 0.33554384 0.88000208 0.72686511 0.09566868
35.32238388 10.66854954 1.62093532 0.87593293 0.69566804 0.46215346
35.07291412 11.15058708 2.89586115 0.86974651 0.72710043 0.82565433
38.98944092 8.72025108 1.32453656 0.96686947 0.56862462 0.37764564
36.47535324 8.70554733 2.51051426 0.90452456 0.56766582 0.71578604
38.47631836 5.68030787 0.83403915 0.95414495 0.37039793 0.23779732
37.17668915 7.48491669 2.33757162 0.92191643 0.48807171 0.66647744
37.94266510 6.14841509 2.15191603 0.94091129 0.40092197 0.61354417
34.29275513 12.44303036 0.53149498 0.85039997 0.81137723 0.15153734
35.39287949 11.36240196 0.33523843 0.87768108 0.74091232 0.09558161
35.22983551 10.88262272 1.61969733 0.87363791 0.70962715 0.46180049
34.95476151 11.35536575 2.89175296 0.86681652 0.74045348 0.82448298
37.50020981 8.63570118 1.27068985 0.92993921 0.56311136 0.36229309
36.33273315 8.91321278 2.50417328 0.90098780 0.58120716 0.71397811
38.22446060 5.88887787 0.82859313 0.94789934 0.38399822 0.23624457
37.06250000 7.70450926 2.33314180 0.91908473 0.50239074 0.66521442
37.80680847 6.37048912 2.14608788 0.93754232 0.41540283 0.61188245
34.15014648 12.63462448 0.53024745 0.84686351 0.82387060 0.15118165
35.32649231 11.58642292 0.33531478 0.87603480 0.75552011 0.09560337
37.51765442 11.84663868 1.73749864 0.93037176 0.77248812 0.49538743
36.22377014 9.12818623 2.50036860 0.89828575 0.59522498 0.71289331
38.06824875 6.10998297 0.82559532 0.94402558 0.39841589 0.23538986
36.91189957 7.91541195 2.32636690 0.91535014 0.51614314 0.66328281
37.69720078 6.59590244 2.14192486 0.93482423 0.43010142 0.61069554
34.04576874 12.83975887 0.52977049 0.84427512 0.83724689 0.15104567
35.14109421 11.77074146 0.33381307 0.87143725 0.76753908 0.09517521
37.93084717 6.22723007 3.43533039 0.94061822 0.40606129 0.97946525
34.63937378 11.73624134 2.87696314 0.85899550 0.76528943 0.82026619
36.08263779 9.33416653 2.49430919 0.89478588 0.60865641 0.71116573
37.92063141 6.33099985 0.82284731 0.94036490 0.41282782 0.23460636
36.76206589 8.12515831 2.31972218 0.91163450 0.52982020 0.66138828
34.87718201 11.92670250 0.33126786 0.86489272 0.77770889 0.09444954
37.82225800 6.45374489 3.42885017 0.93792540 0.42083171 0.97761762
34.62335587 11.97381687 2.88205743 0.85859829 0.78078109 0.82171863
35.99627686 9.55354404 2.49233651 0.89264429 0.62296146 0.71060324
37.79341888 6.55414963 0.82064891 0.93721026 0.42737883 0.23397955
36.64802551 8.34177208 2.31555295 0.90880650 0.54394501 0.66019958
34.63158798 12.08639240 0.32897714 0.85880244 0.78812182 0.09379641
34.59444046 12.20767975 2.88616562 0.85788125 0.79603064 0.82288998
35.86815643 9.76122665 2.48740458 0.88946712 0.63650388 0.70919710
37.63734818 6.77100992 0.81775105 0.93333995 0.44151974 0.23315333
36.58517456 8.56959057 2.31490159 0.90724790 0.55880046 0.66001385
38.17572403 7.42346239 2.17891622 0.94669074 0.48406443 0.62124234
34.47770691 12.27628899 0.32793361 0.85498643 0.80050451 0.09349889
34.59846497 12.39271259 2.89158845 0.85798103 0.80809617 0.82443607
37.57581329 9.84236908 1.28393209 0.93181401 0.64179498 0.36606866
37.52440643 6.93344450 0.81570256 0.93053919 0.45211166 0.23256928
36.40853119 8.70932388 2.30578136 0.90286750 0.56791210 0.65741354
34.37808990 12.42369366 0.32737365 0.85251611 0.81011635 0.09333923
35.92830276 9.65335274 1.22386658 0.89095867 0.62946969 0.34894308
35.63581467 10.12020588 2.47838593 0.88370544 0.65991199 0.70662576
37.37601089 7.14922619 0.81305444 0.92685926 0.46618220 0.23181425
36.33177567 8.93265820 2.30434799 0.90096408 0.58247513 0.65700483
33.46813583 13.77605915 0.52621144 0.82995087 0.89830053 0.15003093
34.22052002 12.61045265 0.32630464 0.84860867 0.82229441 0.09303445
35.68193054 9.82805634 1.21684313 0.88484907 0.64086169 0.34694058
35.52554321 10.33056641 2.47500420 0.88097095 0.67362905 0.70566154
37.24600601 7.36728668 0.81090605 0.92363536 0.48040137 0.23120172
34.09941864 12.80976677 0.32574472 0.84560555 0.83529115 0.09287480
35.21303177 11.81353760 0.19551645 0.87322122 0.77032965 0.05574473
35.61562729 10.05097294 1.21669686 0.88320488 0.65539747 0.34689888
35.40638351 10.53767014 2.47105861 0.87801600 0.68713373 0.70453662
37.12649155 7.58639193 0.80905741 0.92067164 0.49468863 0.23067464
33.97342682 13.00662994 0.32513386 0.84248120 0.84812808 0.09270064
35.16838074 12.04493809 0.19580366 0.87211394 0.78541869 0.05582662
35.52104568 10.26569080 1.21552622 0.88085938 0.66939867 0.34656513
36.99591827 7.80222893 0.80695891 0.91743362 0.50876278 0.23007633
33.84444427 13.20169067 0.32449755 0.83928263 0.86084747 0.09251922
34.95987701 12.21940422 0.19454713 0.86694342 0.79679519 0.05546836
33.31324387 14.06391144 1.78874910 0.82610983 0.91707063 0.50999975
35.41750717 10.47735405 1.21406305 0.87829185 0.68320066 0.34614795
35.18734360 10.95570660 2.46485829 0.87258416 0.71439278 0.70276880
36.87191391 8.01842117 0.80506033 0.91435856 0.52286011 0.22953501
39.04769516 9.06745529 2.25016356 0.96831411 0.59126490 0.64155602
33.72550964 13.40006924 0.32401395 0.83633327 0.87378323 0.09238134
34.89182663 12.44218445 0.19463688 0.86525589 0.81132209 0.05549395
34.07271194 14.57464600 1.83663738 0.84494328 0.95037431 0.52365339
34.23981094 13.10661697 1.60969806 0.84908706 0.85464799 0.45894954
35.25480270 10.61021709 1.20974648 0.87425703 0.69186431 0.34491724
34.95840836 11.06550789 2.45175338 0.86690700 0.72155261 0.69903237
36.75173950 8.17389965 0.80296183 0.91137844 0.53299850 0.22893670
39.00259018 9.25090218 2.25004458 0.96719557 0.60322696 0.64152211
33.61745834 13.54094028 0.32340309 0.83365381 0.88296908 0.09220716
34.79520416 12.59283733 0.19427788 0.86285979 0.82114577 0.05539159
33.90732956 13.22436142 1.59693694 0.84084207 0.86232579 0.45531115
34.94704437 11.30393982 2.45612168 0.86662519 0.73710012 0.70027786
36.63143539 8.38906956 0.80121315 0.90839511 0.54702914 0.22843812
33.53911591 13.75492764 0.32350489 0.83171105 0.89692259 0.09223619
33.74743271 13.40694714 1.59303248 0.83687693 0.87423170 0.45419791
34.11882782 12.75312138 2.66078162 0.84608686 0.83159745 0.75862956
34.84501648 11.51329613 2.45386696 0.86409509 0.75075173 0.69963497
36.49820328 8.60030651 0.79916459 0.90509117 0.56080335 0.22785404
35.55253983 10.35766888 2.27933264 0.88164037 0.67539632 0.64987260
38.75543213 9.70832634 2.24219418 0.96106648 0.63305438 0.63928384
33.98585510 12.94733620 2.65649104 0.84278935 0.84426171 0.75740623
36.38708878 8.81583786 0.79771566 0.90233576 0.57485759 0.22744094
35.42174530 10.56142139 2.27490282 0.87839693 0.68868250 0.64860958
37.75191116 9.70994091 2.18426871 0.93618095 0.63315970 0.62276840
33.87595749 13.14977932 2.65419245 0.84006411 0.85746247 0.75675088
34.62966919 11.92690086 2.44879413 0.85875481 0.77772182 0.69818866
36.25724030 9.02597618 0.79581708 0.89911574 0.58856016 0.22689962
35.47721100 15.33569050 0.35404766 0.87977237 1.00000000 0.10094440
33.39844131 14.00285339 1.58836615 0.82822257 0.91308922 0.45286748
33.76115036 13.34988403 2.65158749 0.83721709 0.87051082 0.75600815
34.64252853 12.17529011 2.45541716 0.85907370 0.79391861 0.70007700
35.49703979 10.50111389 1.03809011 0.88026410 0.68474996 0.29597536
36.13975525 9.23828983 0.79426819 0.89620233 0.60240453 0.22645801
35.90189362 9.71766281 2.07781410 0.89030373 0.63366318 0.59241658
33.93288803 13.50040245 0.18993390 0.84147590 0.88032568 0.05415306
33.66270447 13.49471283 2.64867592 0.83477581 0.87995470 0.75517803
34.39682770 12.27147102 2.44132566 0.85298079 0.80019033 0.69605929
36.02228928 9.38936806 0.79236954 0.89328933 0.61225599 0.22591667
35.09322357 11.12714291 2.26526141 0.87025017 0.72557169 0.64586067
35.75175476 9.85813713 2.07139134 0.88658059 0.64282316 0.59058535
33.55325699 13.69614315 2.64668369 0.83206171 0.89308941 0.75461000
34.26279068 12.46691608 2.43709826 0.84965688 0.81293476 0.69485396
34.97705841 11.33263111 2.26213455 0.86736947 0.73897105 0.64496917
35.65644455 10.07336712 2.06936932 0.88421702 0.65685773 0.59000885
33.46285629 13.90516090 2.64637733 0.82981992 0.90671891 0.75452262
34.05095291 12.63275337 2.42709351 0.84440368 0.82374859 0.69200146
34.85022736 11.53395748 2.25835609 0.86422426 0.75209898 0.64389187
35.60971069 10.30218697 2.07043982 0.88305813 0.67177850 0.59031403
33.54755783 13.61513424 1.41963387 0.83192039 0.88780707 0.40475932
34.03436661 12.87040806 2.43188453 0.84399235 0.83924544 0.69336748
35.40068054 10.48328686 2.06151891 0.87787455 0.68358755 0.58777058
34.20526123 12.62570286 1.19672382 0.84823024 0.82328886 0.34120426
33.92490005 13.07325172 2.42977071 0.84127778 0.85247231 0.69276482
35.27487564 10.68759441 2.05783176 0.87475479 0.69690990 0.58671933
33.33699036 14.02010632 1.41791463 0.82669866 0.91421419 0.40426916
36.33118439 13.66899300 1.28298092 0.90094942 0.89131904 0.36579749
33.81793976 13.27668476 2.42793894 0.83862537 0.86573768 0.69224250
33.71977615 13.42190075 2.42526150 0.83619106 0.87520683 0.69147915
34.47298813 12.31751919 2.25171137 0.85486943 0.80319297 0.64199734
35.06761932 11.04726219 2.05236030 0.86961520 0.72036290 0.58515930
33.53306580 13.59234047 2.41751122 0.83156097 0.88632071 0.68926942
34.92718887 11.24478054 2.04795933 0.86613280 0.73324251 0.58390450
34.19196701 13.54420280 1.20828331 0.84790057 0.88318181 0.34450004
33.48389053 13.81796551 2.42032957 0.83034152 0.90103316 0.69007295
34.10599899 12.67176914 2.23711896 0.84576875 0.82629269 0.63783681
34.83308411 11.45653820 2.04653215 0.86379915 0.74705070 0.58349764
35.89709473 14.48008442 1.27895701 0.89018476 0.94420820 0.36465019
33.35593414 14.01110172 2.41722941 0.82716846 0.91362703 0.68918908
34.14513016 12.93111515 2.24545741 0.84673911 0.84320396 0.64021426
34.71687698 11.66057682 2.04379630 0.86091745 0.76035553 0.58271760
33.45690918 13.74225616 1.18604219 0.82967246 0.89609635 0.33815876
33.34430695 14.25329685 2.42314792 0.82688010 0.92941993 0.69087654
34.37878418 12.68949032 1.02627814 0.85253334 0.82744825 0.29260761
33.95896530 13.10510254 2.23816133 0.84212255 0.85454923 0.63813400
34.59759140 11.86296272 2.04094172 0.85795933 0.77355254 0.58190370
33.45843887 13.98915672 1.18955398 0.82971036 0.91219610 0.33916003
33.80724335 13.29115677 2.23334074 0.83836013 0.86668134 0.63675958
34.47525406 12.06365108 2.03796816 0.85492563 0.78663892 0.58105588
33.75350571 13.45402145 2.23399210 0.83702749 0.87730134 0.63694531
34.39544296 12.21797085 2.03654075 0.85294646 0.79670173 0.58064890
33.63687515 13.65305614 2.23177719 0.83413529 0.89027983 0.63631380
33.49510574 13.84123516 2.22786856 0.83061963 0.90255052 0.63519943
34.07997894 12.59050083 2.02643061 0.84512347 0.82099342 0.57776636
35.89197540 14.48032188 1.09162509 0.89005780 0.94422364 0.31123900
33.35781860 14.03049660 2.22435069 0.82721519 0.91489172 0.63419640
34.04317856 12.82054138 2.02916622 0.84421092 0.83599377 0.57854635
33.49314117 13.75643635 1.01237047 0.83057094 0.89702100 0.28864232
33.91720963 13.01704311 2.02631164 0.84108710 0.84880710 0.57773244
33.48717880 14.00057983 1.01516461 0.83042306 0.91294092 0.28943896
34.65148926 15.09083557 2.32923317 0.85929590 0.98403364 0.66409999
33.81243515 13.22118092 2.02488422 0.83848888 0.86211842 0.57732546
33.72562408 13.37081909 2.02333808 0.83633608 0.87187588 0.57688463
33.83686829 13.11096382 0.76893669 0.83909476 0.85493141 0.21923561
33.59650803 13.56454372 2.02048349 0.83313423 0.88450819 0.57607073
33.77614212 13.33210373 0.76953626 0.83758885 0.86935139 0.21940656
33.48291397 13.76399803 2.01869917 0.83031732 0.89751405 0.57556200
35.87378693 14.41983700 0.82829332 0.88960677 0.94027960 0.23615910
33.37734985 13.96640778 2.01750970 0.82769954 0.91071266 0.57522285
33.50600433 13.71464062 0.76683819 0.83088994 0.89429563 0.21863730
33.32568359 14.19147015 2.01988864 0.82641828 0.92538840 0.57590115
33.40993881 13.92105293 0.76658839 0.82850766 0.90775520 0.21856607
34.62660599 15.00224209 2.11016679 0.85867888 0.97825670 0.60164082
39.46146774 3.74360704 3.33202171 0.97857493 0.24411076 0.95001036
39.34400940 3.98199797 3.32382321 0.97566217 0.25965559 0.94767284
39.47321320 3.69026279 1.97444928 0.97886622 0.24063233 0.56294566
39.20728302 4.21713448 3.31405497 0.97227162 0.27498823 0.94488776
39.12164307 4.39447355 3.30829859 0.97014785 0.28655204 0.94324654
38.96466446 4.62486315 3.29696035 0.96625507 0.30157515 0.94001383
38.86367035 4.86065388 3.29068065 0.96375060 0.31695044 0.93822336
38.77112961 5.09666252 3.28527331 0.96145576 0.33233994 0.93668169
39.54879379 3.67195153 3.13627720 0.98074049 0.23943830 0.89420062
