-21.86117172 4.01516390 0.26996177 -0.66454440 0.98961765 0.16024764
-21.78750229 3.86037469 0.26812723 -0.66230494 0.95146674 0.15915868
-21.79756737 3.75630999 0.26798046 -0.66261095 0.92581791 0.15907155
-21.88263893 3.99334717 1.04722512 -0.66519696 0.98424047 0.62162638
-21.79432106 3.89942288 -0.46642411 -0.66251224 0.96109092 -0.27686647
-21.78127861 3.61277080 0.26724663 -0.66211575 0.89043981 0.15863596
-21.76172256 3.83029175 1.03935015 -0.66152132 0.94405216 0.61695182
-21.80853653 3.76071906 -0.46627572 -0.66294438 0.92690462 -0.27677840
-21.77194786 3.47083688 0.26665959 -0.66183215 0.85545731 0.15828748
-21.84050179 3.70278072 1.04232991 -0.66391605 0.91262454 0.61872059
-21.78832626 3.61645484 -0.46562284 -0.66233003 0.89134777 -0.27639085
-21.79530334 3.33427262 0.26669627 -0.66254210 0.82179832 0.15830927
-21.81799316 3.55812883 1.03988230 -0.66323185 0.87697220 0.61726773
-21.83629608 3.48355603 -0.46600863 -0.66378820 0.85859221 -0.27661985
-21.78218269 3.19236541 0.26607254 -0.66214323 0.78682244 0.15793902
-21.82582474 4.02166796 0.14460070 -0.66346991 0.99122071 0.08583409
-21.83005142 3.41943693 1.03935015 -0.66359836 0.84278876 0.61695182
-21.70947456 3.32372594 -0.46378288 -0.65993303 0.81919891 -0.27529866
-21.79553986 3.87460232 0.14388803 -0.66254932 0.95497340 0.08541104
-21.81752586 3.27719569 1.03754103 -0.66321760 0.80773056 0.61587793
-21.80710602 3.19850349 -0.46494025 -0.66290087 0.78833532 -0.27598566
-21.78291512 2.91339564 0.26537541 -0.66216552 0.71806479 0.15752520
-21.83127975 3.73961806 0.14404075 -0.66363573 0.92170382 0.08550170
-21.82877350 3.17377591 1.03732824 -0.66355956 0.78224069 0.61575162
-21.89616203 4.03574944 0.92336470 -0.66560805 0.99469137 0.54810357
-21.82787704 3.09654212 -0.46502930 -0.66353232 0.76320487 -0.27603853
-21.80953407 3.94715333 -0.59795904 -0.66297472 0.97285503 -0.35494480
-21.78450203 2.80919075 0.26515526 -0.66221374 0.69238138 0.15739453
-21.80526733 3.62943578 0.14348079 -0.66284502 0.89454722 0.08516932
-21.81860733 3.03246331 1.03573191 -0.66325051 0.74741137 0.61480409
-21.80899429 3.87805438 0.91793650 -0.66295826 0.95582426 0.54488146
-21.95590782 2.97399664 -0.46666151 -0.66742420 0.73300111 -0.27700740
-21.81617928 3.80693316 -0.59758550 -0.66317672 0.93829501 -0.35472307
-21.78385735 2.67008710 0.26482505 -0.66219413 0.65809649 0.15719852
-21.83356285 3.49331188 0.14355715 -0.66370511 0.86099672 0.08521464
-21.83525085 2.89505339 1.03562558 -0.66375643 0.71354395 0.61474097
-21.81521034 3.73789620 0.91707945 -0.66314727 0.92127943 0.54437268
-22.01581573 2.84132290 -0.46728474 -0.66924530 0.70030099 -0.27737734
-21.81009483 3.66478634 -0.59696287 -0.66299176 0.90326005 -0.35435349
-21.78431129 2.53133154 0.26453152 -0.66220796 0.62389737 0.15702428
-21.81160164 3.34934163 0.14299721 -0.66303754 0.82551241 0.08488226
-21.81932068 2.75358248 1.03381646 -0.66327220 0.67867559 0.61366707
-21.83432388 3.60010052 0.91688901 -0.66372824 0.88731694 0.54425967
-21.85060310 2.68070364 -0.46455446 -0.66422313 0.66071314 -0.27575666
-21.65900612 3.49945068 -0.59331018 -0.65839887 0.86250979 -0.35218525
-21.80177307 2.39462423 0.26456821 -0.66273874 0.59020317 0.15704605
-21.83023643 3.21193719 0.14297175 -0.66360402 0.79164630 0.08486715
-21.82007027 4.02645731 0.06130188 -0.66329497 0.99240112 0.03638842
-21.83222389 2.61596251 1.03360355 -0.66366440 0.64475638 0.61354071
-21.84862137 3.46158361 0.91650808 -0.66416287 0.85317665 0.54403353
-22.09376144 3.98122787 1.58688760 -0.67161477 0.98125345 0.94196665
-21.84516144 2.54083896 -0.46422803 -0.66405773 0.62624067 -0.27556288
-21.98679161 3.41109037 -0.59974390 -0.66836303 0.84073162 -0.35600427
-21.79848671 2.25575733 0.26423797 -0.66263884 0.55597663 0.15685003
-21.81830597 3.07022333 0.14256452 -0.66324133 0.75671810 0.08462542
-21.80752182 3.88265300 0.06096083 -0.66291350 0.95695764 0.03618597
-21.83830643 2.47761941 1.03307152 -0.66384935 0.61065894 0.61322486
-21.83439445 3.31880093 0.91479391 -0.66373038 0.81798500 0.54301602
-22.21265984 3.85862803 1.59424305 -0.67522907 0.95103621 0.94633281
-21.82093430 2.39919829 -0.46363449 -0.66332126 0.59133053 -0.27521056
-22.00581360 3.27258086 -0.59970242 -0.66894126 0.80659318 -0.35597965
-21.78834343 2.11645198 0.26379770 -0.66233051 0.52164203 0.15658869
-21.80942154 2.92932248 0.14220819 -0.66297126 0.72199023 0.08441390
-21.79994392 3.74017453 0.06067362 -0.66268319 0.92184097 0.03601549
-21.83186913 2.37275600 1.03211367 -0.66365361 0.58481330 0.61265630
-21.82410049 3.21206689 0.91355586 -0.66341746 0.79167825 0.54228109
-21.92432213 4.03198433 0.82106680 -0.66646409 0.99376339 0.48738018
-22.13030052 3.73706770 1.58642793 -0.67272550 0.92107522 0.94169384
-21.82006454 2.29509926 -0.46345642 -0.66329479 0.56567323 -0.27510488
-21.99724388 3.16540575 -0.59920430 -0.66868079 0.78017771 -0.35568398
-21.80205727 2.01411796 0.26387107 -0.66274738 0.49641976 0.15663224
-21.75952530 2.81823730 0.14139371 -0.66145450 0.69461107 0.08393043
-21.81040764 3.95299292 -0.68658358 -0.66300124 0.97429436 -0.40755177
-21.79562378 3.63380575 0.06047617 -0.66255182 0.89562428 0.03589828
-21.84237289 2.23513365 1.03190088 -0.66397291 0.55089349 0.61252999
-21.83396339 3.07347822 0.91307974 -0.66371733 0.75752032 0.54199851
-21.67964172 3.84657645 0.80928975 -0.65902615 0.94806588 0.48038939
-22.04703903 3.58077979 1.57815301 -0.67019445 0.88255495 0.93678188
-21.82211304 2.15678620 -0.46327835 -0.66335708 0.53158319 -0.27499917
-21.97114182 3.02082539 -0.59824961 -0.66788733 0.74454296 -0.35511729
-21.80033493 1.87590563 0.26361424 -0.66269505 0.46235454 0.15647979
-21.82443428 2.68737316 0.14200456 -0.66342765 0.66235697 0.08429303
-21.70086479 3.79259443 -0.68321806 -0.65967131 0.93476093 -0.40555403
-21.81209946 3.49584508 0.06042232 -0.66305268 0.86162108 0.03586631
-21.83411407 2.09577179 1.03073025 -0.66372186 0.51654500 0.61183512
-21.83106613 2.93328500 0.91203219 -0.66362923 0.72296691 0.54137665
-21.98436737 3.42904711 1.57156384 -0.66828936 0.84515738 0.93287057
-21.80934525 2.01726174 -0.46289256 -0.66296893 0.49719459 -0.27477017
-21.97779465 2.88114738 -0.59800059 -0.66808957 0.71011651 -0.35496944
-21.80172348 1.73810863 0.26343077 -0.66273725 0.42839172 0.15637088
-21.81308365 2.54692149 0.14164823 -0.66308260 0.62773985 0.08408152
-21.82483673 3.67300034 -0.68574220 -0.66343987 0.90528458 -0.40705234
-21.80002594 3.35358906 0.06011716 -0.66268563 0.82655925 0.03568518
-21.84287262 1.95819068 1.03051746 -0.66398811 0.48263535 0.61170882
-21.84312057 2.79529333 0.91174650 -0.66399568 0.68895608 0.54120708
-21.82683563 3.59029341 0.81367391 -0.66350061 0.88489980 0.48299181
-21.96011162 3.28410649 1.56803930 -0.66755199 0.80943388 0.93077844
-21.82358170 1.88036060 -0.46292225 -0.66340172 0.46345258 -0.27478778
-21.97959137 2.74100685 -0.59766853 -0.66814417 0.67557609 -0.35477236
-21.81420898 1.60123551 0.26346746 -0.66311681 0.39465660 0.15639266
-21.82269287 2.40915251 0.14157188 -0.66337472 0.59378392 0.08403619
-21.81868935 3.21626043 0.06009921 -0.66325301 0.79271185 0.03567452
-21.81617928 4.04372072 -0.08692848 -0.66317672 0.99665606 -0.05160021
-21.81493759 1.81763053 1.02838910 -0.66313893 0.44799149 0.61044544
-21.83645821 2.65507913 0.91060370 -0.66379315 0.65439749 0.54052871
-21.95267296 3.14213276 1.56589401 -0.66732585 0.77444160 0.92950499
-21.87845802 3.98192739 1.43252420 -0.66506988 0.98142582 0.85033751
-21.81502914 1.74162984 -0.46262547 -0.66314173 0.42925960 -0.27461162
-21.98049545 2.60095739 -0.59733647 -0.66817164 0.64105809 -0.35457525
-21.81154251 2.26927567 0.14124100 -0.66303575 0.55930847 0.08383978
-21.80998993 3.38930249 -0.68425739 -0.66298854 0.83536154 -0.40617096
-21.80083466 3.07383657 0.05975816 -0.66271025 0.75760865 0.03547207
-21.72501945 3.88568425 -0.08719927 -0.66040558 0.95770478 -0.05176095
-21.84584045 1.68204296 1.02945328 -0.66407835 0.41457319 0.61107713
-21.84874153 2.51736403 0.91041327 -0.66416651 0.62045485 0.54041570
-21.81292915 3.30709958 0.81118095 -0.66307789 0.81510097 0.48151201
-21.96012688 3.00252914 1.56497455 -0.66755247 0.74003351 0.92895925
-21.88732719 3.84160995 1.43139696 -0.66533947 0.94684178 0.84966838
-21.83152580 1.60496271 -0.46271452 -0.66364318 0.39557523 -0.27466449
-21.99044418 2.46212649 -0.59721196 -0.66847408 0.60684043 -0.35450134
-21.82537079 2.13218570 0.14124100 -0.66345608 0.52551991 0.08383978
-21.85063171 3.25512815 -0.68475235 -0.66422397 0.80229157 -0.40646476
-21.84945297 2.94077206 0.06002741 -0.66418815 0.72481221 0.03563190
-21.79826927 3.75764513 -0.08708452 -0.66263229 0.92614698 -0.05169284
-21.84844780 2.41304994 0.90984184 -0.66415763 0.59474450 0.54007649
-21.81443024 3.20225358 0.81057918 -0.66312355 0.78925961 0.48115480
-21.89176178 4.05728817 0.67705923 -0.66547430 1.00000000 0.40189818
-21.92657852 2.89279532 1.56129682 -0.66653264 0.71298742 0.92677617
-21.98580551 3.75226045 1.43717444 -0.66833305 0.92481983 0.85309786
-21.99186134 2.35739732 -0.59700441 -0.66851717 0.58102781 -0.35437813
-28.77292442 1.60630488 0.39089519 -0.87465054 0.39590603 0.23203297
-21.81128311 2.02706981 0.14093557 -0.66302788 0.49961197 0.08365849
-21.80859184 3.97271228 -0.82994795 -0.66294605 0.97915459 -0.49265197
-21.73413849 2.82116294 0.05886064 -0.66068280 0.69533217 0.03493931
-21.79798508 3.65189147 -0.08712584 -0.66262364 0.90008187 -0.05171736
-21.84331131 2.27363873 0.90888953 -0.66400146 0.56038386 0.53951120
-21.80839348 3.06153965 0.80946165 -0.66294003 0.75457782 0.48049143
-21.74961662 3.88959765 0.67084056 -0.66115332 0.95866930 0.39820683
-21.95223618 2.75595665 1.56190979 -0.66731262 0.67926079 0.92714000
-21.99910545 3.61242104 1.43646979 -0.66873735 0.89035356 0.85267961
-22.01021767 2.21957755 -0.59708738 -0.66907513 0.54705936 -0.35442740
-21.85546494 1.89277673 0.14134280 -0.66437089 0.46651277 0.08390021
-21.93066406 3.02090931 -0.68589067 -0.66665685 0.74456364 -0.40714046
-21.79178238 3.82830596 -0.82863736 -0.66243505 0.94356275 -0.49187401
-21.81098747 2.69184256 0.05939915 -0.66301888 0.66345859 0.03525897
-21.82050133 3.51485944 -0.08712584 -0.66330808 0.86630756 -0.05171736
-26.98557091 1.60455322 1.30241668 -0.82031786 0.39547431 0.77310652
-21.83330917 2.13399506 0.90774679 -0.66369742 0.52596587 0.53883290
-21.80144882 2.92102838 0.80834413 -0.66272891 0.71994597 0.47982809
-21.80316544 3.75798440 0.67193794 -0.66278112 0.92623061 0.39885822
-21.95327568 2.61610007 1.56068385 -0.66734421 0.64479029 0.92641228
-22.01348686 3.47287560 1.43590617 -0.66917455 0.85595983 0.85234505
-29.18401909 1.63226175 -0.57162803 -0.88714713 0.40230364 -0.33931488
-21.85453415 2.06509471 -0.59355927 -0.66434264 0.50898397 -0.35233313
-21.81310654 1.75104773 0.14065559 -0.66308331 0.43158081 0.08349229
-21.88180351 2.87426496 -0.68420792 -0.66517156 0.70842022 -0.40614161
-21.82526016 3.69298601 -0.82894939 -0.66345274 0.91021043 -0.49205923
-21.82945824 2.55497837 0.05941710 -0.66358036 0.62972564 0.03526962
-21.81053543 3.37276936 -0.08719927 -0.66300511 0.83128661 -0.05176095
-21.83633995 1.99585259 0.90727061 -0.66378957 0.49191788 0.53855026
-21.82333755 2.78449106 0.80851603 -0.66339427 0.68629366 0.47993013
-21.78889084 3.61466837 0.67054790 -0.66234720 0.89090747 0.39803308
-21.97126198 2.47833443 1.56083715 -0.66789097 0.61083519 0.92650330
-22.03487396 3.33449316 1.43590617 -0.66982466 0.82185268 0.85234505
-21.84716225 1.92596424 -0.59314418 -0.66411853 0.47469249 -0.35208672
-21.82567215 1.61410761 0.14068104 -0.66346526 0.39782917 0.08350740
-21.89149475 2.73573732 -0.68400991 -0.66546619 0.67427731 -0.40602407
-21.81055069 3.54964614 -0.82776368 -0.66300559 0.87488145 -0.49135542
-21.80532074 2.41340709 0.05905809 -0.66284662 0.59483254 0.03505652
-21.82854462 1.85690057 0.90631831 -0.66355258 0.45767036 0.53798497
-21.83048248 2.64612389 0.80808622 -0.66361147 0.65219027 0.47967499
-21.84077263 3.48244214 0.67164534 -0.66392428 0.85831767 0.39868453
-21.95466995 2.33688903 1.55838537 -0.66738659 0.57597315 0.92504793
-22.03367424 3.19281197 1.43435609 -0.66978818 0.78693253 0.85142493
-21.86596680 3.98488402 1.31284976 -0.66469014 0.98215455 0.77929950
-21.86281776 1.78898728 -0.59322721 -0.66459441 0.44093177 -0.35213602
-21.90427971 2.59766865 -0.68391097 -0.66585481 0.64024752 -0.40596533
-21.83044815 3.41222668 -0.82770127 -0.66361046 0.84101164 -0.49131837
-21.81010628 2.27532506 0.05896834 -0.66299206 0.56079948 0.03500324
-21.80367661 3.09164834 -0.08730942 -0.66279662 0.76199871 -0.05182633
-21.88727379 3.96515703 -0.21180795 -0.66533786 0.97729242 -0.12572789
-21.87562561 1.72256804 0.90803248 -0.66498375 0.42456141 0.53900248
-21.84270668 2.50845551 0.80791432 -0.66398311 0.61825913 0.47957295
-21.96098328 2.19811153 1.55777240 -0.66757852 0.54176867 0.92468411
-21.85373116 3.02648306 1.42012382 -0.66431820 0.74593741 0.84297675
-21.80996895 3.83332777 1.30750787 -0.66298789 0.94480050 0.77612859
-21.84970093 1.64975595 -0.59272909 -0.66419572 0.40661544 -0.35184032
-21.80889130 2.44760513 -0.68113935 -0.66295516 0.60326135 -0.40432012
-21.81587601 3.26962948 -0.82657796 -0.66316748 0.80586571 -0.49065158
-21.82397270 2.13824415 0.05896834 -0.66341358 0.52701312 0.03500324
-21.79889107 2.95134974 -0.08736449 -0.66265118 0.72741932 -0.05185902
-21.81520271 3.81078291 -0.21148211 -0.66314703 0.93924385 -0.12553447
-21.85613251 1.58289409 0.90660399 -0.66439122 0.39013597 0.53815454
-21.81830215 2.36689186 0.80619502 -0.66324121 0.58336794 0.47855240
-21.79581070 3.19488049 0.66842622 -0.66255754 0.78744233 0.39677367
-21.96443176 2.05916262 1.55700612 -0.66768330 0.50752193 0.92422920
-22.02261543 2.90910697 1.43083334 -0.66945201 0.71700776 0.84933382
-21.75228500 4.01245356 0.56478471 -0.66123444 0.98894960 0.33525270
-21.84543228 3.69820499 1.30828965 -0.66406596 0.91149676 0.77659267
-28.67099762 1.58400774 0.22760065 -0.87155211 0.39041045 0.13510235
-21.80793190 2.30885935 -0.68074340 -0.66292602 0.56906468 -0.40408507
-21.81422615 3.12934995 -0.82589149 -0.66311735 0.77129102 -0.49024409
-21.82502556 1.99999487 0.05886064 -0.66344559 0.49293882 0.03493931
-21.84080505 2.81741834 -0.08730942 -0.66392529 0.69440925 -0.05182633
-21.80530930 3.70327640 -0.21138901 -0.66284627 0.91274673 -0.12547921
-21.82921410 2.26404953 0.80619502 -0.66357291 0.55802041 0.47855240
-21.79281616 3.08959365 0.66776776 -0.66246647 0.76149231 0.39638281
-21.97786522 1.95598507 1.55731261 -0.66809171 0.48209172 0.92441118
-22.09346581 2.81265473 1.43491983 -0.67160577 0.69323516 0.85175955
-21.73946762 3.90427947 0.56376863 -0.66084480 0.96228796 0.33464956
-21.83307266 3.59038949 1.30633533 -0.66369021 0.88492346 0.77543259
-21.89802361 3.03619123 -0.82807571 -0.66566461 0.74833018 -0.49154064
-21.85811996 1.89918029 0.05907604 -0.66445160 0.46809104 0.03506717
-21.81811905 2.70999455 -0.08739203 -0.66323566 0.66793251 -0.05187537
-21.78866386 3.55978417 -0.21125600 -0.66234028 0.87738019 -0.12540026
-25.94966888 1.59654903 1.10135233 -0.78882813 0.39350152 0.65375596
-21.81715202 2.12435555 0.80507749 -0.66320628 0.52359003 0.47788903
-21.81971931 2.95368505 0.66806042 -0.66328430 0.72799486 0.39655656
-21.96388245 1.81574440 1.55532050 -0.66766661 0.44752660 0.92322862
-21.90078163 2.64820337 1.41998291 -0.66574848 0.65270281 0.84289306
-21.82660866 3.77846384 0.56580079 -0.66349375 0.93127817 0.33585584
-21.83154106 3.44942236 1.30477178 -0.66364366 0.85017931 0.77450448
-28.27041245 1.64983547 -0.72571975 -0.85937500 0.40663502 -0.43078277
-21.83000946 2.06874704 -0.68069386 -0.66359711 0.50988418 -0.40405568
-21.91468620 2.89827895 -0.82801330 -0.66617113 0.71433896 -0.49150360
-21.83174324 1.75878894 0.05873499 -0.66364980 0.43348879 0.03486473
-21.83272934 2.57261896 -0.08739662 -0.66367978 0.63407350 -0.05187809
-21.79281616 3.42003846 -0.21119614 -0.66246647 0.84293705 -0.12536472
-29.10069084 1.60941172 1.25134194 -0.88461411 0.39667177 0.74278885
-21.81812859 1.98615742 0.80456173 -0.66323596 0.48952830 0.47758287
-21.80018997 2.81163788 0.66667032 -0.66269064 0.69298452 0.39573139
-23.34094048 1.78073418 1.66059530 -0.70952696 0.43889764 0.98571914
-21.83573151 2.50116158 1.41420543 -0.66377103 0.61646140 0.83946359
-21.79864502 3.63275290 0.56414968 -0.66264367 0.89536476 0.33487576
-21.83107567 3.30891371 1.30333865 -0.66362953 0.81554812 0.77365375
-21.80871582 1.92858243 -0.67985249 -0.66294980 0.47533780 -0.40355623
-21.89280128 2.75549936 -0.82676518 -0.66550589 0.67914808 -0.49076271
-21.82441139 1.62026632 0.05857343 -0.66342694 0.39934713 0.03476883
-21.81467438 2.43159199 -0.08747465 -0.66313094 0.59931457 -0.05192441
-21.80398369 3.28156424 -0.21116289 -0.66280597 0.80880731 -0.12534499
-21.90385056 1.85520303 0.80774236 -0.66584176 0.45725197 0.47947088
-21.82932663 2.67607903 0.66710931 -0.66357636 0.65957332 0.39599198
-23.66399956 1.65562737 1.68465364 -0.71934748 0.40806255 1.00000000
-21.82126617 2.36066890 1.41209173 -0.66333133 0.58183420 0.83820891
-21.83485794 3.49791789 0.56459421 -0.66374451 0.86213195 0.33513963
-22.00748444 3.19418430 1.31363142 -0.66899204 0.78727072 0.77976352
-21.85969734 4.00940371 1.18597507 -0.66449958 0.98819792 0.70398748
-21.84232330 1.79329634 -0.68039691 -0.66397142 0.44199383 -0.40387940
-21.91166687 2.61812830 -0.82682759 -0.66607934 0.64529020 -0.49079975
-21.83946609 2.29553390 -0.08745170 -0.66388458 0.56578034 -0.05191079
-21.79051590 3.13968420 -0.21104984 -0.66239655 0.77383810 -0.12527788
-21.77132225 3.97725534 -0.31405875 -0.66181314 0.98027432 -0.18642333
-21.80799294 2.53445053 0.66571927 -0.66292787 0.62466615 0.39516684
-21.85154533 2.22514772 1.41321909 -0.66425174 0.54843229 0.83887815
-21.81688309 3.35461783 0.56332409 -0.66319811 0.82681280 0.33438569
-21.85906982 3.03268766 1.30255687 -0.66448051 0.74746668 0.77318972
-21.84121513 3.86428523 1.18335831 -0.66393775 0.95243055 0.70243418
-21.84625244 2.47111511 -0.82426894 -0.66409087 0.60905588 -0.48928094
-21.80569458 2.15350628 -0.08756185 -0.66285795 0.53077477 -0.05197617
-21.67902946 2.98482680 -0.21061093 -0.65900755 0.73567039 -0.12501734
-21.79391289 3.84003568 -0.31404284 -0.66249985 0.94645375 -0.18641388
-21.86564064 1.57555914 0.80516344 -0.66468024 0.38832814 0.47794005
-21.79368973 2.39407659 0.66462183 -0.66249305 0.59006816 0.39451542
-21.82736397 2.08416963 1.41054177 -0.66351670 0.51368541 0.83728892
-21.78898430 4.03024101 0.41584444 -0.66235000 0.99333370 0.24684270
-21.84009743 2.89034390 1.30008137 -0.66390377 0.71238321 0.77172029
-21.98706436 3.74788833 1.19073284 -0.66837132 0.92374223 0.70681167
-21.81563568 2.32888031 -0.82283360 -0.66316015 0.57399923 -0.48842895
-28.71265793 1.58175302 0.12025075 -0.87281853 0.38985473 0.07138010
-21.84468269 2.01887226 -0.08750219 -0.66404313 0.49759153 -0.05194076
-21.97441292 2.91978240 -0.21155526 -0.66798675 0.71963888 -0.12557790
-21.78417397 3.73253798 -0.31381992 -0.66220379 0.91995883 -0.18628156
-21.89814186 2.30125403 0.66806042 -0.66566825 0.56719017 0.39655656
-21.83296967 1.98092353 1.41025984 -0.66368711 0.48823830 0.83712155
-21.80692673 3.10808539 0.56186348 -0.66289544 0.76604992 0.33351868
-21.73297501 3.91398335 0.41394582 -0.66064739 0.96467966 0.24571569
-21.81585503 2.78263021 1.29760587 -0.66316682 0.68583500 0.77025086
-21.82527161 3.61438799 1.17990899 -0.66345310 0.89083838 0.70038670
-21.79653931 2.22298098 -0.82189745 -0.66257966 0.54789823 -0.48787326
-32.89648056 1.65382206 0.15778486 -1.00000000 0.40761760 0.09366012
-21.95356369 1.92473519 -0.08727270 -0.66735297 0.47438958 -0.05180454
-21.95462227 2.77692246 -0.21142890 -0.66738516 0.68442822 -0.12550288
-21.78154755 3.59133792 -0.31361291 -0.66212392 0.88515723 -0.18615869
-26.31753349 1.60155571 0.99634731 -0.80001062 0.39473552 0.59142560
-21.83062744 2.15549183 0.66506082 -0.66361588 0.53126419 0.39477599
-21.83305740 1.84268689 1.40941441 -0.66368979 0.45416713 0.83661968
-21.82404518 2.97074008 0.56179994 -0.66341579 0.73219842 0.33348098
-21.79849815 3.78457475 0.41499507 -0.66263920 0.93278432 0.24633852
-21.83092690 2.64526486 1.29747570 -0.66362500 0.65197855 0.77017355
-21.82783699 3.47402930 1.17871952 -0.66353106 0.85624415 0.69968063
-21.80808640 2.08579421 -0.82183504 -0.66293067 0.51408577 -0.48783621
-22.01505470 1.79085958 -0.08715796 -0.66922218 0.44139326 -0.05173643
-22.02128410 2.64484048 -0.21159515 -0.66941154 0.65187395 -0.12560157
-21.78590775 3.45157766 -0.31346962 -0.66225648 0.85071051 -0.18607363
-21.80195045 2.01438403 0.66352439 -0.66274416 0.49648532 0.39386398
-21.85017204 1.70594168 1.40983713 -0.66421002 0.42046353 0.83687061
-21.80857468 2.82921720 0.56072038 -0.66294551 0.69731730 0.33284014
-21.77058220 3.63891959 0.41369602 -0.66179061 0.89688468 0.24556741
-21.84116745 2.50736856 1.29708481 -0.66393632 0.61799127 0.76994151
-21.82555580 3.33317471 1.17729223 -0.66346174 0.82152772 0.69883341
-21.82673454 1.94926858 -0.82202226 -0.66349757 0.48043633 -0.48794734
-22.02587318 1.65250051 -0.08715796 -0.66955107 0.40729189 -0.05173643
-21.84469223 2.48467898 -0.21095009 -0.66404343 0.61239892 -0.12521867
-21.77157974 3.30918312 -0.31318298 -0.66182095 0.81561452 -0.18590349
-21.83806992 1.87943816 0.66440237 -0.66384214 0.46322522 0.39438513
-21.89030647 1.57078981 1.41195083 -0.66543007 0.38715264 0.83812529
-21.80409431 2.68946314 0.56002182 -0.66280931 0.66287208 0.33242550
-21.79696465 3.50269818 0.41379595 -0.66259259 0.86331016 0.24562672
-21.85649109 2.37008786 1.29708481 -0.66440213 0.58415568 0.76994151
-21.82829094 3.19335842 1.17622173 -0.66354489 0.78706717 0.69819796
-21.84651947 1.81275821 -0.82227188 -0.66409898 0.44679061 -0.48809552
-21.80617523 2.34166074 -0.21077053 -0.66287261 0.57714921 -0.12511209
-21.79589844 3.17290354 -0.31321484 -0.66256016 0.78202569 -0.18592240
-21.79765129 1.73801088 0.66250014 -0.66261345 0.42836761 0.39325601
-21.80467796 2.55056858 0.55951375 -0.66282707 0.62863874 0.33212391
-21.80076027 3.36291599 0.41334626 -0.66270798 0.82885808 0.24535979
-21.82329559 2.22789311 1.29395783 -0.66339302 0.54910892 0.76808536
-21.84792328 3.05614495 1.17622173 -0.66414165 0.75324821 0.69819796
-21.87342262 1.67669475 -0.82277119 -0.66491681 0.41325504 -0.48839191
-21.82642746 2.20520091 -0.21079049 -0.66348821 0.54351598 -0.12512393
-21.76985168 3.02951193 -0.31284860 -0.66176844 0.74668396 -0.18570499
-21.83205986 1.60279703 0.66337806 -0.66365945 0.39504147 0.39377713
-21.81828499 2.41329837 0.55945027 -0.66324073 0.59480578 0.33208624
-21.79772949 3.22234154 0.41274670 -0.66261584 0.79421067 0.24500389
-21.84878540 2.09186053 1.29473960 -0.66416788 0.51558095 0.76854944
-21.84888649 2.91641736 1.17515123 -0.66417092 0.71880955 0.69756252
-28.39878464 1.59887171 -0.07257199 -0.86327732 0.39407399 -0.04307828
-21.81666756 2.10042405 -0.21072398 -0.66319156 0.51769161 -0.12508446
-22.02171135 2.95906901 -0.31475937 -0.66942453 0.72932190 -0.18683922
-21.73995209 2.30107045 0.55659252 -0.66085953 0.56714493 0.33038989
-21.82262039 1.98565567 1.29239440 -0.66337252 0.48940465 0.76715732
-21.83268929 2.80957508 1.17336714 -0.66367859 0.69247609 0.69650352
-21.89318275 1.96897900 -0.21093678 -0.66551745 0.48529434 -0.12521078
-22.04185295 2.82090068 -0.31477532 -0.67003679 0.69526750 -0.18684869
-21.82758713 2.17168427 0.55894220 -0.66352350 0.53525513 0.33178464
-21.76449776 2.97320986 0.41104794 -0.66160566 0.73280716 0.24399552
-21.83466721 1.84850180 1.29239440 -0.66373873 0.45560032 0.76715732
-21.84198570 2.67136502 1.17289138 -0.66396117 0.65841144 0.69622105
-22.01674080 1.84061003 -0.21130919 -0.66927344 0.45365524 -0.12543184
-22.03928947 2.67992067 -0.31461608 -0.66995889 0.66052020 -0.18675417
-28.63893509 1.61191285 0.91205329 -0.87057745 0.39728823 0.54138923
-21.81691360 2.03229284 0.55818015 -0.66319901 0.50089931 0.33133230
-21.77085495 2.83484149 0.41074815 -0.66179889 0.69870353 0.24381757
-21.86176872 1.71250701 1.29343665 -0.66456252 0.42208168 0.76777601
-21.83454323 2.53129506 1.17146397 -0.66373491 0.62388843 0.69537377
-22.01191711 1.70102119 -0.21125600 -0.66912681 0.41925076 -0.12540026
-21.83518410 2.51577854 -0.31284860 -0.66375440 0.62006408 -0.18570499
-32.22151566 1.61306846 1.04301190 -0.97948217 0.39757305 0.61912543
-21.82327843 1.89466071 0.55798966 -0.66339248 0.46697712 0.33121923
-21.77236366 2.69601583 0.41034845 -0.66184479 0.66448712 0.24358030
-21.87010574 1.57497108 1.29330635 -0.66481596 0.38818321 0.76769865
-21.85597038 2.39471316 1.17182088 -0.66438627 0.59022504 0.69558567
-21.78694344 2.37155080 -0.31233907 -0.66228795 0.58451623 -0.18540254
-21.80884743 1.75544357 0.55716407 -0.66295379 0.43266425 0.33072916
-21.82461357 2.56339502 0.41124779 -0.66343307 0.63180012 0.24411415
-21.84874153 2.25506687 1.17051244 -0.66416651 0.55580646 0.69480896
-21.79146767 2.23358464 -0.31225944 -0.66242552 0.55051172 -0.18535528
-21.81147194 1.61779678 0.55691004 -0.66303360 0.39873844 0.33057836
-21.78862762 2.42042994 0.40994874 -0.66233915 0.59656346 0.24334304
-21.85651779 2.11716056 1.17015564 -0.66440290 0.52181667 0.69459718
-28.39293671 1.69533885 -0.23242338 -0.86309952 0.41785026 -0.13796508
-21.78383827 2.12910295 -0.31211615 -0.66219360 0.52476013 -0.18527022
-21.78190041 2.31580782 0.40949908 -0.66213465 0.57077724 0.24307613
-21.86028862 2.01358604 1.16979885 -0.66451752 0.49628866 0.69438535
-32.71901703 1.74431586 -0.24679433 -0.99460542 0.42992160 -0.14649560
-21.83462334 1.99568355 -0.31241867 -0.66373736 0.49187621 -0.18544979
-25.37728882 1.59861088 0.66988605 -0.77142870 0.39400971 0.39764023
-21.81193542 2.18050909 0.40989879 -0.66304767 0.53743017 0.24331339
-22.02168465 1.88913023 1.17871952 -0.66942370 0.46561402 0.69968063
-22.00613785 1.87216341 -0.31369254 -0.66895115 0.46143219 -0.18620595
-28.57824135 1.61748409 0.77143115 -0.86873251 0.39866138 0.45791677
-21.79335785 2.04040694 0.40909937 -0.66248298 0.50289917 0.24283886
-21.87192535 1.73777008 1.16908514 -0.66487128 0.42830828 0.69396174
-22.01746750 1.73385870 -0.31369254 -0.66929555 0.42734423 -0.18620595
-32.10174561 1.61212802 0.88320053 -0.97584134 0.39734128 0.52426237
-21.78184700 1.90132737 0.40849981 -0.66213304 0.46862024 0.24248296
-21.91028595 1.60237575 1.17075038 -0.66603738 0.39493763 0.69495022
-21.80332756 1.76524734 0.40874961 -0.66278601 0.43508059 0.24263124
-21.80202675 1.62731493 0.40844983 -0.66274649 0.40108439 0.24245329
-25.93203163 1.57288921 1.40970802 -0.78829199 0.38767007 0.83679396
-27.95459557 1.60713124 0.56183785 -0.84977466 0.39610970 0.33350348
-30.75950241 1.57658434 0.63178682 -0.93503928 0.38858080 0.37502477
