4.25527859 3.95897579 1.93347478 0.92435193 0.70267427 0.73318499
4.21108150 3.96738124 1.92449117 0.91475123 0.70416611 0.72977835
4.53320312 4.25449944 1.37737894 0.98472399 0.75512642 0.52231020
4.25596476 3.86064315 2.24591613 0.92450094 0.68522131 0.85166460
4.18686676 3.98194027 1.92192435 0.90949118 0.70675015 0.72880501
4.18896008 4.03454494 1.93475819 0.90994591 0.71608692 0.73367167
4.07726336 3.84038472 2.18833685 0.88568258 0.68162566 0.82983017
4.16344929 4.11224556 1.94695032 0.90440428 0.72987795 0.73829502
4.08120108 3.89297104 2.20383906 0.88653797 0.69095916 0.83570874
4.14420271 4.14504480 1.95015872 0.90022349 0.73569942 0.73951161
4.09155321 4.14394999 1.93732500 0.88878667 0.73550510 0.73464501
4.04426432 4.13464975 1.92384946 0.87851441 0.73385441 0.72953498
4.25319099 4.20146704 2.33819032 0.92389846 0.74571377 0.88665551
4.20313501 4.20436478 2.32490277 0.91302502 0.74622804 0.88161677
4.38524818 3.95031261 2.26499820 0.95258451 0.70113665 0.85890061
4.24053001 4.23348141 1.66731524 0.92114818 0.75139594 0.63225573
4.12067747 4.17361927 2.29316044 0.89511323 0.74077106 0.86957991
4.19631910 4.24220085 1.66021037 0.91154444 0.75294358 0.62956154
4.09437275 4.19942760 2.29316044 0.88939917 0.74535179 0.86957991
4.22450733 4.32509661 1.68261778 0.91766763 0.76765662 0.63805854
4.07946730 4.23716164 2.29980421 0.88616133 0.75204915 0.87209928
4.20390368 4.35850000 1.68535042 0.91319203 0.77358538 0.63909477
4.15974092 4.08388472 1.89893484 0.90359879 0.72484422 0.72008723
4.15550613 4.34895754 1.67387342 0.90267885 0.77189165 0.63474262
4.22498083 4.64629984 2.09197211 0.91777050 0.82466662 0.79328811
4.17156696 4.13406610 1.91342163 0.90616769 0.73375082 0.72558069
4.11008406 4.36457014 2.34483409 0.89281207 0.77466273 0.88917488
4.11099625 4.35673237 1.66676867 0.89301020 0.77327162 0.63204849
4.17552805 4.65013742 2.08170509 0.90702814 0.82534778 0.78939480
4.13475370 4.14947510 1.90838277 0.89817089 0.73648578 0.72366995
4.07879639 4.38621187 2.34261942 0.88601559 0.77850389 0.88833505
4.10052872 4.40083265 1.67387342 0.89073640 0.78109890 0.63474262
4.13245535 4.66064501 2.07464647 0.89767164 0.82721275 0.78671813
4.09924746 4.16593409 1.90397370 0.89045811 0.73940706 0.72199798
4.06994486 4.43235350 2.35369253 0.88409281 0.78669351 0.89253402
4.08317947 4.43787098 1.67824566 0.88696772 0.78767282 0.63640058
4.16027451 4.75226498 2.10416436 0.90371466 0.84347427 0.79791147
4.01723337 4.13462353 1.87751961 0.87264258 0.73384976 0.71196645
4.07062531 4.48960638 2.37067103 0.88424063 0.79685527 0.89897239
4.14796686 4.11982822 2.24320436 0.90104115 0.73122376 0.85063624
4.08872652 4.50057459 1.69245529 0.88817269 0.79880202 0.64178896
4.32863998 4.30515766 1.65084076 0.94028783 0.76411766 0.62600851
4.10071421 4.74382114 2.08876371 0.89077669 0.84197557 0.79207146
4.05468798 4.52898407 2.37805295 0.88077867 0.80384439 0.90177166
4.11145210 4.13527489 2.23739266 0.89310926 0.73396540 0.84843242
4.27697277 4.30772686 1.64125943 0.92906439 0.76457369 0.62237519
4.07572746 4.77527189 2.09133053 0.88534898 0.84755772 0.79304481
4.09473276 4.61778212 2.41496253 0.88947737 0.81960505 0.91576797
4.09716845 4.15989542 2.24029851 0.89000648 0.73833525 0.84953433
4.12429285 4.64189959 1.72907233 0.89589858 0.82388562 0.65567440
4.24170494 4.31276417 1.63540423 0.92140335 0.76546776 0.62015486
4.05927038 4.80167818 2.09453893 0.88177407 0.85224456 0.79426146
4.07051706 4.64902878 2.41791534 0.88421714 0.82515097 0.91688770
4.12571239 4.24146891 2.27080989 0.89620692 0.75281364 0.86110443
4.05586100 4.62276030 1.71213007 0.88103348 0.82048863 0.64924979
4.24013186 4.36552048 1.64551783 0.92106164 0.77483141 0.62399000
4.22533274 3.99715972 1.84883010 0.91784692 0.70945144 0.70108724
4.23983288 4.90577602 2.53897929 0.92099673 0.87072074 0.96279585
4.23500443 4.40794659 2.34708810 0.91994786 0.78236157 0.89002961
4.24327898 4.63370609 2.04947138 0.92174530 0.82243139 0.77717155
4.31471348 5.05707884 2.60394025 0.93726265 0.89757532 0.98742944
4.21108627 4.43851089 2.34926748 0.91475224 0.78778642 0.89085603
4.20897007 4.65466070 2.04695201 0.91429257 0.82615060 0.77621621
4.20471287 4.07919073 1.86238909 0.91336781 0.72401106 0.70622885
4.19694328 4.98147106 2.55079031 0.91168004 0.88415581 0.96727467
4.18567228 4.46759367 2.35072041 0.90923172 0.79294825 0.89140695
4.17312670 3.90475321 2.13888693 0.90650648 0.69305032 0.81107849
4.18217897 4.68383789 2.04821181 0.90847284 0.83132923 0.77669394
4.16547346 4.09214783 1.85622597 0.90484399 0.72631079 0.70389181
4.27939606 5.30729866 1.51378906 0.92959082 0.94198656 0.57403767
4.16966152 4.49271488 2.35362625 0.90575373 0.79740703 0.89250892
4.14926243 3.91922164 2.13604164 0.90132254 0.69561833 0.80999953
4.30158615 3.82214737 2.44302416 0.93441105 0.67838871 0.92640913
4.15753603 4.70065832 2.04695201 0.90311980 0.83431464 0.77621621
4.15018272 4.11576509 1.85807490 0.90152246 0.73050261 0.70459294
4.26161337 5.33657169 1.51644635 0.92572796 0.94718224 0.57504535
4.14261436 4.52019405 2.35435271 0.89987844 0.80228424 0.89278436
4.13801765 3.95818329 2.14315486 0.89887995 0.70253360 0.81269693
4.13777971 3.72427511 2.36229610 0.89882827 0.66101748 0.89579654
4.18493366 5.33201170 2.26073670 0.90907127 0.94637287 0.85728461
4.14671803 4.74807310 2.05639982 0.90076989 0.84273022 0.77979887
4.10684872 4.12417221 1.85006273 0.89210927 0.73199475 0.70155466
4.21356440 5.34482002 1.51113176 0.91529053 0.94864619 0.57303005
4.10283709 4.53373623 2.34781456 0.89123785 0.80468786 0.89030504
4.11841774 3.98932600 2.14600015 0.89462233 0.70806104 0.81377584
4.10204029 3.73910880 2.35517311 0.89106476 0.66365027 0.89309549
4.17561817 5.38971996 2.27421212 0.90704769 0.95661545 0.86239457
4.11431503 4.77116680 2.05514026 0.89373112 0.84682912 0.77932125
4.12206364 4.19209433 1.86916864 0.89541429 0.74405020 0.70879972
4.17154646 5.36038971 1.50803149 0.90616322 0.95140964 0.57185441
4.08174753 4.56773758 2.35217333 0.88665664 0.81072271 0.89195794
4.12784529 4.04927969 2.16449404 0.89667022 0.71870220 0.82078886
4.09065342 3.77597666 2.36229610 0.88859123 0.67019391 0.89579654
4.09413767 4.80845404 2.06017900 0.88934809 0.85344720 0.78123200
4.08507681 4.20695448 1.86423814 0.88737988 0.74668771 0.70693004
4.14961910 5.40199661 1.51246035 0.90140003 0.95879441 0.57353383
4.07400465 4.61697674 2.36452317 0.88497472 0.81946212 0.89664108
4.13403749 4.10686350 2.18156528 0.89801532 0.72892267 0.82726234
4.13551235 3.86532187 2.40266013 0.89833570 0.68605173 0.91110283
4.06874943 4.83987951 2.06269860 0.88383317 0.85902488 0.78218740
4.29546261 4.28226662 1.59064209 0.93308085 0.76005477 0.60318083
4.13085365 5.44821167 1.51821792 0.89732373 0.96699709 0.57571715
4.06088877 4.66069508 2.37396717 0.88212562 0.82722163 0.90022230
4.10289907 4.12743616 2.17872000 0.89125133 0.73257411 0.82618344
4.18877649 3.96418214 2.44856429 0.90990603 0.70359832 0.92850995
4.11260128 5.24536943 1.85859835 0.89335889 0.93099481 0.70479143
4.06138325 4.89302683 2.07466578 0.88223302 0.86845791 0.78672546
4.10817957 5.48970890 1.52264690 0.89239836 0.97436237 0.57739663
4.05354595 4.69665956 2.38268471 0.88053060 0.83360493 0.90352803
4.08993816 4.15340710 2.18227649 0.88843590 0.73718363 0.82753205
4.17671204 3.99019766 2.45252156 0.90728533 0.70821577 0.93001056
4.26295042 4.34445524 1.59633660 0.92601842 0.77109259 0.60534024
4.60352659 4.22633028 1.58210599 1.00000000 0.75012672 0.59994388
4.09498596 5.52628183 1.52751863 0.88953239 0.98085368 0.57924402
4.05550098 4.75880766 2.40157270 0.88095528 0.84463555 0.91069049
4.31825829 4.44257212 2.32169247 0.93803269 0.78850722 0.88039941
4.19135952 4.32522297 1.57925308 0.91046709 0.76767904 0.59886205
4.53278828 4.21444464 1.56657743 0.98463386 0.74801713 0.59405535
4.21701097 5.01027822 2.51707959 0.91603923 0.88926876 0.95449138
4.32121944 4.50208330 2.33876371 0.93867588 0.79906982 0.88687295
4.19566345 4.58894634 1.97887397 0.91140205 0.81448704 0.75040060
4.22609043 5.08527660 2.54177928 0.91801155 0.90258014 0.96385765
4.28515816 4.52097988 2.33449602 0.93084252 0.80242372 0.88525462
4.17055893 4.61946678 1.98072290 0.90594870 0.81990409 0.75110173
4.19998741 5.11891413 2.54541159 0.91234130 0.90855044 0.96523499
4.26303196 4.55465937 2.33805251 0.92603612 0.80840147 0.88660324
4.18570471 5.35828161 2.22079349 0.90923876 0.95103550 0.84213793
4.41761398 4.26562357 1.55405450 0.95961517 0.75710082 0.58930659
4.15532827 4.66124821 1.98750246 0.90264022 0.82731980 0.75367260
4.20894814 5.19575453 2.57083774 0.91428781 0.92218876 0.97487676
4.23433018 4.58135462 2.33805251 0.91980141 0.81313956 0.88660324
4.16631460 4.05377913 2.12294126 0.90502673 0.71950078 0.80503178
4.33036709 3.84243679 2.38429713 0.94066298 0.68198985 0.90413946
4.27297211 5.54044914 2.28629899 0.92819536 0.98336822 0.86697799
4.39072514 4.29329586 1.55405450 0.95377427 0.76201236 0.58930659
4.12094879 4.68153572 1.98503721 0.89517212 0.83092064 0.75273776
4.25771427 5.50387812 1.50554061 0.92488098 0.97687727 0.57090986
4.20197487 5.23727894 2.58173466 0.91277301 0.92955887 0.97900891
4.20892096 4.59710932 2.33591866 0.91428190 0.81593585 0.88579410
4.15119219 4.07729435 2.12503004 0.90174174 0.72367448 0.80582386
4.35057402 3.89740801 2.40589976 0.94505244 0.69174665 0.91233134
4.23062468 5.53945065 2.27748084 0.91899645 0.98319095 0.86363411
4.35385466 4.29767132 1.54804337 0.94576508 0.76278895 0.58702713
4.11628199 4.72103739 1.99366570 0.89415842 0.83793169 0.75600976
4.13003254 4.27401972 1.83225453 0.89714539 0.75859106 0.69480169
4.24007511 5.53470802 1.50856555 0.92104936 0.98234922 0.57205689
4.21892452 5.32623720 2.61297226 0.91645491 0.94534796 0.99085444
4.17995358 4.62346363 2.33591866 0.90798944 0.82061344 0.88579410
4.13482952 4.11251926 2.12990379 0.89818740 0.72992653 0.80767202
4.15299082 3.76660585 2.30791664 0.90213245 0.66853070 0.87517554
4.32126999 4.31948519 1.54603970 0.93868685 0.76666063 0.58626735
4.09148455 4.75259113 1.99613094 0.88877177 0.84353215 0.75694460
4.20521593 5.56123972 1.50856555 0.91347706 0.98705828 0.57205689
4.14709997 4.64544010 2.33378458 0.90085286 0.82451403 0.88498479
4.13144398 4.16095734 2.14174008 0.89745194 0.73852372 0.81216043
4.13195181 3.79513144 2.30945969 0.89756227 0.67359370 0.87576067
4.30087185 4.35341549 1.54854429 0.93425590 0.77268291 0.58721709
4.10921001 4.66156149 2.32880545 0.89262217 0.82737541 0.88309669
4.11312199 4.19483900 2.14591765 0.89347196 0.74453735 0.81374454
4.10129213 3.81471038 2.30560207 0.89090222 0.67706871 0.87429786
4.26393652 4.37068224 1.54503787 0.92623264 0.77574754 0.58588743
4.07652140 4.85770082 2.01893497 0.88552141 0.86218798 0.76559198
4.07983971 4.68728828 2.32880545 0.88624221 0.83194160 0.88309669
4.44007730 4.58305359 2.33390737 0.96449476 0.81344110 0.88503140
4.20173073 3.95851636 2.37735343 0.91271996 0.70259267 0.90150636
4.41972017 4.58641958 1.61316311 0.96007270 0.81403857 0.61172092
4.05317450 4.89203215 2.02263284 0.88044989 0.86828136 0.76699424
4.37839556 4.18935776 1.80491722 0.95109594 0.74356449 0.68443519
4.04181242 4.70287895 2.32382631 0.87798178 0.83470881 0.88120860
4.42029667 4.62031507 2.33878112 0.96019793 0.82005465 0.88687950
4.18076754 3.98867369 2.37966800 0.90816629 0.70794529 0.90238410
3.94623828 4.60608387 1.59064209 0.85722071 0.81752872 0.60318083
4.31636906 4.18204165 1.78980935 0.93762225 0.74226594 0.67870623
4.01477766 4.71616364 2.32098126 0.87210917 0.83706665 0.88012969
4.41659117 4.66008806 2.34852862 0.95939302 0.82711387 0.89057583
4.32249212 4.00718212 2.08746147 0.93895233 0.71123034 0.79157764
4.09304905 3.94152784 2.33954906 0.88911164 0.69957745 0.88717073
4.28570509 4.19159365 1.78516066 0.93096131 0.74396133 0.67694342
3.99225426 4.74990559 2.32524896 0.86721653 0.84305549 0.88174808
4.34351778 4.64134169 2.32485604 0.94351965 0.82378662 0.88159907
4.23760223 4.19681787 1.77586353 0.92051214 0.74488854 0.67341787
3.99086595 4.80951262 2.34232020 0.86691493 0.85363507 0.88822156
4.26574898 4.61637163 2.29839826 0.92662632 0.81935471 0.87156612
4.17121267 3.96489453 2.03730583 0.90609074 0.70372474 0.77255833
4.34561491 3.86560559 2.33574200 0.94397521 0.68610209 0.88572711
4.21788216 4.23015928 1.77876890 0.91622847 0.75080627 0.67451960
4.05495787 4.95047760 2.39922476 0.88083726 0.87865478 0.90980011
4.21763611 4.62236929 2.28795433 0.91617501 0.82041925 0.86760575
4.14621830 3.99102449 2.03730583 0.90066129 0.70836252 0.77255833
4.26648378 5.47717857 2.21369243 0.92678595 0.97213840 0.83944517
4.18319225 4.24836826 1.77528238 0.90869296 0.75403821 0.67319751
4.08933449 5.05746078 2.43905783 0.88830471 0.89764315 0.92490506
4.18850994 4.64877796 2.28795433 0.90984809 0.82510644 0.86760575
4.12911701 4.02490616 2.04137254 0.89694649 0.71437615 0.77410042
4.20062351 3.83287334 2.28287387 0.91247946 0.68029249 0.86567920
4.23198557 5.50387716 2.21369243 0.91929209 0.97687709 0.83944517
4.16306353 4.28145075 1.77818775 0.90432054 0.75990999 0.67429924
4.20977449 5.25804949 2.52725959 0.91446728 0.93324542 0.95835167
4.16780949 4.66985893 2.28865051 0.90535146 0.82884812 0.86786973
4.12480640 4.05888844 2.04882812 0.89601010 0.72040761 0.77692765
4.13605070 3.81013227 2.25719523 0.89845264 0.67625618 0.85594171
4.16122198 5.46459007 2.18965602 0.90392047 0.96990407 0.83033043
4.14945602 4.30793571 1.78109312 0.90136462 0.76461077 0.67540097
4.14547873 5.24470711 2.50805449 0.90050066 0.93087727 0.95106900
4.13589716 4.69314861 2.28725791 0.89841932 0.83298177 0.86734164
4.10320711 4.08872366 2.05086136 0.89131820 0.72570306 0.77769870
4.12697554 3.84988642 2.26550293 0.89648134 0.68331212 0.85909200
4.29446840 4.51615810 1.85721397 0.93286490 0.80156791 0.70426643
4.19147539 5.37257767 2.55713463 0.91049230 0.95357287 0.96968049
4.10119247 4.13856506 2.06306148 0.89088058 0.73454934 0.78232503
4.30203915 3.91295958 1.99669635 0.93450946 0.69450688 0.75715899
4.23102903 3.99609399 2.33725262 0.91908431 0.70926231 0.88629991
4.11216354 4.78587532 2.30744958 0.89326376 0.84943974 0.87499845
4.00036144 4.08733416 2.02442813 0.86897761 0.72545642 0.76767504
4.25089836 3.91570163 1.98416042 0.92340040 0.69499356 0.75240529
4.08931732 4.82017279 2.31162715 0.88830101 0.85552716 0.87658256
4.60257483 4.76677275 2.35111737 0.99979323 0.84604925 0.89155751
4.28438711 3.99621940 2.01187134 0.93067503 0.70928454 0.76291341
4.15111542 4.02070332 2.32063675 0.90172511 0.71363020 0.87999910
4.26346064 4.19436836 1.71780956 0.92612922 0.74445379 0.65140349
4.04928255 4.83430433 2.30605698 0.87960446 0.85803533 0.87447035
4.19309568 3.96105933 1.98020172 0.91084427 0.70304406 0.75090414
4.27041817 4.72373533 1.89847028 0.92764062 0.83841056 0.71991110
4.22883701 4.21297407 1.71443474 0.91860813 0.74775612 0.65012372
4.01564026 4.84038019 2.29979062 0.87229651 0.85911375 0.87209409
4.17575407 3.98207283 1.98086143 0.90707719 0.70677370 0.75115430
4.26776361 4.22450161 2.41277838 0.92706394 0.74980211 0.91493970
4.24811077 4.74380684 1.89847028 0.92279488 0.84197307 0.71991110
4.21980047 4.24370575 1.71893454 0.91664517 0.75321066 0.65183008
4.00661707 4.89155483 2.31232333 0.87033647 0.86819667 0.87684661
4.32381058 4.63445139 2.24741721 0.93923873 0.82256365 0.85223383
4.14111280 3.99908400 1.97624302 0.89955229 0.70979303 0.74940294
4.18339157 4.19374228 2.37954688 0.90873629 0.74434268 0.90233815
4.14981365 5.34368896 2.09063840 0.90144229 0.94844544 0.79278237
4.22832537 4.78190613 1.90311885 0.91849703 0.84873521 0.72167385
4.19845057 4.27559519 1.72118449 0.91200745 0.75887066 0.65268326
4.09771299 5.06640244 2.38403773 0.89012474 0.89923018 0.90404111
4.28825378 4.65458727 2.24402833 0.93151492 0.82613754 0.85094869
4.13609266 4.19890690 2.36746287 0.89846176 0.74525934 0.89775580
4.27335215 5.31087494 1.72887588 0.92827791 0.94262135 0.65559989
4.13480186 5.39383030 2.10023046 0.89818138 0.95734501 0.79641974
4.21575356 4.82861710 1.91125393 0.91576612 0.85702592 0.72475868
4.22379351 4.35544920 1.74312079 0.91751260 0.77304387 0.66100162
4.07754374 5.10666370 2.39100051 0.88574350 0.90637612 0.90668142
4.22359467 4.64235353 2.22505045 0.91746938 0.82396621 0.84375221
4.10399532 4.06404305 1.98284078 0.89148945 0.72132254 0.75190485
4.13165855 4.24730253 2.38030219 0.89749855 0.75384903 0.90262455
4.23627234 5.33308268 1.72737312 0.92022330 0.94656295 0.65503001
4.18782091 4.85791683 1.91241610 0.90969843 0.86222631 0.72519940
4.18306589 4.65616465 2.21895051 0.90866554 0.82641751 0.84143907
4.09577179 4.10706758 1.99141800 0.88970309 0.72895890 0.75515741
4.11132812 4.27983427 2.38407850 0.89308232 0.75962305 0.90405655
4.16190290 5.30791092 1.71034181 0.90406841 0.94209522 0.64857167
4.03154659 5.18111753 2.40214062 0.87575179 0.91959083 0.91090584
4.13879871 4.66541576 2.21081710 0.89904958 0.82805949 0.83835483
4.01138830 4.07373524 1.96238744 0.87137288 0.72304279 0.74414885
4.10993862 4.33236551 2.39918375 0.89278048 0.76894677 0.90978456
4.11538315 5.31715250 1.70483160 0.89396316 0.94373554 0.64648217
4.34374380 5.63415527 2.60614395 0.94356877 1.00000000 0.98826510
4.11305523 4.68061495 2.20878386 0.89345747 0.83075720 0.83758384
4.13275242 4.39742184 2.42486238 0.89773619 0.78049356 0.91952205
4.08555126 5.33035374 1.70282793 0.88748294 0.94607860 0.64572233
4.07987928 4.70208979 2.20675039 0.88625085 0.83456874 0.83681273
4.15940714 4.48148775 2.45733857 0.90352625 0.79541433 0.93183720
4.07778263 5.38981199 1.71384823 0.88579541 0.95663178 0.64990133
4.08074331 4.76345491 2.22369504 0.88643855 0.84546036 0.84323823
4.06128454 5.43854570 1.72136199 0.88221163 0.96528149 0.65275055
4.35590601 4.69243813 2.20188951 0.94621068 0.83285564 0.83496946
4.00805569 4.55731869 1.74368334 0.87064898 0.80887347 0.66121495
4.05756187 4.90594101 2.25758386 0.88140297 0.87075007 0.85608906
4.30168581 4.67826986 2.18539500 0.93443269 0.83034098 0.82871461
4.29055262 5.25458145 1.65367377 0.93201429 0.93262988 0.62708282
4.07889271 5.20990658 1.97400999 0.88603652 0.92470056 0.74855620
4.19914579 4.81856680 1.83817863 0.91215849 0.85524207 0.69704813
4.03021336 4.93572235 2.25961709 0.87546217 0.87603593 0.85686004
4.23272371 4.66199970 2.16494155 0.91945243 0.82745320 0.82095855
4.24531746 5.26628923 1.64884388 0.92218810 0.93470788 0.62525129
4.22155809 4.90579128 1.86180246 0.91702700 0.87072349 0.70600641
4.07322454 5.05347538 2.30231714 0.88480526 0.89693576 0.87305218
4.18690491 4.67027998 2.15636444 0.90949947 0.82892287 0.81770605
4.18686152 5.26089239 1.63870096 0.90949005 0.93374997 0.62140501
4.15572643 4.89137506 1.84605324 0.90272671 0.86816478 0.70003420
4.07056713 5.11587000 2.31926179 0.88422799 0.90801013 0.87947768
4.15119791 4.68944645 2.15306544 0.90174299 0.83232468 0.81645507
4.25264120 4.98833513 2.63708997 0.92377901 0.88537407 1.00000000
4.13461399 5.26261902 1.63097310 0.89814055 0.93405646 0.61847460
4.15091181 4.94818640 1.85786510 0.90168089 0.87824816 0.70451337
4.04065847 5.14431143 2.32061720 0.87773108 0.91305816 0.87999165
4.13162899 4.72677660 2.15834379 0.89749217 0.83895034 0.81845665
4.15538168 4.93723583 2.59555078 0.90265185 0.87630457 0.98424810
4.07303286 5.25159979 1.61938119 0.88476360 0.93210065 0.61407888
4.10130644 4.95205545 1.84942806 0.89090532 0.87893486 0.70131397
4.04155827 5.21282578 2.34027290 0.87792659 0.92521870 0.88744521
4.09937191 4.74979210 2.15702415 0.89048511 0.84303534 0.81795621
4.18130541 5.03143597 2.63180304 0.90828311 0.89302403 0.99799514
4.06580734 5.31106997 1.63000703 0.88319409 0.94265592 0.61810821
4.07498932 4.98365450 1.85167789 0.88518864 0.88454336 0.70216715
4.19270992 5.46219826 2.44465065 0.91076046 0.96947956 0.92702585
4.05752230 5.01024055 1.85449028 0.88139433 0.88926208 0.70323360
4.05423307 4.80321217 2.16098285 0.88067985 0.85251683 0.81945741
4.07770061 5.09993315 1.87867653 0.88577759 0.90518153 0.71240515
4.05673599 4.86764574 2.17879725 0.88122356 0.86395305 0.82621270
4.06069851 5.49944496 1.66671467 0.88208431 0.97609043 0.63202798
4.10049152 5.19458246 1.90455031 0.89072829 0.92198068 0.72221667
4.03931904 4.90903378 2.18605471 0.87744015 0.87129897 0.82896477
4.06895685 5.22175455 1.90511274 0.88387823 0.92680347 0.72242993
4.02632189 4.95624113 2.19595146 0.87461686 0.87967777 0.83271772
4.25198221 5.30379248 1.58325815 0.92363584 0.94136429 0.60038078
4.09128428 5.31854916 1.93154895 0.88872826 0.94398344 0.73245472
4.06981516 5.07399464 2.23751807 0.88406467 0.90057772 0.84847999
4.18342590 5.28626394 1.56983042 0.90874374 0.93825316 0.59528893
4.08240795 5.13883162 2.25797129 0.88680011 0.91208553 0.85623598
4.15726376 5.30439138 1.56936741 0.90306067 0.94147056 0.59511334
4.12957907 5.26516008 2.30283689 0.89704686 0.93450743 0.87324929
4.11787748 5.32273102 1.56705225 0.89450496 0.94472563 0.59423542
4.21129179 5.43845129 2.36815548 0.91479689 0.96526474 0.89801848
4.07842493 5.34078503 1.56473708 0.88593489 0.94793004 0.59335750
4.08123779 5.41436100 1.57909095 0.88654596 0.96098894 0.59880054
4.09727812 5.50687122 1.59900117 0.89003026 0.97740847 0.60635066
4.07415867 5.54815483 1.60363138 0.88500816 0.98473591 0.60810643
