-6.99569130 -17.18172264 1.48580861 -0.90439719 -0.89456791 0.57725865
-6.59600830 -17.36040306 1.48755300 -0.85272652 -0.90387094 0.57793635
-7.10763645 -17.10701180 1.38894784 -0.91886938 -0.89067811 0.53962678
-7.11329269 -17.42802620 1.41359735 -0.91960061 -0.90739173 0.54920352
-6.26627922 -17.47789001 1.48720407 -0.81009936 -0.90998793 0.57780081
-6.93969870 -17.31333351 1.39946496 -0.89715850 -0.90142024 0.54371285
-6.14975405 -17.49811363 1.48545980 -0.79503512 -0.91104084 0.57712311
-6.00023937 -17.42145348 1.47481930 -0.77570599 -0.90704954 0.57298911
-6.02101469 -17.60849190 0.20358783 -0.77839178 -0.91678768 0.07909688
-5.96336269 -17.58354950 1.48720407 -0.77093858 -0.91548908 0.57780081
-6.58615875 -17.29100800 1.38714015 -0.85145313 -0.90025789 0.53892446
-5.96849775 -17.72766876 0.20534900 -0.77160245 -0.92299265 0.07978112
-5.87091827 -17.67552567 1.49226272 -0.75898749 -0.92027783 0.57976615
-5.85449791 -17.75722122 0.20520222 -0.75686467 -0.92453128 0.07972410
-6.00537586 -17.62832260 0.85428846 -0.77637005 -0.91782016 0.33190370
-5.75974417 -17.71206474 1.49226272 -0.74461496 -0.92218024 0.57976615
-5.74709606 -17.80698013 0.20545906 -0.74297982 -0.92712200 0.07982389
-5.91023731 -17.60839653 2.12801647 -0.76407057 -0.91678274 0.82676589
-5.89701653 -17.67328835 0.85471416 -0.76236141 -0.92016131 0.33206910
-6.26719618 -17.43457603 1.38911211 -0.81021792 -0.90773273 0.53969061
-5.63209820 -17.83320236 0.20527561 -0.72811300 -0.92848724 0.07975261
-5.79701328 -17.63763809 2.12704730 -0.74943310 -0.91830522 0.82638937
-5.79203749 -17.72898102 0.85577834 -0.74878979 -0.92306095 0.33248255
-5.52464342 -17.88352585 0.20556913 -0.71422136 -0.93110734 0.07986665
-7.49612570 -17.27989960 -0.09462076 -0.96909291 -0.89967948 -0.03676157
-5.67638397 -17.64346504 2.12317061 -0.73383820 -0.91860861 0.82488322
-6.05675602 -17.53832054 1.39141273 -0.78301239 -0.91313422 0.54058444
-5.41389799 -17.92362976 0.20567921 -0.69990426 -0.93319535 0.07990941
-6.04183483 -17.65642357 0.09965194 -0.78108341 -0.91928327 0.03871625
-5.60034275 -17.69273758 2.12607813 -0.72400767 -0.92117393 0.82601285
-5.32491493 -17.78938484 1.48737848 -0.68840063 -0.92620593 0.57786858
-5.98498678 -17.59873581 1.39420640 -0.77373415 -0.91627973 0.54166985
-6.61846781 -17.38150978 1.29098451 -0.85563004 -0.90496987 0.50156659
-5.33164358 -17.95661354 0.20582597 -0.68927050 -0.93491268 0.07996643
-5.98675060 -17.76805496 0.10077184 -0.77396214 -0.92509538 0.03915135
-7.32900524 -17.41655540 -0.09448308 -0.94748771 -0.90679449 -0.03670808
-5.70263672 -18.42001152 2.21451640 -0.73723215 -0.95903951 0.86037242
-5.48602390 -17.83022881 0.85599118 -0.70922863 -0.92833245 0.33256525
-5.22139502 -17.85118294 1.48999500 -0.67501765 -0.92942345 0.57888514
-5.22148943 -17.99936485 0.20600943 -0.67502981 -0.93713856 0.08003771
-5.86996365 -17.79013252 0.10056822 -0.75886405 -0.92624485 0.03907224
-7.22555876 -17.47704124 -0.09444636 -0.93411428 -0.90994370 -0.03669381
-5.39362240 -17.81493568 2.13286233 -0.69728303 -0.92753619 0.82864857
-5.99897766 -17.59541321 2.02517915 -0.77554286 -0.91610676 0.78681207
-6.04055786 -17.65003014 0.75128144 -0.78091830 -0.91895038 0.29188395
-5.10476875 -17.86830711 1.48859954 -0.65994030 -0.93031502 0.57834297
-5.77514887 -17.70854568 1.39732862 -0.74660647 -0.92199701 0.54288286
-5.11263752 -18.04721260 0.20630296 -0.66095757 -0.93962973 0.08015175
-5.76423740 -17.84568596 0.10082275 -0.74519587 -0.92913723 0.03917113
-7.11635971 -17.52394676 -0.09444177 -0.91999710 -0.91238582 -0.03669203
-5.27035761 -17.81038666 2.12801647 -0.68134749 -0.92729938 0.82676589
-5.87946653 -17.60638809 2.02194166 -0.76009256 -0.91667819 0.78555429
-4.98546791 -17.87507248 1.48633194 -0.64451718 -0.93066722 0.57746196
-6.28698874 -17.49566078 1.29037154 -0.81277668 -0.91091311 0.50132847
-4.99808168 -18.07512474 0.20622957 -0.64614785 -0.94108295 0.08012324
-5.65078735 -17.87773895 0.10077184 -0.73052913 -0.93080604 0.03915135
-7.00017118 -17.55345917 -0.09447849 -0.90497637 -0.91392243 -0.03670629
-5.16603804 -17.86985779 2.13140869 -0.66786110 -0.93039572 0.82808381
-5.76501036 -17.63165665 2.02055407 -0.74529576 -0.91799378 0.78501517
-5.82516670 -17.74541473 0.75232899 -0.75307274 -0.92391658 0.29229096
-4.92620802 -18.10219383 1.50412428 -0.63685608 -0.94249231 0.58437455
-4.89012003 -18.12741470 0.20663318 -0.63219064 -0.94380546 0.08028005
-5.54368258 -17.93008041 0.10100091 -0.71668267 -0.93353122 0.03924035
-6.88901091 -17.59523392 -0.09448308 -0.89060563 -0.91609740 -0.03670808
-5.05097055 -17.89240837 2.13019705 -0.65298527 -0.93156981 0.82761306
-5.65654469 -17.67509651 2.02147913 -0.73127341 -0.92025548 0.78537458
-7.54657602 -17.27514458 -0.20052932 -0.97561508 -0.89943194 -0.07790861
-5.04319811 -17.98746872 0.85737461 -0.65198046 -0.93651915 0.33310273
-4.85919905 -18.31000519 1.52017224 -0.62819326 -0.95331204 0.59060943
-4.77815294 -18.16551971 0.20677994 -0.61771566 -0.94578940 0.08033707
-5.42394638 -17.94159508 0.10069548 -0.70120329 -0.93413073 0.03912169
-6.12206078 -17.85626602 0.03157615 -0.79145497 -0.92968810 0.01226780
-6.77832174 -17.63817024 -0.09448308 -0.87629580 -0.91833287 -0.03670808
-4.97505093 -17.94663239 2.13407397 -0.64317048 -0.93439299 0.82911932
-5.80966330 -18.44977951 2.11282206 -0.75106847 -0.96058941 0.82086265
-7.51485491 -17.42626953 -0.20094828 -0.97151423 -0.90730029 -0.07807139
-4.76836252 -18.31534195 1.51860225 -0.61644995 -0.95358992 0.58999944
-5.98376179 -17.60167503 1.29037154 -0.77357578 -0.91643280 0.50132847
-6.63817883 -17.36115646 1.17465210 -0.85817826 -0.90391016 0.45636973
-4.69249725 -18.18783379 0.20677994 -0.60664219 -0.94695121 0.08033707
-5.34677124 -17.99186707 0.10102636 -0.69122618 -0.93674815 0.03925024
-6.05888987 -17.94747162 0.03216851 -0.78328824 -0.93443668 0.01249794
-6.69015408 -17.65683174 -0.09451520 -0.86489761 -0.91930449 -0.03672056
-4.85857773 -17.96411705 2.13237786 -0.62811291 -0.93530333 0.82846034
-5.37736607 -17.46291733 1.98817945 -0.69518143 -0.90920836 0.77243716
-7.40132284 -17.46393013 -0.20091504 -0.95683688 -0.90926105 -0.07805847
-4.89257574 -18.21933746 0.86716509 -0.63250816 -0.94859141 0.33690646
-5.51769352 -17.84341240 0.75232899 -0.71332288 -0.92901886 0.29229096
-4.58392572 -18.07063293 1.49383259 -0.59260613 -0.94084913 0.58037609
-5.27850103 -17.98962593 1.40735281 -0.68240023 -0.93663150 0.54677737
-5.87367773 -17.64081764 1.29052472 -0.75934422 -0.91847074 0.50138795
-4.58346605 -18.23829842 0.20718354 -0.59254670 -0.94957864 0.08049387
-5.23473978 -18.02894783 0.10107727 -0.67674285 -0.93867880 0.03927001
-5.96665239 -18.04786873 0.03276087 -0.77136391 -0.93966389 0.01272808
-6.57768393 -17.69476891 -0.09452438 -0.85035753 -0.92127973 -0.03672412
-4.74813175 -18.00389099 2.13358927 -0.61383456 -0.93737417 0.82893103
-5.36813068 -17.82914162 2.02864790 -0.69398749 -0.92827582 0.78815973
-7.28761435 -17.50085258 -0.20088178 -0.94213676 -0.91118342 -0.07804555
-5.79646206 -17.62880135 2.57072544 -0.74936181 -0.91784513 0.99876487
-4.75080204 -18.14535713 0.86141849 -0.61417973 -0.94473964 0.33467382
-5.40721273 -17.88346291 0.75261468 -0.69904000 -0.93110406 0.29240194
-4.47742939 -18.12809944 1.49644911 -0.57883835 -0.94384110 0.58139265
-5.76703405 -17.69065094 1.29159749 -0.74555737 -0.92106533 0.50180477
-4.47162008 -18.27839470 0.20740369 -0.57808733 -0.95166624 0.08057940
-5.12464380 -18.07302284 0.10122998 -0.66250974 -0.94097352 0.03932935
-5.83042765 -18.01457596 0.03209671 -0.75375289 -0.93793052 0.01247005
-6.47187233 -17.75077438 -0.09448767 -0.83667833 -0.92419565 -0.03670986
-4.63836145 -18.04683113 2.13528538 -0.59964353 -0.93960989 0.82958996
-5.29934168 -18.00921631 2.04645395 -0.68509454 -0.93765146 0.79507762
-7.17675447 -17.54444504 -0.20087513 -0.92780489 -0.91345310 -0.07804296
-5.95252275 -17.61789513 1.95275939 -0.76953721 -0.91727728 0.75867593
-5.67108107 -17.61964607 2.56378937 -0.73315269 -0.91736841 0.99607009
-4.63718987 -18.17678452 0.86152494 -0.59949207 -0.94637591 0.33471519
-4.36436653 -18.15974808 1.49679804 -0.56422168 -0.94548887 0.58152819
-5.05310440 -18.05837250 1.40768147 -0.65326118 -0.94021076 0.54690510
-5.63281298 -17.65431976 1.28577435 -0.72820538 -0.91917372 0.49954236
-4.36221647 -18.32947922 0.20784397 -0.56394374 -0.95432597 0.08075046
-5.01366520 -18.11449814 0.10135724 -0.64816248 -0.94313294 0.03937879
-5.71712446 -18.05085373 0.03209671 -0.73910511 -0.93981928 0.01247005
-6.36223936 -17.79673576 -0.09447390 -0.82250506 -0.92658865 -0.03670451
-4.52919912 -18.09295654 2.13746595 -0.58553112 -0.94201142 0.83043718
-5.18773556 -18.04788399 2.04714751 -0.67066616 -0.93966466 0.79534709
-7.06712246 -17.59104729 -0.20088178 -0.91363174 -0.91587943 -0.07804555
-7.73519802 -17.35386086 -0.28912300 -1.00000000 -0.90353030 -0.11232857
-5.84544325 -17.66627502 1.95410061 -0.75569409 -0.91979617 0.75919700
-5.58099651 -17.72101974 2.57390451 -0.72150660 -0.92264646 1.00000000
-4.52480888 -18.21331787 0.86195058 -0.58496356 -0.94827801 0.33488056
-4.25559568 -18.21010017 1.49889123 -0.55015987 -0.94811046 0.58234143
-4.91160345 -17.98788643 1.39897192 -0.63496804 -0.93654090 0.54352129
-4.24651480 -18.35457611 0.20780729 -0.54898590 -0.95563263 0.08073620
-4.90760136 -18.17459488 0.10173903 -0.63445061 -0.94626188 0.03952712
-5.60123587 -18.07877541 0.03202491 -0.72412312 -0.94127303 0.01244215
-6.24830437 -17.83069992 -0.09448767 -0.80777562 -0.92835701 -0.03670986
-4.41683292 -18.12684441 2.13819289 -0.57100451 -0.94377577 0.83071959
-5.07746887 -18.09159660 2.04853511 -0.65641099 -0.94194061 0.79588622
-6.95206451 -17.62393761 -0.20084189 -0.89875716 -0.91759187 -0.07803005
-7.62520409 -17.40028954 -0.28910708 -0.98578006 -0.90594763 -0.11232238
-5.74348402 -17.73102379 1.95745349 -0.74251288 -0.92316735 0.76049966
-4.39953613 -18.19672775 0.85950297 -0.56876838 -0.94741422 0.33392963
-5.05339718 -17.92646027 0.74985296 -0.65329903 -0.93334275 0.29132897
-4.14021683 -18.23259163 1.49854231 -0.53524381 -0.94928151 0.58220589
-4.80312157 -18.03572083 1.40045094 -0.62094361 -0.93903142 0.54409593
-4.13459778 -18.39650726 0.20810081 -0.53451741 -0.95781577 0.08085024
-4.79228830 -18.20120430 0.10168812 -0.61954308 -0.94764733 0.03950734
-5.48695612 -18.11169815 0.03200696 -0.70934916 -0.94298720 0.01243518
-6.14070892 -17.88284302 -0.09445554 -0.79386574 -0.93107182 -0.03669738
-4.33641005 -18.16870499 2.14085817 -0.56060749 -0.94595522 0.83175510
-4.99957609 -18.14212608 2.05177259 -0.64634109 -0.94457144 0.79714400
-6.87182903 -17.66396141 -0.20086849 -0.88838434 -0.91967571 -0.07804038
-7.54789877 -17.44703674 -0.28920263 -0.97578609 -0.90838152 -0.11235950
-5.88000441 -18.45119667 2.03926373 -0.76016212 -0.96066320 0.79228413
-6.25658846 -17.37125015 1.81143069 -0.80884659 -0.90443569 0.70376766
-4.19440460 -18.88611412 1.55540788 -0.54224914 -0.98330718 0.60429901
-4.72111273 -18.06972313 1.40143692 -0.61034155 -0.94080174 0.54447901
-6.00675440 -17.58960152 1.17465210 -0.77654827 -0.91580415 0.45636973
-4.04871511 -18.41969490 0.20817420 -0.52341455 -0.95902306 0.08087876
-4.70847273 -18.23132706 0.10178993 -0.60870749 -0.94921565 0.03954690
-5.39642715 -18.12009621 0.03184540 -0.69764566 -0.94342440 0.01237241
-6.05058622 -17.89453506 -0.09449685 -0.78221476 -0.93168056 -0.03671343
-4.22663403 -18.21493530 2.14328122 -0.54641575 -0.94836223 0.83269650
-4.88548756 -18.17318153 2.05177259 -0.63159180 -0.94618833 0.79714400
-6.75501728 -17.69183540 -0.20081529 -0.87328303 -0.92112696 -0.07801972
-7.42714453 -17.46836090 -0.28897971 -0.96017510 -0.90949178 -0.11227290
-5.53108072 -17.73806190 1.95097125 -0.71505356 -0.92353380 0.75798118
-5.91242552 -17.53014183 2.46881342 -0.76435345 -0.91270840 0.95917058
-4.88422346 -18.08505630 0.75499547 -0.63142836 -0.94160008 0.29332691
-3.98877931 -18.50688934 1.51912558 -0.51566607 -0.96356285 0.59020275
-4.61242342 -18.11833954 1.40308022 -0.59629029 -0.94333297 0.54511744
-5.50583458 -17.80763626 0.66392463 -0.71178973 -0.92715615 0.25794455
-5.25277853 -17.91037369 1.29604137 -0.67907488 -0.93250519 0.50353128
-5.90564156 -17.65536499 1.17676580 -0.76347643 -0.91922814 0.45719093
-3.93870997 -18.47215462 0.20868787 -0.50919318 -0.96175438 0.08107833
-4.59872961 -18.27994156 0.10204446 -0.59451997 -0.95174676 0.03964578
-5.28358316 -18.15748787 0.03188130 -0.68305725 -0.94537121 0.01238636
-5.94244814 -17.94548416 -0.09446472 -0.76823479 -0.93433321 -0.03670094
-4.11427593 -18.25081825 2.14449263 -0.53189021 -0.95023048 0.83316714
-4.77525282 -18.21888733 2.05362248 -0.61734074 -0.94856799 0.79786271
-6.64862061 -17.74704361 -0.20086183 -0.85952818 -0.92400140 -0.07803779
-7.32419825 -17.53128433 -0.28912300 -0.94686627 -0.91276789 -0.11232857
-5.39699316 -17.69829941 1.94225371 -0.69771880 -0.92146355 0.75459433
-4.77151775 -18.11924934 0.75518590 -0.61685789 -0.94338036 0.29340091
-3.86674309 -18.50427628 1.51668346 -0.49988934 -0.96342677 0.58925396
-4.50090075 -18.15663338 1.40390193 -0.58187270 -0.94532675 0.54543668
-5.12646437 -17.89508438 1.29221034 -0.66274506 -0.93170917 0.50204283
-5.79397058 -17.69022751 1.17662489 -0.74903971 -0.92104328 0.45713618
-3.82256913 -18.49653816 0.20868787 -0.49417856 -0.96302390 0.08107833
-4.48999500 -18.33371925 0.10237534 -0.58046281 -0.95454675 0.03977433
-5.16939259 -18.19032669 0.03188130 -0.66829479 -0.94708097 0.01238636
-5.83205223 -17.99007607 -0.09444636 -0.75396287 -0.93665493 -0.03669381
-4.00332308 -18.29376793 2.14667344 -0.51754630 -0.95246667 0.83401442
-4.66118002 -18.25045586 2.05385375 -0.60259348 -0.95021158 0.79795259
-6.53285551 -17.77720070 -0.20082194 -0.84456217 -0.92557156 -0.07802229
-7.19791412 -17.53812027 -0.28878862 -0.93054038 -0.91312379 -0.11219865
-5.32132244 -17.85189247 1.95633578 -0.68793619 -0.92946035 0.76006544
-6.08886051 -17.95870781 1.86415648 -0.78716284 -0.93502170 0.72425240
-5.69901085 -17.62565804 2.47216368 -0.73676342 -0.91768146 0.96047217
-4.65907383 -18.15467644 0.75547165 -0.60232121 -0.94522482 0.29351193
-3.71580267 -18.35632515 1.50133324 -0.48037589 -0.95572370 0.58329016
-4.40879917 -18.27560043 1.41162539 -0.56996590 -0.95152074 0.54843736
-5.95655775 -17.71008873 0.54602742 -0.77005887 -0.92207736 0.21213974
-5.02676630 -17.97304535 1.29588807 -0.64985621 -0.93576819 0.50347167
-5.72853947 -17.86871719 1.18719339 -0.74058086 -0.93033636 0.46124220
-3.71525359 -18.56529808 0.20953175 -0.48030490 -0.96660388 0.08140619
-4.37750673 -18.37323761 0.10252805 -0.56592047 -0.95660424 0.03983366
-5.06245375 -18.24943542 0.03213261 -0.65446985 -0.95015848 0.01248399
-5.71890259 -18.02636337 -0.09444636 -0.73933500 -0.93854421 -0.03669381
-3.88830161 -18.31855965 2.14667344 -0.50267643 -0.95375746 0.83401442
-4.54882574 -18.28902054 2.05501008 -0.58806843 -0.95221949 0.79840183
-6.42373371 -17.82542610 -0.20084853 -0.83045501 -0.92808241 -0.07803263
-7.09282541 -17.59597778 -0.28890008 -0.91695458 -0.91613615 -0.11224195
-5.21126604 -17.89260864 1.95722985 -0.67370814 -0.93158025 0.76041275
-6.00357103 -18.07963371 1.87339926 -0.77613670 -0.94131774 0.72784334
-5.58335781 -17.64601707 2.46993017 -0.72181189 -0.91874146 0.95960444
-3.83493781 -18.22607803 0.85439491 -0.49577758 -0.94894236 0.33194506
-4.55707645 -18.23203087 0.75785244 -0.58913505 -0.94925231 0.29443690
-4.27787638 -18.23503876 1.40587389 -0.55304033 -0.94940889 0.54620284
-5.83387327 -17.71300697 0.54471052 -0.75419831 -0.92222929 0.21162809
-3.62536645 -18.72769165 0.21213682 -0.46868438 -0.97505891 0.08241829
-4.26787233 -18.42570114 0.10285893 -0.55174702 -0.95933574 0.03996222
-4.94977140 -18.28860664 0.03220441 -0.63990235 -0.95219791 0.01251189
-5.60790682 -18.06957817 -0.09442800 -0.72498554 -0.94079417 -0.03668668
-3.78028870 -18.37763786 2.15103459 -0.48871261 -0.95683336 0.83570880
-4.43898726 -18.33847237 2.05755377 -0.57386857 -0.95479417 0.79939008
-6.31160736 -17.86543465 -0.20084853 -0.81595939 -0.93016547 -0.07803263
-6.97843742 -17.63090134 -0.28882048 -0.90216660 -0.91795444 -0.11221103
-5.10307503 -17.94029617 1.95901811 -0.65972131 -0.93406314 0.76110750
-5.96203804 -18.33822632 1.89797652 -0.77076733 -0.95478141 0.73739195
-7.04126930 -17.22451210 1.59162271 -0.91028947 -0.89679575 0.61836898
-3.75962758 -18.44359207 0.86493033 -0.48604155 -0.96026725 0.33603823
-4.43294525 -18.22149086 0.75594777 -0.57308751 -0.94870353 0.29369691
-4.36620951 -19.14751625 1.48080873 -0.56445998 -0.99691713 0.57531613
-5.06252766 -17.96153641 0.66487026 -0.65447938 -0.93516898 0.25831193
-5.72000360 -17.74170685 0.54441786 -0.73947734 -0.92372352 0.21151440
-4.82452869 -18.12538910 1.30309033 -0.62371105 -0.94370002 0.50626987
-5.45892096 -17.79438591 1.17648399 -0.70572478 -0.92646629 0.45708144
-4.16216230 -18.49701691 0.10344433 -0.53808087 -0.96304882 0.04018965
-4.84645367 -18.36383438 0.03261727 -0.62654555 -0.95611465 0.01267229
-5.49542809 -18.10828400 -0.09441882 -0.71044439 -0.94280940 -0.03668311
-3.69481063 -18.40108871 2.15176153 -0.47766206 -0.95805430 0.83599120
-4.35528231 -18.37078285 2.05894136 -0.56304729 -0.95647645 0.79992920
-6.22865915 -17.89875793 -0.20086183 -0.80523592 -0.93190044 -0.07803779
-6.89163017 -17.65427971 -0.28874084 -0.89094424 -0.91917163 -0.11218009
-5.02060747 -17.97180367 1.95991218 -0.64905995 -0.93570358 0.76145488
-5.65301752 -17.67301750 1.82109368 -0.73081744 -0.92014724 0.70752186
-5.39362574 -17.72149467 2.47216368 -0.69728345 -0.92267120 0.96047217
-6.30733061 -17.49024391 1.73336101 -0.81540650 -0.91063112 0.67343640
-6.95628881 -17.24827003 1.59069705 -0.89930326 -0.89803272 0.61800933
-4.73655272 -18.13827324 1.30232418 -0.61233759 -0.94437081 0.50597221
-5.37038088 -17.80463791 1.17535675 -0.69427842 -0.92700005 0.45664349
-6.02450800 -17.60767365 1.07676625 -0.77884340 -0.91674507 0.41833964
-5.44446421 -18.24893379 -0.09414344 -0.70385581 -0.95013237 -0.03657612
-3.59041524 -18.48241806 2.15903044 -0.46416593 -0.96228874 0.83881527
-4.24425220 -18.41713905 2.06125379 -0.54869342 -0.95888996 0.80082762
-6.11864948 -17.94511414 -0.20088844 -0.79101396 -0.93431395 -0.07804813
-6.78846264 -17.71776772 -0.28891602 -0.87760681 -0.92247713 -0.11224815
-4.91123343 -18.01642036 1.96147692 -0.63492018 -0.93802655 0.76206279
-5.52874899 -17.66644096 1.81647229 -0.71475208 -0.91980481 0.70572639
-5.30484438 -17.83093643 2.48333097 -0.68580592 -0.92836928 0.96481085
-6.19863462 -17.53328133 1.73376167 -0.80135435 -0.91287184 0.67359209
-3.99226213 -18.44451523 1.41754138 -0.51611632 -0.96031535 0.55073583
-4.88184786 -18.07979393 0.66770709 -0.63112128 -0.94132608 0.25941408
-5.52755356 -17.81306839 0.54478365 -0.71459752 -0.92743897 0.21165651
-4.66117334 -18.32038879 1.31443000 -0.60259265 -0.95385265 0.51067549
-5.92703199 -17.68493080 1.07950234 -0.76624179 -0.92076749 0.41940263
-5.29879808 -18.17720985 -0.09439588 -0.68502426 -0.94639802 -0.03667419
-4.13150311 -18.45701027 2.06287241 -0.53411728 -0.96096587 0.80145645
-6.00893450 -17.99269295 -0.20092168 -0.77683008 -0.93679118 -0.07806105
-6.67488813 -17.75445747 -0.28886825 -0.86292404 -0.92438740 -0.11222959
-4.79946232 -18.05268669 1.96214747 -0.62047052 -0.93991476 0.76232332
-5.44684839 -17.79589081 1.82697535 -0.70416403 -0.92654467 0.70980698
-5.19714451 -17.87912369 2.48556447 -0.67188257 -0.93087816 0.96567857
-6.08185387 -17.55307198 1.73175824 -0.78625703 -0.91390228 0.67281371
-5.82060528 -17.60138702 2.36954355 -0.75248301 -0.91641778 0.92060274
-4.53928709 -18.32220840 1.31228459 -0.58683527 -0.95394742 0.50984198
-5.15342760 -17.89562988 1.17718852 -0.66623086 -0.93173754 0.45735517
-5.19437790 -18.24475861 -0.09431326 -0.67152488 -0.94991499 -0.03664210
-4.01799679 -18.49424934 2.06426001 -0.51944327 -0.96290475 0.80199558
-5.89700413 -18.03389740 -0.20093499 -0.76235980 -0.93893647 -0.07806621
-6.56667280 -17.80542374 -0.28894785 -0.84893405 -0.92704099 -0.11226051
-4.68991184 -18.09788322 1.96393561 -0.60630792 -0.94226789 0.76301807
-5.33893204 -17.84309769 1.82844579 -0.69021273 -0.92900246 0.71037823
-5.08470488 -17.91142464 2.48556447 -0.65734643 -0.93255991 0.96567857
-5.93510246 -17.48349190 1.72033846 -0.76728511 -0.91027957 0.66837698
-5.73423290 -17.71306038 2.38027120 -0.74131691 -0.92223209 0.92477059
-3.74260497 -18.40730095 1.41031075 -0.48384088 -0.95837778 0.54792660
-4.54179287 -18.84095573 1.35105395 -0.58715922 -0.98095602 0.52490443
-5.06040096 -17.99677658 1.18226147 -0.65420443 -0.93700379 0.45932609
-5.08447981 -18.29437256 -0.09427195 -0.65731734 -0.95249814 -0.03662605
-3.90336180 -18.52690315 2.06518483 -0.50462341 -0.96460485 0.80235487
-5.78600883 -18.07821465 -0.20096159 -0.74801046 -0.94124383 -0.07807655
-6.45466900 -17.84633255 -0.28894785 -0.83445424 -0.92917091 -0.11226051
-4.57562304 -18.12506485 1.96371210 -0.59153277 -0.94368309 0.76293123
-5.22503519 -17.87056541 1.82781565 -0.67548823 -0.93043256 0.71013343
-4.97206450 -17.94301987 2.48556447 -0.64278436 -0.93420494 0.96567857
-5.86956167 -17.65455818 1.73456299 -0.75881207 -0.91918612 0.67390341
-3.85518003 -18.19520950 0.74861497 -0.49839449 -0.94733518 0.29084799
-4.97731543 -18.35490417 -0.09420311 -0.64346319 -0.95564973 -0.03659930
-3.75372553 -18.38954353 2.04599142 -0.48527852 -0.95745319 0.79489797
-5.67647552 -18.12757683 -0.20100814 -0.73385006 -0.94381392 -0.07809464
-6.34576225 -17.89595604 -0.28902748 -0.82037491 -0.93175453 -0.11229146
-4.46637297 -18.17276192 1.96594739 -0.57740903 -0.94616646 0.76379967
-5.11758327 -17.92024803 1.82970619 -0.66159695 -0.93301928 0.71086794
-4.86441708 -17.99301720 2.48835635 -0.62886781 -0.93680805 0.96676326
-5.76097488 -17.69865990 1.73536444 -0.74477404 -0.92148232 0.67421478
-5.60882711 -18.09997559 2.42505956 -0.72510451 -0.94237685 0.94217151
-3.75613046 -18.29341888 0.75223374 -0.48558944 -0.95244849 0.29225394
-4.42736959 -18.20259094 0.66796499 -0.57236665 -0.94771951 0.25951427
-5.08034897 -17.95404243 0.54507631 -0.65678328 -0.93477881 0.21177022
-4.83437157 -18.06087112 1.18240237 -0.62498355 -0.94034088 0.45938084
-5.47080231 -17.79585266 1.07728744 -0.70726079 -0.92654264 0.41854212
-3.66780591 -18.41092491 2.04645395 -0.47417092 -0.95856643 0.79507762
-5.58864212 -18.14647675 -0.20098154 -0.72249502 -0.94479793 -0.07808430
-6.25739050 -17.91433716 -0.28893194 -0.80895025 -0.93271154 -0.11225434
-4.38253927 -18.20133781 1.96684146 -0.56657106 -0.94765425 0.76414704
-5.02984428 -17.93268013 1.82844579 -0.65025413 -0.93366659 0.71037823
-4.78008318 -18.01765442 2.48863554 -0.61796522 -0.93809080 0.96687174
-5.67871809 -17.72940254 1.73576510 -0.73413998 -0.92308295 0.67437041
-6.31378031 -17.44709969 1.58662379 -0.81624031 -0.90838480 0.61642683
-5.44402695 -17.86449051 2.38804889 -0.70379931 -0.93011630 0.92779231
-4.75429678 -18.10274124 1.18381155 -0.61463153 -0.94252086 0.45992830
-5.39090824 -17.83481216 1.07819951 -0.69693214 -0.92857111 0.41889647
-6.03855753 -17.60386658 0.97068721 -0.78065974 -0.91654688 0.37712634
-3.56793118 -18.51551819 2.05616617 -0.46125919 -0.96401209 0.79885101
-5.48255920 -18.20805168 -0.20107464 -0.70878071 -0.94800383 -0.07812048
-6.15185452 -17.97410583 -0.28910708 -0.79530668 -0.93582344 -0.11232238
-4.27124786 -18.24206543 1.96840620 -0.55218339 -0.94977474 0.76475495
-4.92023420 -17.97543526 1.82970619 -0.63608378 -0.93589264 0.71086794
-4.66628313 -18.04541588 2.48835635 -0.60325325 -0.93953615 0.96676326
-5.56898880 -17.77043152 1.73636615 -0.71995425 -0.92521912 0.67460394
-6.20737267 -17.49580574 1.58754945 -0.80248398 -0.91092068 0.61678648
-5.29841328 -17.78623962 2.37222552 -0.68497449 -0.92604214 0.92164475
-5.95049572 -17.57404327 2.24030828 -0.76927519 -0.91499412 0.87039292
-4.89155769 -18.04160118 0.54632002 -0.63237655 -0.93933755 0.21225342
-4.65585947 -18.19215393 1.18817985 -0.60190564 -0.94717610 0.46162546
-5.93612432 -17.66605377 0.97223347 -0.76741725 -0.91978467 0.37772709
-5.37029743 -18.24981689 -0.20110124 -0.69426763 -0.95017833 -0.07813081
-6.03688622 -18.00671768 -0.28905931 -0.78044367 -0.93752134 -0.11230382
-4.15917921 -18.28017235 1.96974730 -0.53769523 -0.95175880 0.76527596
-4.80461931 -17.99638939 1.82865584 -0.62113720 -0.93698359 0.71045989
-4.56204033 -18.11085701 2.49366069 -0.58977681 -0.94294339 0.96882409
-5.45780563 -17.80697441 1.73656642 -0.70558059 -0.92712170 0.67468178
-6.10125828 -17.54574394 1.58866036 -0.78876561 -0.91352069 0.61721808
-5.20586824 -17.88580513 2.38161230 -0.67301035 -0.93122602 0.92529166
-5.80863523 -17.51697350 2.22758889 -0.75093555 -0.91202277 0.86545128
-4.78169394 -18.08550072 0.54683220 -0.61817342 -0.94162321 0.21245241
-4.54582500 -18.23846626 1.18944812 -0.58768052 -0.94958735 0.46211821
-5.44863987 -17.88755035 0.45612705 -0.70439565 -0.93131691 0.17721210
-6.04963303 -17.55030251 0.32601002 -0.78209156 -0.91375804 0.12665972
-5.25442410 -18.27935410 -0.20108794 -0.67928761 -0.95171618 -0.07812564
-5.92613173 -18.05189133 -0.28912300 -0.76612538 -0.93987334 -0.11232857
-4.04680014 -18.31759071 1.97108853 -0.52316695 -0.95370698 0.76579708
-4.70100832 -18.06278419 1.83264709 -0.60774249 -0.94044048 0.71201050
-4.44720936 -18.13531685 2.49310231 -0.57493156 -0.94421691 0.96860713
-5.35036707 -17.85617065 1.73816919 -0.69169104 -0.92968309 0.67530447
-5.95288181 -17.47255898 1.57773662 -0.76958364 -0.90971035 0.61297405
-5.09446621 -17.92197418 2.38214874 -0.65860838 -0.93310916 0.92550004
-4.66646338 -18.10938263 0.54661268 -0.60327655 -0.94286662 0.21236712
-3.73861909 -18.40046120 1.30462265 -0.48332557 -0.95802164 0.50686520
-4.39712667 -18.12711143 1.17930222 -0.56845689 -0.94378966 0.45817637
-5.34012079 -17.93484879 0.45657158 -0.69036639 -0.93377948 0.17738482
-5.97903109 -17.70536804 0.32910776 -0.77296418 -0.92183155 0.12786324
-5.08345032 -18.03893852 1.08536530 -0.65718424 -0.93919891 0.42168048
-5.14485264 -18.33126831 -0.20115444 -0.66512227 -0.95441914 -0.07815148
-5.81504726 -18.09638214 -0.28918672 -0.75176448 -0.94218975 -0.11235332
-3.93494344 -18.35820580 1.97287667 -0.50870621 -0.95582163 0.76649177
-4.59233427 -18.11123848 1.83474767 -0.59369320 -0.94296324 0.71282661
-4.33871508 -18.18601227 2.49645257 -0.56090552 -0.94685632 0.96990877
-5.23695421 -17.88561440 1.73776853 -0.67702913 -0.93121612 0.67514879
-5.88345814 -17.63046837 1.58958614 -0.76060861 -0.91793191 0.61757773
-4.98703766 -17.97273254 2.38483047 -0.64472008 -0.93575191 0.92654192
-4.56138325 -18.17322922 0.54792958 -0.58969188 -0.94619077 0.21287875
-5.87270641 -17.75776672 0.32950747 -0.75921863 -0.92455971 0.12801853
-5.04904461 -18.43462563 -0.20140049 -0.65273631 -0.95980042 -0.07824707
-5.70905542 -18.15735626 -0.28939369 -0.73806196 -0.94536436 -0.11243373
-3.82273626 -18.39813805 1.97466493 -0.49420017 -0.95790070 0.76718652
-4.47844791 -18.13973427 1.83474767 -0.57897002 -0.94444686 0.71282661
-4.22526312 -18.21677208 2.49701095 -0.54623854 -0.94845784 0.97012573
-5.12610817 -17.92390633 1.73836958 -0.66269904 -0.93320978 0.67538232
-5.77629089 -17.67844009 1.59069705 -0.74675411 -0.92042953 0.61800933
-4.87195063 -17.99605751 2.38375783 -0.62984174 -0.93696636 0.92612523
-5.51525164 -17.74454308 2.24386954 -0.71300715 -0.92387122 0.87177652
-3.76939273 -18.36237717 0.66848075 -0.48730397 -0.95603877 0.25971466
-4.44615507 -18.19764900 0.54778326 -0.57479525 -0.94746220 0.21282190
-5.11541748 -18.00438309 0.45669860 -0.66131693 -0.93739980 0.17743416
-5.76163387 -17.79621696 0.32955742 -0.74485928 -0.92656159 0.12803793
-4.84297991 -18.05126190 1.08197784 -0.62609643 -0.93984056 0.42036441
-5.48144627 -17.78104210 0.97044933 -0.70863682 -0.92577153 0.37703392
-5.62461329 -18.18787766 -0.28942555 -0.72714537 -0.94695348 -0.11244611
-3.73913932 -18.43153381 1.97645307 -0.48339283 -0.95963943 0.76788127
-4.39761448 -18.17996407 1.83684838 -0.56851995 -0.94654143 0.71364278
-4.14113379 -18.24420357 2.49812770 -0.53536236 -0.94988608 0.97055960
-5.04533958 -17.96127892 1.73977196 -0.65225732 -0.93515557 0.67592716
-5.69842434 -17.72252083 1.59236336 -0.73668760 -0.92272460 0.61865675
-4.78911924 -18.02648163 2.38483047 -0.61913335 -0.93855035 0.92654192
-5.41178560 -17.70585442 2.23522043 -0.69963115 -0.92185688 0.86841625
-4.36081886 -18.22034073 0.54785645 -0.56376308 -0.94864368 0.21285033
-5.67770720 -17.82316971 0.32955742 -0.73400927 -0.92796493 0.12803793
-4.78568983 -18.18006325 1.08914375 -0.61869001 -0.94654661 0.42314848
-5.40398836 -17.82768440 0.97175771 -0.69862312 -0.92819995 0.37754226
-5.51545334 -18.24008179 -0.28956887 -0.71303326 -0.94967151 -0.11250179
-3.63087320 -18.49367714 1.98092353 -0.46939629 -0.96287495 0.76961809
-4.28650331 -18.22078514 1.83831871 -0.55415559 -0.94866681 0.71421403
-4.03413105 -18.30466652 2.50315285 -0.52152914 -0.95303410 0.97251195
-4.93657875 -18.00798225 1.74137473 -0.63819683 -0.93758720 0.67654985
-5.58695841 -17.75797462 1.59236336 -0.72227734 -0.92457050 0.61865675
-4.67873049 -18.06773186 2.38643980 -0.60486239 -0.94069809 0.92716718
-5.29644012 -17.72620773 2.23343968 -0.68471938 -0.92291659 0.86772436
-4.24670696 -18.24932861 0.54792958 -0.54901075 -0.95015293 0.21287875
-4.91557455 -18.05375290 0.45650807 -0.63548142 -0.93997025 0.17736015
-5.56441593 -17.85467529 0.32945752 -0.71936309 -0.92960525 0.12799913
-4.65161419 -18.13242531 1.08393216 -0.60135680 -0.94406635 0.42112368
-5.33968258 -18.02202988 0.98174894 -0.69030976 -0.93831861 0.38142398
-5.40529060 -18.28971481 -0.28969625 -0.69879150 -0.95225561 -0.11255128
-3.53192353 -18.60791588 1.99142921 -0.45660415 -0.96882278 0.77369970
-4.17638874 -18.26674271 1.84041941 -0.53992009 -0.95105958 0.71503019
-3.92236996 -18.34514236 2.50538635 -0.50708073 -0.95514148 0.97337967
-4.82640600 -18.05018234 1.74257684 -0.62395376 -0.93978435 0.67701691
-5.47821140 -17.80224228 1.59328914 -0.70821863 -0.92687535 0.61901641
-4.56801224 -18.10830498 2.38804889 -0.59054881 -0.94281054 0.92779231
-5.20895576 -17.84099388 2.24437833 -0.67340946 -0.92889291 0.87197417
-4.13373137 -18.28344536 0.54822224 -0.53440535 -0.95192921 0.21299246
-4.81226206 -18.12293434 0.45777819 -0.62212527 -0.94357216 0.17785360
-5.45563221 -17.90075684 0.32975727 -0.70529962 -0.93200451 0.12811558
-4.53952074 -18.16904068 1.08445334 -0.58686548 -0.94597274 0.42132616
-5.23525715 -18.08589745 0.98365206 -0.67680973 -0.94164383 0.38216338
-5.29527807 -18.34060478 -0.28983957 -0.68456918 -0.95490521 -0.11260696
-4.06586599 -18.31203461 1.84252000 -0.52563179 -0.95341772 0.71584630
-3.81147146 -18.39075089 2.50845742 -0.49274388 -0.95751607 0.97457284
-4.71489859 -18.08785439 1.74337828 -0.60953820 -0.94174576 0.67732829
-5.36855221 -17.84393501 1.59402966 -0.69404197 -0.92904603 0.61930412
-4.45979214 -18.15975189 2.39126730 -0.57655823 -0.94548911 0.92904276
-5.09566355 -17.86955452 2.24386954 -0.65876317 -0.93037993 0.87177652
-4.02566242 -18.34028625 0.54939282 -0.52043432 -0.95488864 0.21344724
-3.76201487 -18.38353729 1.18719339 -0.48635018 -0.95714051 0.46124220
-4.70228815 -18.16829872 0.45828623 -0.60790795 -0.94593412 0.17805098
-5.34362459 -17.93659782 0.32980725 -0.69081938 -0.93387055 0.12813500
-4.42339420 -18.18944550 1.08393216 -0.57185274 -0.94703507 0.42112368
-5.06809473 -17.93021584 0.97199559 -0.65519911 -0.93353826 0.37763467
-3.95409656 -18.35277176 1.84420049 -0.51118231 -0.95553869 0.71649921
-3.69270992 -18.39880562 2.50622392 -0.47739050 -0.95793545 0.97370511
-4.60505867 -18.13255692 1.74498105 -0.59533817 -0.94407320 0.67795098
-5.25971317 -17.88877487 1.59514058 -0.67997134 -0.93138063 0.61973572
-4.34239435 -18.17391777 2.38938975 -0.56138116 -0.94622666 0.92831326
-4.98862648 -17.92032433 2.24641347 -0.64492548 -0.93302327 0.87276489
-3.91076636 -18.36717224 0.54946595 -0.50558066 -0.95628846 0.21347566
-4.58366156 -18.18003464 0.45771468 -0.59257197 -0.94654512 0.17782892
-5.23418617 -17.98133278 0.33010703 -0.67667127 -0.93619967 0.12825146
-4.97239399 -18.02327347 0.97580177 -0.64282697 -0.93838334 0.37911344
-3.84115815 -18.38893127 1.84546089 -0.49658173 -0.95742136 0.71698886
-3.58880258 -18.48189926 2.51487851 -0.46395743 -0.96226174 0.97706753
-4.49008703 -18.15726852 1.74458027 -0.58047473 -0.94535983 0.67779523
-5.14390087 -17.90998840 1.59402966 -0.66499925 -0.93248516 0.61930412
-4.23704624 -18.23946381 2.39475369 -0.54776186 -0.94963932 0.93039727
-4.87593222 -17.95131493 2.24641347 -0.63035649 -0.93463683 0.87276489
-3.77457690 -18.29157448 0.54573476 -0.48797417 -0.95235246 0.21202603
-4.46934366 -18.20847511 0.45771468 -0.57779306 -0.94802588 0.17782892
-5.12220097 -18.01770973 0.33020696 -0.66219389 -0.93809366 0.12829030
-4.85488558 -18.03874207 0.97485024 -0.62763560 -0.93918872 0.37874374
-4.41100407 -18.20530891 1.74738514 -0.57025093 -0.94786102 0.67888498
-5.06595850 -17.95702171 1.59625149 -0.65492290 -0.93493396 0.62016732
-4.15498352 -18.27662659 2.39716744 -0.53715283 -0.95157421 0.93133503
-4.79231119 -17.97792625 2.24692225 -0.61954600 -0.93602234 0.87296253
-3.71333838 -18.43256760 0.55034393 -0.48005730 -0.95969325 0.21381676
-4.38953733 -18.25460815 0.45854026 -0.56747574 -0.95042777 0.17814969
-5.03777790 -18.04357338 0.33025691 -0.65127975 -0.93944025 0.12830970
-4.77494478 -18.08071709 0.97603965 -0.61730093 -0.94137412 0.37920585
-4.29653072 -18.23266411 1.74738514 -0.55545193 -0.94928527 0.67888498
-4.04389286 -18.31979370 2.39958119 -0.52279115 -0.95382166 0.93227279
-4.68026066 -18.01152039 2.24743104 -0.60506022 -0.93777144 0.87316024
-3.61513829 -18.54575729 0.55370933 -0.46736208 -0.96558648 0.21512426
-4.27611303 -18.28766823 0.45873076 -0.55281234 -0.95214909 0.17822368
-4.92747402 -18.08644104 0.33055669 -0.63701975 -0.94167215 0.12842616
-4.66024733 -18.10649490 0.97580177 -0.60247290 -0.94271624 0.37911344
-3.53974199 -18.54044914 1.85491371 -0.45761493 -0.96531016 0.72066140
-4.18542433 -18.27482224 1.74898791 -0.54108822 -0.95148027 0.67950767
-4.83057404 -17.98465538 1.59291875 -0.62449259 -0.93637270 0.61887252
-3.92622948 -18.33320999 2.39797211 -0.50757968 -0.95452023 0.93164766
-4.56748819 -18.04249382 2.24768543 -0.59048110 -0.93938404 0.87325907
-4.16641426 -18.33757210 0.45949283 -0.53863060 -0.95474732 0.17851977
-4.81837654 -18.13442993 0.33100638 -0.62291574 -0.94417071 0.12860088
-4.55272818 -18.16058731 0.97734803 -0.58857292 -0.94553262 0.37971416
-4.07352829 -18.31435966 1.75039029 -0.52662235 -0.95353878 0.68005252
-4.71798515 -18.01657677 1.59310389 -0.60993719 -0.93803465 0.61894447
-3.81697321 -18.38663101 2.40199494 -0.49345514 -0.95730156 0.93321061
-4.45641851 -18.08046341 2.24895740 -0.57612211 -0.94136095 0.87375325
-4.05711365 -18.39072418 0.46038190 -0.52450031 -0.95751470 0.17886518
-4.70887041 -18.18176079 0.33145604 -0.60875887 -0.94663501 0.12877558
-3.77826381 -18.40970230 1.08875287 -0.48845083 -0.95850277 0.42299661
-4.44186068 -18.20240784 0.97818065 -0.57424009 -0.94770998 0.38003767
-3.96255326 -18.35904884 1.75239372 -0.51227564 -0.95586550 0.68083090
-4.61754751 -18.09601974 1.59791780 -0.59695274 -0.94217086 0.62081474
-3.70176053 -18.41219521 2.40226316 -0.47856054 -0.95863259 0.93331480
-4.34505224 -18.11775017 2.25022936 -0.56172478 -0.94330227 0.87424743
-3.94772577 -18.44518089 0.46133450 -0.51035875 -0.96034998 0.17923528
-4.59994221 -18.23230743 0.33200565 -0.59467673 -0.94926673 0.12898912
-3.84955549 -18.39527130 1.75359583 -0.49766734 -0.95775145 0.68129796
-4.62000036 -18.59031487 1.64253855 -0.59726983 -0.96790642 0.63815051
-3.59239841 -18.46817017 2.40682244 -0.46442229 -0.96154690 0.93508613
-4.24199247 -18.19104767 2.25633454 -0.54840130 -0.94711852 0.87661934
-3.83013844 -18.46178818 0.46108046 -0.49515712 -0.96121466 0.17913659
-4.48625326 -18.26473236 0.33210558 -0.57997912 -0.95095491 0.12902793
-4.51625490 -18.54611206 1.63624346 -0.58385772 -0.96560496 0.63570482
-3.52332020 -18.58032799 2.41996384 -0.45549193 -0.96738642 0.94019175
-4.15356159 -18.19923401 2.25480819 -0.53696901 -0.94754475 0.87602633
-3.75928092 -18.55997849 0.46368420 -0.48599672 -0.96632695 0.18014817
-4.40154314 -18.29150009 0.33225545 -0.56902784 -0.95234859 0.12908617
-4.41900253 -18.65548897 1.64401972 -0.57128501 -0.97129971 0.63872600
-4.04646397 -18.25788879 2.25913286 -0.52312350 -0.95059860 0.87770653
-3.64832783 -18.61266327 0.46463677 -0.47165281 -0.96906996 0.18051827
-4.29110432 -18.33825684 0.33275509 -0.55475044 -0.95478296 0.12928028
-3.60996509 -18.87347794 1.79606915 -0.46669331 -0.98264933 0.69779944
-4.42289972 -19.20672798 1.69400978 -0.57178879 -1.00000000 0.65814787
-3.93292475 -18.28877068 2.25989604 -0.50844526 -0.95220649 0.87800306
-4.17490673 -18.36096001 0.33265516 -0.53972846 -0.95596504 0.12924145
-4.10169458 -18.34232903 1.60902667 -0.53026366 -0.95499498 0.62513065
-3.82729673 -18.35777664 2.26574683 -0.49478975 -0.95579928 0.88027620
-4.06725693 -18.42196274 0.33355451 -0.52581161 -0.95914114 0.12959087
-3.79201436 -18.40180016 0.98127317 -0.49022847 -0.95809138 0.38123915
-3.98551702 -18.36384773 1.60865641 -0.51524436 -0.95611537 0.62498683
-3.70871830 -18.36590958 2.26371169 -0.47946003 -0.95622271 0.87948549
-3.94343185 -18.41001701 0.33260521 -0.50980359 -0.95851916 0.12922205
-3.87376571 -18.40606117 1.61032271 -0.50079721 -0.95831323 0.62563419
-3.61964560 -18.52315903 2.28126454 -0.46794480 -0.96440995 0.88630503
-3.83830452 -18.48531723 0.33390427 -0.49621284 -0.96243966 0.12972675
-3.78295588 -18.40460968 1.60847127 -0.48905739 -0.95823765 0.62491488
-3.53157067 -18.53611374 2.28075576 -0.45655853 -0.96508443 0.88610739
-3.75674343 -18.53062630 0.33460376 -0.48566869 -0.96479869 0.12999851
-3.68287420 -18.50612259 1.61587715 -0.47611892 -0.96352291 0.62779218
-3.66694474 -18.68921280 0.33805123 -0.47405958 -0.97305554 0.13133791
