-19.55378151 -4.29252052 1.27582824 -0.95844579 -0.38214239 0.57694107
-18.54261589 -5.58509207 0.10861114 -0.90888262 -0.49721381 0.04911494
-18.78217316 -4.91483927 0.03640478 -0.92062473 -0.43754444 0.01646257
-18.50861549 -5.33946562 2.10357213 -0.90721607 -0.47534686 0.95125437
-18.47262192 -6.06888485 0.89802647 -0.90545177 -0.54028356 0.40609568
-19.77696609 -5.68156862 0.84289414 -0.96938539 -0.50580263 0.38116434
-18.45761681 -6.35071754 1.57058370 -0.90471631 -0.56537372 0.71023214
-18.45874786 -5.59551477 1.45188653 -0.90477175 -0.49814168 0.65655625
-19.17313576 -4.30414772 1.24975920 -0.93978810 -0.38317752 0.56515241
-18.43306732 -6.39020300 0.22009876 -0.90351301 -0.56888896 0.09953065
-18.54478264 -5.68116617 0.10899293 -0.90898883 -0.50576681 0.04928759
-18.61198616 -4.96396923 0.03504056 -0.91228282 -0.44191822 0.01584566
-18.50900650 -5.46574354 2.10773444 -0.90723521 -0.48658878 0.95313656
-18.52876472 -6.21669340 0.90334737 -0.90820366 -0.55344224 0.40850186
-18.59774971 -6.53011656 1.58732939 -0.91158503 -0.58134478 0.71780473
-18.46131516 -5.72314739 1.45517313 -0.90489757 -0.50950420 0.65804243
-18.33634567 -4.68380690 0.67621750 -0.89877206 -0.41697672 0.30579168
-18.42080307 -4.99309349 1.32837462 -0.90291184 -0.44451103 0.60070300
-18.78796959 -4.34224653 1.22383106 -0.92090881 -0.38656926 0.55342746
-18.43778038 -6.52194595 0.22097935 -0.90374398 -0.58061737 0.09992886
-18.55072021 -5.81068087 0.10955288 -0.90927982 -0.51729691 0.04954080
-18.58428574 -5.08187246 0.03507646 -0.91092509 -0.45241460 0.01586189
-20.17366982 -5.23625040 2.20534277 -0.98883015 -0.46615812 0.99727595
-18.53089142 -6.34727049 0.90568858 -0.90830791 -0.56506687 0.40956056
-18.58635330 -6.65762091 1.59012032 -0.91102642 -0.59269589 0.71906680
-18.45730400 -5.84923220 1.45796669 -0.90470099 -0.52072895 0.65930569
-18.36985970 -5.10337734 1.32684219 -0.90041482 -0.45432907 0.60001004
-18.54675865 -4.40967369 1.20833051 -0.90908569 -0.39257199 0.54641801
-18.53745842 -6.68871164 0.22373116 -0.90862983 -0.59546375 0.10117325
-18.54813957 -5.93806267 0.11001103 -0.90915334 -0.52863705 0.04974798
-18.57509041 -5.20503950 0.03529187 -0.91047436 -0.46337956 0.01595930
-18.51480865 -5.72127771 2.11698437 -0.90751958 -0.50933778 0.95731950
-20.16725159 -5.37008715 2.20847225 -0.98851556 -0.47807294 0.99869114
-19.19975853 -4.35200882 1.94061923 -0.94109303 -0.38743836 0.87756556
-18.54529762 -6.48274612 0.90877473 -0.90901405 -0.57712764 0.41095614
-18.77634430 -5.78033829 0.79851627 -0.92033899 -0.51459563 0.36109629
-18.59279442 -6.79209471 1.59465563 -0.91134214 -0.60466743 0.72111768
-18.45812607 -5.97732830 1.46125329 -0.90474129 -0.53213269 0.66079193
-20.03727722 -5.38942337 0.75470263 -0.98214471 -0.47979435 0.34128335
-20.29298210 -4.65271902 0.62416363 -0.99467832 -0.41420913 0.28225243
-18.44288635 -5.24883080 1.33527040 -0.90399426 -0.46727809 0.60382134
-18.43726921 -4.50631189 1.20241213 -0.90371895 -0.40117520 0.54374164
-18.51945305 -6.81405497 0.22420815 -0.90774727 -0.60662246 0.10138895
-18.57510948 -6.07555628 0.11087640 -0.91047531 -0.54087746 0.05013931
-18.53049088 -5.31832457 0.03518416 -0.90828830 -0.47346479 0.01591060
-18.63610268 -5.08641624 2.03389907 -0.91346496 -0.45281911 0.91974753
-18.69737244 -4.36234283 1.88915396 -0.91646814 -0.38835832 0.85429251
-19.33346748 -6.89585018 0.95570529 -0.94764692 -0.61390430 0.43217859
-19.87002754 -6.25269127 0.85498852 -0.97394687 -0.55664694 0.38663355
-18.58894539 -6.92342567 1.59831882 -0.91115350 -0.61635917 0.72277421
-18.46563911 -6.10816145 1.46519732 -0.90510952 -0.54378015 0.66257548
-19.73726463 -5.44166040 0.74283957 -0.96743935 -0.48444477 0.33591878
-18.44590759 -5.37524509 1.33818185 -0.90414238 -0.47853214 0.60513794
-18.53242111 -6.95140696 0.22530888 -0.90838289 -0.61885023 0.10188671
-18.55175018 -6.19719982 0.11108002 -0.90933031 -0.55170679 0.05023139
-18.56000900 -5.45332050 0.03577652 -0.90973514 -0.48548281 0.01617847
-18.47557449 -5.16740656 2.01892281 -0.90559649 -0.46002927 0.91297513
-18.44712448 -4.42660236 1.86499667 -0.90420198 -0.39407906 0.84336835
-19.40983391 -7.06100416 0.96251607 -0.95139003 -0.62860715 0.43525848
-19.60206032 -6.30424309 0.84356076 -0.96081221 -0.56123632 0.38146579
-18.60279846 -7.06206560 1.60372627 -0.91183251 -0.62870163 0.72521955
-18.47412300 -6.23996019 1.46930552 -0.90552539 -0.55551356 0.66443324
-19.88530922 -5.61734819 0.75100619 -0.97469592 -0.50008541 0.33961180
-18.44806671 -5.50190401 1.34109342 -0.90424818 -0.48980796 0.60645455
-19.62121010 -4.29907560 1.17318010 -0.96175086 -0.38272595 0.53052264
-18.52012062 -7.07988310 0.22593263 -0.90777999 -0.63028783 0.10216878
-18.56546211 -6.33166075 0.11179268 -0.91000241 -0.56367719 0.05055366
-18.57707405 -5.58543015 0.03626118 -0.91057158 -0.49724391 0.01639763
-19.17885971 -5.00743866 -0.09235806 -0.94006866 -0.44578812 -0.04176515
-18.47394943 -5.26096916 2.02160525 -0.90551686 -0.46835870 0.91418821
-18.47629929 -4.52573252 1.87045836 -0.90563202 -0.40290412 0.84583819
-18.56724548 -6.85282373 0.91654325 -0.91008985 -0.61007386 0.41446915
-18.61478615 -6.08471107 0.79556406 -0.91242009 -0.54169250 0.35976127
-18.60276794 -7.16257048 1.60686600 -0.91183102 -0.63764912 0.72663933
-18.48977852 -6.34242249 1.47324944 -0.90629274 -0.56463528 0.66621673
-19.74534988 -5.67829847 0.74593431 -0.96783566 -0.50551152 0.33731824
-18.46962547 -5.60330009 1.34492433 -0.90530491 -0.49883479 0.60818696
-18.87777328 -4.96055031 1.24045885 -0.92531061 -0.44161385 0.56094670
-19.23469162 -4.30909061 1.14868569 -0.94280529 -0.38361755 0.51944607
-18.53314400 -7.18519640 0.22684990 -0.90841836 -0.63966340 0.10258357
-18.55999374 -6.42755985 0.11212356 -0.90973437 -0.57221466 0.05070329
-18.55437088 -5.67408371 0.03629708 -0.90945876 -0.50513631 0.01641387
-18.98879051 -5.05369663 -0.09275277 -0.93075222 -0.44990623 -0.04194364
-18.45388222 -5.38084841 2.02316976 -0.90453327 -0.47903097 0.91489565
-18.47257996 -4.64801502 1.87318921 -0.90544975 -0.41379035 0.84707308
-18.48709488 -6.17191029 0.79108822 -0.90616119 -0.54945540 0.35773724
-18.53700256 -7.27128887 1.60494733 -0.90860748 -0.64732778 0.72577173
-18.58506584 -6.50574684 1.48508132 -0.91096330 -0.57917523 0.67156720
-18.45526886 -4.69343662 0.55912328 -0.90460122 -0.41783401 0.25284061
-18.45499802 -5.72575903 1.34660995 -0.90458792 -0.50973672 0.60894918
-18.69015694 -5.03717661 1.22904480 -0.91611445 -0.44843554 0.55578518
-18.85338783 -4.34786463 1.12497318 -0.92411536 -0.38706940 0.50872302
-18.56828499 -6.56132126 0.11278532 -0.91014081 -0.58412278 0.05100254
-18.57941437 -5.80971527 0.03687149 -0.91068631 -0.51721090 0.01667362
-18.82349205 -5.13671494 -0.09306946 -0.92264998 -0.45729694 -0.04208685
-18.46540070 -5.51037884 2.02853441 -0.90509784 -0.49056244 0.91732162
-18.47961044 -4.77340126 1.87718034 -0.90579432 -0.42495289 0.84887791
-19.35639381 -4.25508499 1.85677385 -0.94877064 -0.37880969 0.83964992
-18.60495186 -6.34127617 0.79899240 -0.91193807 -0.56453323 0.36131158
-18.46320724 -7.37649965 1.60233080 -0.90499032 -0.65669417 0.72458845
-18.58889008 -6.63843346 1.48902524 -0.91115075 -0.59098768 0.67335069
-18.46236229 -5.85551310 1.35013449 -0.90494889 -0.52128810 0.61054301
-18.40230751 -5.08412313 1.21030331 -0.90200526 -0.45261496 0.54731011
-18.61602974 -4.41626263 1.11090195 -0.91248107 -0.39315856 0.50235993
-18.54927826 -6.68597317 0.11309075 -0.90920919 -0.59521991 0.05114066
-18.56158829 -5.93244600 0.03705100 -0.90981257 -0.52813703 0.01675479
-18.72533989 -5.23663902 -0.09322551 -0.91783899 -0.46619272 -0.04215742
-18.48002434 -4.89753628 1.88054132 -0.90581465 -0.43600404 0.85039777
-18.93150330 -4.28612518 1.81570292 -0.92794424 -0.38157305 0.82107729
-18.44221878 -7.20448446 0.91696894 -0.90396154 -0.64138049 0.41466165
-18.48546600 -6.43056345 0.79499269 -0.90608138 -0.57248205 0.35950288
-18.48290634 -7.51945829 1.60861039 -0.90595591 -0.66942108 0.72742814
-18.60302162 -6.77550507 1.49395514 -0.91184342 -0.60319054 0.67558002
-18.44227409 -5.97695017 1.35151362 -0.90396428 -0.53209907 0.61116666
-18.32007408 -5.18557310 1.20663953 -0.89797455 -0.46164656 0.54565328
-18.45610046 -4.50084829 1.10204232 -0.90464199 -0.40068880 0.49835351
-18.56699181 -6.82440472 0.11390523 -0.91007739 -0.60754383 0.05150897
-18.55815506 -6.06016445 0.03737410 -0.90964425 -0.53950721 0.01690091
-18.68629837 -5.35254335 -0.09323928 -0.91592532 -0.47651112 -0.04216364
-18.63935661 -5.81863451 2.05736923 -0.91362441 -0.51800495 0.93036097
-18.70463181 -4.35826683 1.79506743 -0.91682398 -0.38799548 0.81174570
-19.74421310 -7.00630093 0.86070240 -0.96777993 -0.62373716 0.38921741
-18.46841431 -7.64919710 1.61175025 -0.90524554 -0.68097115 0.72884804
-18.59933662 -6.90678835 1.49740613 -0.91166282 -0.61487806 0.67714059
-19.88220406 -6.26303911 0.75882888 -0.97454369 -0.55756813 0.34314927
-19.91744614 -5.46519470 0.61809129 -0.97627109 -0.48653993 0.27950647
-18.45923615 -6.11093950 1.35595751 -0.90479565 -0.54402745 0.61317623
-18.41938782 -5.33875990 1.21636260 -0.90284246 -0.47528404 0.55005014
-18.43713379 -4.61915731 1.10269380 -0.90371233 -0.41122130 0.49864811
-18.55934143 -6.95422459 0.11438882 -0.90970242 -0.61910105 0.05172766
-18.56333160 -6.19124699 0.03778696 -0.90989798 -0.55117685 0.01708760
-18.70413208 -5.48498774 -0.09311535 -0.91679949 -0.48830199 -0.04210760
-18.47939682 -5.89623547 2.04284000 -0.90578389 -0.52491337 0.92379075
-18.46110344 -5.14159727 1.88537276 -0.90488720 -0.45773160 0.85258263
-18.46600151 -4.42493391 1.77322972 -0.90512729 -0.39393052 0.80187052
-19.44423866 -7.03799963 0.84775090 -0.95307642 -0.62655914 0.38336062
-18.48238373 -7.79146338 1.61768103 -0.90593028 -0.69363642 0.73153001
-18.57981682 -7.03266239 1.49954236 -0.91070604 -0.62608403 0.67810661
-19.84246063 -6.38783836 0.75882888 -0.97259563 -0.56867844 0.34314927
-20.03860664 -5.63389587 0.62401730 -0.98220992 -0.50155854 0.28218627
-18.46202087 -6.24089336 1.35932875 -0.90493214 -0.55559665 0.61470073
-18.41226387 -5.46230173 1.21833539 -0.90249330 -0.48628238 0.55094230
-19.88613510 -4.33743906 1.07452500 -0.97473639 -0.38614127 0.48590991
-18.57135010 -7.09204435 0.11515239 -0.91029102 -0.63137048 0.05207295
-18.55813026 -6.31939983 0.03811007 -0.90964305 -0.56258565 0.01723372
-18.70379066 -5.61271143 -0.09303274 -0.91678274 -0.49967262 -0.04207025
-18.44049644 -5.22961712 1.88579297 -0.90387714 -0.46556759 0.85277265
-18.37151146 -4.49385738 1.76561654 -0.90049577 -0.40006644 0.79842776
-18.58545494 -6.82730293 0.80584908 -0.91098237 -0.60780185 0.36441225
-18.48575401 -7.89573097 1.62151849 -0.90609545 -0.70291883 0.73326534
-18.61720848 -7.14721346 1.50578701 -0.91253883 -0.63628191 0.68093050
-18.60278893 -6.08434391 0.70406985 -0.91183203 -0.54165977 0.31838676
-19.83692932 -5.67838240 0.61735964 -0.97232449 -0.50551897 0.27917561
-18.46445847 -6.33886480 1.36193383 -0.90505165 -0.56431854 0.61587882
-18.43790436 -5.56451511 1.22214007 -0.90375006 -0.49538192 0.55266279
-18.48365593 -4.84752607 1.10933852 -0.90599263 -0.43155187 0.50165290
-19.27492523 -4.29999590 1.03848505 -0.94477737 -0.38280788 0.46961233
-18.57130432 -7.19244671 0.11561053 -0.91028881 -0.64030886 0.05228013
-18.57916069 -6.42448187 0.03859472 -0.91067386 -0.57194060 0.01745288
-18.70009613 -5.70777082 -0.09297767 -0.91660166 -0.50813532 -0.04204534
-18.44166565 -5.35532570 1.88957405 -0.90393442 -0.47675881 0.85448247
-18.45481873 -4.63744736 1.77723658 -0.90457916 -0.41284958 0.80368245
-18.49970627 -8.03958130 1.62762380 -0.90677935 -0.71572512 0.73602623
-18.55150795 -7.25608110 1.50397933 -0.90931845 -0.64597392 0.68011308
-18.47136116 -6.16999054 0.69985759 -0.90538996 -0.54928452 0.31648192
-18.58417511 -6.51096392 1.37495911 -0.91091967 -0.57963973 0.62176895
-18.42355347 -5.68670368 1.22369015 -0.90304667 -0.50625980 0.55336374
-18.48366165 -4.97189331 1.11142313 -0.90599293 -0.44262367 0.50259560
-18.95169830 -4.35338879 1.02040565 -0.92893416 -0.38756120 0.46143666
-18.57599449 -7.32875633 0.11629774 -0.91051871 -0.65244383 0.05259089
-18.56482124 -6.55043411 0.03884603 -0.90997100 -0.58315355 0.01756652
-18.69824028 -5.83584356 -0.09289505 -0.91651064 -0.51953697 -0.04200798
-18.45342445 -5.48464251 1.89461553 -0.90451080 -0.48827127 0.85676229
-18.45999146 -4.76229477 1.78084290 -0.90483272 -0.42396414 0.80531329
-19.37953377 -4.23489380 1.70585930 -0.94990486 -0.37701216 0.77140498
-18.48525620 -8.17180729 1.63111246 -0.90607107 -0.72749656 0.73760378
-18.45553398 -7.35263300 1.49954236 -0.90461421 -0.65456945 0.67810661
-18.58794975 -6.64375687 1.37863684 -0.91110468 -0.59146160 0.62343204
-18.42932892 -5.81551313 1.22679019 -0.90332973 -0.51772708 0.55476564
-18.53281784 -4.81764841 0.47041574 -0.90840232 -0.42889199 0.21272625
-18.65401268 -5.14384842 1.12510347 -0.91434282 -0.45793200 0.50878197
-18.66744041 -4.41203499 1.00470507 -0.91500098 -0.39278218 0.45433673
-18.55371284 -7.45499563 0.11662862 -0.90942651 -0.66368228 0.05274052
-18.57596588 -6.68596888 0.03934864 -0.91051728 -0.59521955 0.01779381
-18.68979454 -5.96230030 -0.09282621 -0.91609669 -0.53079486 -0.04197685
-18.48141479 -5.61950779 1.90154767 -0.90588278 -0.50027770 0.85989708
-18.45662880 -4.88534498 1.78364766 -0.90466785 -0.43491870 0.80658162
-19.03579521 -4.28561068 1.67568016 -0.93305624 -0.38152725 0.75775772
-18.63228226 -7.24572420 0.81499130 -0.91327769 -0.64505190 0.36854643
-18.50256729 -8.31890678 1.63774097 -0.90691960 -0.74059212 0.74060130
-18.48473167 -7.49909163 1.50627995 -0.90604538 -0.66760796 0.68115342
-18.50744247 -6.44180202 0.70510137 -0.90715855 -0.57348257 0.31885323
-18.59640503 -6.77890778 1.38277423 -0.91151911 -0.60349345 0.62530303
-18.43041420 -5.94339895 1.22960854 -0.90338296 -0.52911216 0.55604011
-18.42356491 -5.20485640 1.11168373 -0.90304720 -0.46336326 0.50271344
-18.59353638 -7.60692644 0.11782488 -0.91137850 -0.67720795 0.05328148
-18.60115433 -6.82742929 0.03999485 -0.91175193 -0.60781312 0.01808603
-18.70332146 -6.09629440 -0.09270228 -0.91675973 -0.54272366 -0.04192081
-18.71871185 -6.59473515 2.09335685 -0.91751409 -0.58709747 0.94663489
-18.47994041 -5.74611187 1.90532875 -0.90581053 -0.51154864 0.86160690
-18.46588707 -5.01220369 1.78785491 -0.90512168 -0.44621232 0.80848414
-18.69413567 -4.33262539 1.64568603 -0.91630948 -0.38571274 0.74419409
-18.45818138 -7.31201506 0.80842030 -0.90474397 -0.65095341 0.36557499
-18.49521255 -8.45575237 1.64210176 -0.90655911 -0.75277483 0.74257326
-18.48516846 -7.63482046 1.51055253 -0.90606678 -0.67969126 0.68308550
-20.40155220 -7.24737263 0.79347235 -1.00000000 -0.64519864 0.35881537
-18.58894539 -6.90885401 1.38568580 -0.91115350 -0.61506194 0.62661964
-19.90884781 -5.44497013 0.51779073 -0.97584969 -0.48473942 0.23414965
-18.39241409 -5.32106829 1.11181402 -0.90152031 -0.47370905 0.50277233
-18.29470825 -4.56777239 0.98531729 -0.89673120 -0.40664673 0.44556940
-18.56384277 -7.73127222 0.11807940 -0.90992308 -0.68827784 0.05339657
-18.57099533 -6.94908810 0.04012050 -0.91027367 -0.61864376 0.01814285
-18.69691849 -6.22439623 -0.09262426 -0.91644591 -0.55412799 -0.04188553
-19.20097733 -5.57358027 -0.20432656 -0.94115275 -0.49618897 -0.09239832
-18.57968521 -6.67716455 2.08173347 -0.91069961 -0.59443575 0.94137871
-18.58947372 -5.90834761 1.92150354 -0.91117936 -0.52599168 0.86892128
-18.47278404 -4.40402317 1.62717128 -0.90545976 -0.39206892 0.73582155
-18.44133186 -8.26055527 0.93867832 -0.90391809 -0.73539740 0.42447883
-18.49770164 -8.59788322 1.64750922 -0.90668112 -0.76542807 0.74501854
-18.47911263 -7.76853848 1.51433218 -0.90576994 -0.69159549 0.68479472
-19.50488091 -7.06626606 0.75453067 -0.95604885 -0.62907559 0.34120560
-18.58990669 -7.04251528 1.38936353 -0.91120058 -0.62696117 0.62828273
-18.33914185 -6.16945410 1.22848117 -0.89890915 -0.54923671 0.55553031
-20.09168816 -5.63112497 0.52496684 -0.98481172 -0.50131190 0.23739475
-18.36053085 -5.43709421 1.11194432 -0.89995754 -0.48403826 0.50283128
-18.58858109 -7.87890196 0.11909749 -0.91113561 -0.70142061 0.05385697
-18.58674049 -7.08850098 0.04069491 -0.91104543 -0.63105506 0.01840261
-18.68396187 -6.35073233 -0.09256001 -0.91581082 -0.56537509 -0.04185647
-19.13231468 -5.65149260 -0.20418026 -0.93778723 -0.50312513 -0.09233215
-18.57974434 -6.77625418 2.08553338 -0.91070247 -0.60325724 0.94309705
-18.49894714 -5.97577190 1.91457152 -0.90674216 -0.53199416 0.86578655
-18.49387741 -5.23889256 1.79667008 -0.90649366 -0.46639332 0.81247044
-18.40924454 -4.48070955 1.62309802 -0.90234530 -0.39889595 0.73397958
-18.50202751 -8.70620823 1.65187013 -0.90689313 -0.77507174 0.74699062
-18.49550247 -7.87813091 1.51909781 -0.90657330 -0.70135200 0.68694979
-18.46649361 -6.78757048 0.70845401 -0.90515143 -0.60426468 0.32036930
-18.64558029 -6.07518721 0.57990110 -0.91392952 -0.54084462 0.26223654
-18.57512093 -7.13721085 1.39089584 -0.91047585 -0.63539147 0.62897569
-18.43639755 -6.29888964 1.23792243 -0.90367621 -0.56075978 0.55979973
-18.46269608 -5.56226254 1.12067366 -0.90496528 -0.49518141 0.50677878
-18.55498314 -8.78393745 0.23881115 -0.90948880 -0.78199160 0.10799256
-18.58433723 -7.98058128 0.11955564 -0.91092759 -0.71047264 0.05406414
-18.60347176 -7.19554043 0.04117957 -0.91186553 -0.64058423 0.01862177
-18.69732475 -6.45367146 -0.09245444 -0.91646582 -0.57453924 -0.04180874
-19.04858017 -5.75707817 -0.20401400 -0.93368286 -0.51252490 -0.09225698
-18.57031822 -6.90536261 2.08955693 -0.91024047 -0.61475110 0.94491655
-18.52149582 -6.11176682 1.92129350 -0.90784740 -0.54410112 0.86882627
-18.45104218 -5.35220671 1.79566836 -0.90439403 -0.47648114 0.81201750
-18.42324257 -4.60687160 1.62717128 -0.90303141 -0.41012755 0.73582155
-18.45815468 -8.51312065 0.94506341 -0.90474266 -0.75788206 0.42736623
-18.50804329 -8.85157490 1.65780091 -0.90718800 -0.78801304 0.74967259
-18.48772049 -8.01237297 1.52287734 -0.90619189 -0.71330291 0.68865889
-18.60324669 -6.19096184 0.57975477 -0.91185451 -0.55115145 0.26217034
-18.55589676 -7.26398373 1.39304125 -0.90953356 -0.64667743 0.62994587
-18.46995163 -6.44014454 1.24341798 -0.90532088 -0.57333499 0.56228483
-18.46551704 -5.68995047 1.12327945 -0.90510356 -0.50654882 0.50795710
-18.59982872 -8.12594795 0.12047192 -0.91168696 -0.72341394 0.05447849
-18.58021355 -7.32110739 0.04139498 -0.91072547 -0.65176284 0.01871918
-18.70547104 -6.58824635 -0.09233511 -0.91686511 -0.58651978 -0.04175477
-19.01394272 -5.87724209 -0.20402065 -0.93198508 -0.52322251 -0.09225998
-18.59530067 -7.04803944 2.09782720 -0.91146499 -0.62745297 0.94865644
-18.51666832 -6.23941612 1.92507458 -0.90761077 -0.55546510 0.87053615
-18.45709801 -5.47996807 1.79987562 -0.90469086 -0.48785511 0.81392002
-18.43252182 -4.73239994 1.63087416 -0.90348625 -0.42130274 0.73749602
-18.48967552 -8.98601437 1.66146398 -0.90628767 -0.79998153 0.75132906
-18.48445320 -8.14923477 1.52715003 -0.90603173 -0.72548705 0.69059104
-18.68135071 -6.34747124 0.58429074 -0.91568279 -0.56508476 0.26422155
-18.45434380 -7.35821581 1.38844407 -0.90455586 -0.65506643 0.62786698
-18.54006195 -6.59540272 1.25173199 -0.90875745 -0.58715689 0.56604451
-18.51318741 -4.80876827 0.34009975 -0.90744013 -0.42810145 0.15379618
-18.46555519 -5.81729126 1.12575495 -0.90510541 -0.51788539 0.50907660
-18.58314323 -8.25804901 0.12095551 -0.91086906 -0.73517424 0.05469717
-18.58579445 -7.45861340 0.04189758 -0.91099906 -0.66400439 0.01894647
-18.70136452 -6.71913195 -0.09224332 -0.91666383 -0.59817189 -0.04171326
-18.96901321 -5.99417496 -0.20399405 -0.92978287 -0.53363246 -0.09224796
-18.56362343 -7.16976261 2.09939194 -0.90991229 -0.63828939 0.94936401
-18.52037239 -6.37047052 1.92990613 -0.90779233 -0.56713223 0.87272102
-18.48892212 -5.61614132 1.80688775 -0.90625077 -0.49997798 0.81709099
-18.43709564 -4.85721540 1.63420689 -0.90371042 -0.43241444 0.73900312
-18.45784378 -8.79605198 0.95144856 -0.90472740 -0.78307009 0.43025365
-18.49111176 -8.29125214 1.53240860 -0.90635806 -0.73813015 0.69296902
-18.51769447 -7.20562649 0.71687847 -0.90766108 -0.64148217 0.32417893
-18.44464302 -6.39681911 0.57668197 -0.90408039 -0.56947798 0.26078081
-18.45945740 -7.49507999 1.39273477 -0.90480649 -0.66725081 0.62980723
-18.57517624 -6.73958158 1.25750935 -0.91047859 -0.59999245 0.56865710
-18.46852112 -5.94608450 1.12849092 -0.90525079 -0.52935123 0.51031381
-18.60564232 -8.40833855 0.12199906 -0.91197193 -0.74855381 0.05516908
-18.61258698 -7.60557795 0.04261560 -0.91231227 -0.67708790 0.01927116
-18.70762062 -6.85434246 -0.09212399 -0.91697043 -0.61020905 -0.04165930
-19.35144806 -6.24949646 -0.20546372 -0.94852823 -0.55636251 -0.09291255
-18.55883026 -6.51429605 1.93872869 -0.90967739 -0.57993633 0.87671065
-18.48936462 -5.74345303 1.81069434 -0.90627247 -0.51131189 0.81881237
-18.44082832 -4.98227501 1.63753951 -0.90389341 -0.44354790 0.74051017
-18.47857094 -8.42542362 1.53602386 -0.90574336 -0.75007480 0.69460386
-18.51152420 -6.55047607 0.58085215 -0.90735865 -0.58315730 0.26266658
-18.47831726 -7.63840771 1.39825130 -0.90573096 -0.68001062 0.63230187
-18.57925987 -6.87341642 1.26103222 -0.91067874 -0.61190712 0.57025015
-19.90981102 -5.43783617 0.37787217 -0.97589689 -0.48410434 0.17087722
-18.45732880 -6.07076502 1.13031507 -0.90470219 -0.54045093 0.51113868
-18.57244110 -8.53423977 0.12227903 -0.91034454 -0.75976217 0.05529568
-18.58473587 -7.73084354 0.04281305 -0.91094714 -0.68823969 0.01936045
-18.70729446 -6.98780203 -0.09201843 -0.91695446 -0.62209028 -0.04161156
-18.57934952 -6.65283823 1.94566071 -0.91068316 -0.59227008 0.87984538
-18.38844872 -5.83896685 1.80388260 -0.90132594 -0.51981503 0.81573200
-18.43987465 -5.10651398 1.64050198 -0.90384668 -0.45460829 0.74184984
-18.52461433 -9.43895340 1.68187284 -0.90800023 -0.84030449 0.76055813
-18.49582672 -8.57398415 1.54243279 -0.90658921 -0.76330042 0.69750208
-19.49683762 -7.03608656 0.62079823 -0.95565462 -0.62638885 0.28073058
-18.45751762 -7.76598692 1.40054989 -0.90471143 -0.69136834 0.63334131
-18.56745338 -7.00195169 1.26342773 -0.91010004 -0.62334996 0.57133347
-20.22191620 -5.65948343 0.38686559 -0.99119496 -0.50383651 0.17494412
-18.47366714 -6.20510101 1.13409340 -0.90550303 -0.55241019 0.51284730
-18.36231613 -5.42100954 1.00256407 -0.90004504 -0.48260632 0.45336854
-18.60183907 -8.68961620 0.12344984 -0.91178548 -0.77359462 0.05582513
-18.58549881 -7.86856365 0.04329771 -0.91098458 -0.70050025 0.01957962
-18.70976448 -7.12294674 -0.09190368 -0.91707551 -0.63412160 -0.04155967
-18.57210159 -6.74912310 1.94839156 -0.91032785 -0.60084188 0.88108027
-18.46106529 -5.95805311 1.81450093 -0.90488535 -0.53041673 0.82053375
-18.54895973 -9.56181431 1.68867576 -0.90919358 -0.85124218 0.76363444
-18.50215340 -8.68301773 1.54670537 -0.90689927 -0.77300715 0.69943416
-18.52474403 -6.78515196 0.58421761 -0.90800661 -0.60404932 0.26418850
-18.48305893 -7.87953138 1.40575993 -0.90596336 -0.70147669 0.63569736
-18.59017372 -7.11069536 1.26765513 -0.91121370 -0.63303089 0.57324511
-18.68756294 -6.06950617 0.48629209 -0.91598731 -0.54033887 0.21990569
-20.22194862 -5.76235867 0.38756508 -0.99119657 -0.51299500 0.17526044
-18.47065544 -6.30113554 1.13591743 -0.90535539 -0.56095970 0.51367211
-18.34230423 -5.50919628 1.00292099 -0.89906412 -0.49045718 0.45352995
-18.59143257 -8.79168224 0.12388252 -0.91127539 -0.78268105 0.05602080
-18.60149002 -7.97897482 0.04381827 -0.91176838 -0.71032965 0.01981502
-18.71891975 -7.22756052 -0.09179812 -0.91752428 -0.64343482 -0.04151194
-18.57970428 -6.88428736 1.95406330 -0.91070050 -0.61287487 0.88364512
-18.49694443 -6.09830618 1.82231438 -0.90664399 -0.54290277 0.82406706
-18.47064781 -5.33428192 1.64901876 -0.90535504 -0.47488537 0.74570119
-18.64024162 -9.75778389 1.70367706 -0.91366780 -0.86868840 0.77041817
-18.50842857 -8.82821369 1.55229259 -0.90720689 -0.78593326 0.70196074
-18.46610069 -8.00982380 1.40851831 -0.90513211 -0.71307600 0.63694471
-18.57674217 -7.23964310 1.27005076 -0.91055536 -0.64451051 0.57432842
-18.62629890 -6.17922640 0.48553002 -0.91298437 -0.55010670 0.21956107
-18.48910713 -6.43746901 1.13995636 -0.90625983 -0.57309681 0.51549858
-18.41996193 -5.65880728 1.00993860 -0.90287060 -0.50377631 0.45670336
-18.61697578 -8.94722366 0.12502788 -0.91252744 -0.79652816 0.05653874
-18.59862709 -8.11653900 0.04428498 -0.91162807 -0.72257632 0.02002607
-18.72154999 -7.36401701 -0.09167879 -0.91765320 -0.65558290 -0.04145798
-18.56586456 -7.01210403 1.95742428 -0.91002214 -0.62425381 0.88516498
-18.48654175 -6.22395849 1.82531953 -0.90613407 -0.55408901 0.82542598
-18.48834610 -5.46541834 1.65401781 -0.90622252 -0.48655984 0.74796182
-18.48489571 -8.95994854 1.55525053 -0.90605342 -0.79766101 0.70329833
-18.47741127 -8.15312386 1.41372836 -0.90568656 -0.72583330 0.63930076
-18.44555664 -7.32244730 1.26356864 -0.90412515 -0.65188217 0.57139719
-18.57236862 -6.59773254 1.14855540 -0.91034096 -0.58736432 0.51938713
-18.41452789 -5.78397083 1.01184165 -0.90260428 -0.51491904 0.45756394
-18.63774681 -9.96188164 0.24989182 -0.91354555 -0.88685828 0.11300334
-18.59634781 -9.08153629 0.12553692 -0.91151631 -0.80848539 0.05676893
-18.58928490 -8.25194073 0.04469783 -0.91117013 -0.73463047 0.02021276
-18.72134399 -7.50004911 -0.09156404 -0.91764313 -0.66769320 -0.04140609
-18.59386063 -7.15640593 1.96561670 -0.91139442 -0.63710028 0.88886964
-18.49410248 -6.35620785 1.83032823 -0.90650469 -0.56586254 0.82769096
-18.47270775 -5.58722067 1.65586925 -0.90545601 -0.49740329 0.74879903
-18.50475502 -8.78221989 0.83841825 -0.90702683 -0.78183866 0.37914032
-18.51231766 -9.11722183 1.56297410 -0.90739751 -0.81166226 0.70679104
-18.56879616 -7.20085764 0.59109473 -0.91016585 -0.64105761 0.26729837
-18.48219299 -8.29442692 1.41847873 -0.90592092 -0.73841280 0.64144892
-18.46024704 -7.46281147 1.26821887 -0.90484524 -0.66437811 0.57350004
-18.49052238 -6.39314222 0.48362488 -0.90632921 -0.56915063 0.21869954
-18.59994888 -6.73952246 1.15337610 -0.91169286 -0.59998715 0.52156711
-18.42156029 -5.91354704 1.01457739 -0.90294898 -0.52645457 0.45880106
-18.58181381 -10.08261013 0.25003859 -0.91080391 -0.89760613 0.11306971
-18.61061478 -9.23368359 0.12655501 -0.91221565 -0.82203031 0.05722932
-18.60630417 -8.39991665 0.04537995 -0.91200435 -0.74780405 0.02052122
-18.71831131 -7.63561487 -0.09145389 -0.91749448 -0.67976195 -0.04135628
-18.56149673 -7.27816153 1.96708715 -0.90980804 -0.64793962 0.88953459
-18.57768822 -6.51587963 1.84355104 -0.91060168 -0.58007735 0.83367044
-18.89398003 -5.84393311 1.70030487 -0.92610502 -0.52025717 0.76889324
-18.50046730 -9.80019951 0.97752106 -0.90681666 -0.87246448 0.44204387
-18.46553802 -7.29468107 0.58882678 -0.90510458 -0.64941025 0.26627278
-18.48229980 -8.43445110 1.42292261 -0.90592617 -0.75087851 0.64345849
-18.45728874 -7.59683132 1.27160072 -0.90470022 -0.67630923 0.57502937
-18.46883202 -6.51586485 0.48425993 -0.90526605 -0.58007604 0.21898672
-18.60027695 -6.87220812 1.15637279 -0.91170889 -0.61179954 0.52292222
-18.42009544 -6.04095840 1.01683736 -0.90287715 -0.53779739 0.45982304
-18.58987236 -10.23878479 0.25154293 -0.91119891 -0.91150963 0.11374999
-18.59689903 -9.37289238 0.12719132 -0.91154337 -0.83442336 0.05751707
-18.60039520 -8.53839684 0.04584666 -0.91171473 -0.76013225 0.02073227
-18.73464203 -7.77985525 -0.09129325 -0.91829491 -0.69260299 -0.04128363
-18.57083511 -7.41671658 1.97338903 -0.91026580 -0.66027451 0.89238435
-18.59631538 -6.65399218 1.84996200 -0.91151476 -0.59237283 0.83656955
-18.50170708 -5.85062504 1.66568208 -0.90687740 -0.52085292 0.75323647
-18.54224968 -9.97215939 0.98379976 -0.90886468 -0.88777322 0.44488314
-19.04163933 -9.67630005 1.62262619 -0.93334270 -0.86143434 0.73376626
-18.48137283 -8.57480240 1.42736661 -0.90588075 -0.76337332 0.64546812
-18.46441841 -7.73572206 1.27582824 -0.90504968 -0.68867403 0.57694107
-19.59324646 -7.05267000 0.52363324 -0.96038020 -0.62786520 0.23679169
-18.57539940 -6.99599409 1.15767562 -0.91048950 -0.62281960 0.52351141
-18.42912102 -6.17237711 1.01981091 -0.90331954 -0.54949695 0.46116772
-18.57227516 -10.38177490 0.25253356 -0.91033638 -0.92423934 0.11419795
-18.60888100 -9.52593613 0.12820941 -0.91213065 -0.84804815 0.05797746
-18.59166527 -8.67628574 0.04629541 -0.91128683 -0.77240789 0.02093520
-18.72040558 -7.91217232 -0.09120605 -0.91759712 -0.70438254 -0.04124420
-18.58178711 -7.52275944 1.97864056 -0.91080260 -0.66971499 0.89475918
-18.59092903 -6.75108671 1.85276687 -0.91125071 -0.60101670 0.83783793
-18.43410301 -5.92499208 1.66179395 -0.90356374 -0.52747345 0.75147825
-18.49680519 -10.06038189 0.98390615 -0.90663713 -0.89562726 0.44493127
-18.55080032 -10.42800903 1.72478366 -0.90928376 -0.92835534 0.77996278
-18.93730164 -9.73590565 1.61720324 -0.92822850 -0.86674070 0.73131394
-18.49488258 -8.68728638 1.43196368 -0.90654290 -0.77338719 0.64754695
-18.46634102 -7.83897924 1.27878737 -0.90514392 -0.69786650 0.57827920
-18.49179649 -6.75361538 0.48749870 -0.90639162 -0.60124177 0.22045133
-18.60745239 -7.10844469 1.16223574 -0.91206062 -0.63283056 0.52557349
-18.43197250 -6.27005005 1.02183294 -0.90345931 -0.55819231 0.46208209
-18.59448242 -10.50958824 0.25403789 -0.91142488 -0.93561792 0.11487823
-18.61708641 -9.64105988 0.12897299 -0.91253287 -0.85829705 0.05832275
-18.63733101 -8.80489159 0.04715703 -0.91352516 -0.78385705 0.02132483
-18.74912834 -8.02857780 -0.09104083 -0.91900498 -0.71474552 -0.04116949
-18.58566284 -7.66053295 1.98452234 -0.91099256 -0.68198031 0.89741898
-18.61156845 -6.89132118 1.85957861 -0.91226238 -0.61350107 0.84091824
-18.45518494 -6.05989695 1.66753364 -0.90459710 -0.53948337 0.75407380
-18.52584457 -10.22764969 0.98954636 -0.90806055 -0.91051829 0.44748181
-18.53680229 -10.57402611 1.73001671 -0.90859765 -0.94135451 0.78232920
-18.57522774 -9.69816399 1.58926702 -0.91048110 -0.86338073 0.71868092
-18.48490143 -8.82484341 1.43579471 -0.90605366 -0.78563321 0.64927936
-18.46619415 -7.97616005 1.28259206 -0.90513670 -0.71007907 0.57999974
-18.41862679 -6.39487696 1.02349818 -0.90280515 -0.56930506 0.46283513
-18.59916306 -10.66706848 0.25554222 -0.91165429 -0.94963765 0.11555851
-18.63229370 -9.79779243 0.13006744 -0.91327822 -0.87225020 0.05881767
-18.62308693 -8.94176960 0.04756989 -0.91282696 -0.79604262 0.02151153
-18.74417305 -8.16614723 -0.09092608 -0.91876209 -0.72699267 -0.04111760
-18.57019043 -7.79097509 1.98830354 -0.91023421 -0.69359291 0.89912885
-18.59767723 -7.01939774 1.86278415 -0.91158146 -0.62490314 0.84236783
-18.44129944 -6.18393898 1.66994047 -0.90391648 -0.55052626 0.75516218
-18.49430466 -10.36242771 0.99156827 -0.90651459 -0.92251694 0.44839615
-18.55099869 -10.73727226 1.73821509 -0.90929347 -0.95588756 0.78603661
-18.49454498 -9.80443287 1.58745933 -0.90652639 -0.87284136 0.71786344
-18.49364662 -8.97221184 1.44131124 -0.90648234 -0.79875273 0.65177399
-18.47966957 -8.12005424 1.28752398 -0.90579724 -0.72288924 0.58222997
-18.40167999 -7.29598141 1.15415788 -0.90197450 -0.64952600 0.52192062
-18.60432434 -10.82602882 0.25708324 -0.91190732 -0.96378911 0.11625537
-18.61625671 -9.93911266 0.13072920 -0.91249216 -0.88483125 0.05911693
-18.63480377 -9.09199619 0.04825200 -0.91340125 -0.80941653 0.02181999
-18.74005508 -8.30478001 -0.09080675 -0.91856027 -0.73933452 -0.04106364
-18.60704803 -7.15688276 1.86859417 -0.91204083 -0.63714272 0.84499520
-18.45485306 -6.31769037 1.67512465 -0.90458083 -0.56243348 0.75750649
-18.50517845 -10.52193356 0.99625069 -0.90704757 -0.93671697 0.45051357
-18.53811646 -10.88595486 1.74379706 -0.90866208 -0.96912402 0.78856081
-18.48696518 -9.11296940 1.44560194 -0.90615481 -0.81128371 0.65371430
-18.46108437 -8.25062370 1.29006052 -0.90488625 -0.73451322 0.58337706
-18.62958527 -7.20506430 0.49664345 -0.91314548 -0.64143211 0.22458667
-18.46825790 -6.38056326 0.35039222 -0.90523785 -0.56803077 0.15845053
-18.49606133 -7.46839094 1.16405988 -0.90660071 -0.66487479 0.52639842
-19.38305473 -7.00263596 1.08974969 -0.95007747 -0.62341088 0.49279466
-18.60477638 -10.98343658 0.25855088 -0.91192943 -0.97780240 0.11691905
-18.63260078 -10.09869099 0.13187455 -0.91329330 -0.89903772 0.05963486
-18.61133957 -9.22581196 0.04859306 -0.91225117 -0.82132953 0.02197422
-18.73675728 -8.44450092 -0.09068283 -0.91839862 -0.75177318 -0.04100759
-18.53578377 -7.26346159 1.86578929 -0.90854770 -0.64663094 0.84372681
-18.55208206 -6.48132372 1.68864048 -0.90934658 -0.57700098 0.76361847
-18.50440216 -10.67598534 1.00029457 -0.90700954 -0.95043147 0.45234224
-18.54120255 -11.04511166 1.75112331 -0.90881336 -0.98329300 0.79187381
-18.51310349 -9.27099514 1.45280409 -0.90743601 -0.82535195 0.65697116
-18.46702766 -8.39280987 1.29456973 -0.90517759 -0.74717140 0.58541614
-18.50400734 -7.29038382 0.49391273 -0.90699017 -0.64902771 0.22335181
-18.52400589 -6.53027821 0.35294035 -0.90797043 -0.58135915 0.15960282
-18.49674416 -7.60423613 1.16744733 -0.90663415 -0.67696846 0.52793026
-18.48972321 -6.81248617 1.03586829 -0.90628999 -0.60648280 0.46842900
-18.59026527 -11.13304424 0.25972500 -0.91121817 -0.99112123 0.11745000
-18.62312698 -10.24539375 0.13266356 -0.91282892 -0.91209799 0.05999166
-18.62620354 -9.37951756 0.04932902 -0.91297972 -0.83501321 0.02230703
-18.75063133 -8.59282303 -0.09051301 -0.91907865 -0.76497757 -0.04093080
-18.60375786 -9.06567383 2.18880200 -0.91187954 -0.80707324 0.98979604
-18.48793411 -7.37904167 1.86558902 -0.90620232 -0.65692049 0.84363621
-18.54477119 -6.60976076 1.69197321 -0.90898824 -0.58843511 0.76512557
-18.50069618 -10.82943058 1.00423205 -0.90682787 -0.96409196 0.45412281
-18.44295883 -9.87969494 0.85936916 -0.90399784 -0.87954158 0.38861451
-18.56517410 -11.21815109 1.76071715 -0.90998834 -0.99869788 0.79621220
-18.50778198 -9.41430759 1.45740128 -0.90717518 -0.83811039 0.65905005
-18.46647453 -8.53289127 1.29865623 -0.90515047 -0.75964212 0.58726406
-18.49276543 -7.73883915 1.17057431 -0.90643913 -0.68895149 0.52934426
-18.61953163 -10.39626789 0.13355440 -0.91265267 -0.92552960 0.06039451
-18.62919044 -9.52829838 0.04995728 -0.91312611 -0.84825844 0.02259113
-18.74524307 -8.73322296 -0.09038909 -0.91881454 -0.77747673 -0.04087476
-18.55192184 -9.14883709 2.18768430 -0.90933877 -0.81447685 0.98929060
-20.20499420 -9.04019451 2.19920635 -0.99036556 -0.80480492 0.99450099
-18.52302361 -7.49451494 1.87320209 -0.90792227 -0.66720051 0.84707892
-18.58273125 -6.72207022 1.69882369 -0.91084892 -0.59843349 0.76822346
-18.53019714 -10.96436882 1.00923371 -0.90827388 -0.97610486 0.45638460
-18.54382133 -10.04628849 0.86736864 -0.90894169 -0.89437258 0.39223194
-18.53764725 -9.53981495 1.46383727 -0.90863907 -0.84928370 0.66196042
-18.48391151 -8.64681053 1.30316544 -0.90600514 -0.76978385 0.58930320
-18.58072853 -6.78072262 0.35638785 -0.91075075 -0.60365504 0.16116181
-18.50935364 -7.84854603 1.17435265 -0.90725225 -0.69871819 0.53105289
-18.64003181 -10.52315426 0.13457249 -0.91365755 -0.93682563 0.06085490
-18.64799500 -9.64912891 0.05060349 -0.91404784 -0.85901541 0.02288336
-18.77084160 -8.85296059 -0.09021927 -0.92006928 -0.78813636 -0.04079797
-18.55268288 -9.29465580 2.19506073 -0.90937603 -0.82745838 0.99262631
-20.02826118 -9.11271286 2.18534231 -0.98170280 -0.81126088 0.98823154
-18.49028206 -7.61682796 1.87480485 -0.90631741 -0.67808944 0.84780371
-18.57003403 -6.84969139 1.70178604 -0.91022652 -0.60979497 0.76956302
-18.52597618 -11.11969852 1.01327765 -0.90806699 -0.98993313 0.45821333
-18.51614952 -10.53498936 1.61802495 -0.90758532 -0.93787926 0.73168552
-18.51443481 -9.67553329 1.46705532 -0.90750128 -0.86136603 0.66341567
-18.47788811 -8.78585911 1.30697012 -0.90570992 -0.78216267 0.59102368
-18.51526260 -6.88899040 0.35578829 -0.90754187 -0.61329359 0.16089068
-18.49264526 -7.97895288 1.17669785 -0.90643322 -0.71032768 0.53211343
-18.56847954 -7.20803404 1.04859531 -0.91015035 -0.64169651 0.47418427
-18.63604927 -10.67579174 0.13548878 -0.91346234 -0.95041424 0.06126925
-18.65070343 -9.79965591 0.05124970 -0.91418064 -0.87241608 0.02317558
-18.75273705 -8.98884296 -0.09012289 -0.91918188 -0.80023330 -0.04075439
-18.58243942 -9.45619678 2.20623708 -0.91083461 -0.84183955 0.99768037
-20.06271172 -9.28087616 2.19605541 -0.98339146 -0.82623166 0.99307615
-18.53010941 -7.76987982 1.88442147 -0.90826958 -0.69171494 0.85215241
-18.57138252 -6.98300982 1.70622957 -0.91029263 -0.62166369 0.77157247
-18.54285812 -10.70484638 1.62689877 -0.90889448 -0.95300084 0.73569834
-18.52898216 -9.83193684 1.47364450 -0.90821433 -0.87528992 0.66639537
-18.48881531 -8.93383503 1.31218398 -0.90624553 -0.79533625 0.59338146
-18.50425339 -8.12232304 1.18112767 -0.90700221 -0.72309124 0.53411663
-18.42067146 -7.28428602 1.04205334 -0.90290540 -0.64848483 0.47122595
-18.62915039 -10.82779026 0.13637960 -0.91312414 -0.96394593 0.06167209
-18.61874390 -9.93267918 0.05155486 -0.91261411 -0.88425851 0.02331357
-18.74625778 -9.13096523 -0.08999438 -0.91886431 -0.81288576 -0.04069627
-18.55971718 -9.59196568 2.21093106 -0.90972084 -0.85392642 0.99980301
-20.02380943 -9.41604233 2.19836617 -0.98148459 -0.83826482 0.99412107
-18.51568413 -7.90102816 1.88822806 -0.90756249 -0.70339042 0.85387379
-18.59597206 -7.12585306 1.71308005 -0.91149789 -0.63438034 0.77467030
-19.47992516 -11.03191090 0.92917383 -0.95482564 -0.98211783 0.42018080
-18.51997566 -10.84729195 1.63117135 -0.90777290 -0.96568209 0.73763043
-18.48303223 -8.75048637 0.61062878 -0.90596205 -0.77901357 0.27613187
-18.49491692 -9.96332169 1.47609639 -0.90654463 -0.88698649 0.66750413
-18.47890282 -9.07264042 1.31584764 -0.90575963 -0.80769342 0.59503818
-18.49813080 -7.14842415 0.35768691 -0.90670210 -0.63638973 0.16174926
-18.49657059 -8.25799847 1.18425465 -0.90662563 -0.73516977 0.53553069
-18.44123650 -7.42666292 1.04633534 -0.90391338 -0.66115999 0.47316229
-18.64175987 -10.99229145 0.13757586 -0.91374224 -0.97859067 0.06221305
-18.64736557 -10.09908104 0.05248827 -0.91401702 -0.89907247 0.02373567
-18.76921844 -9.28840923 -0.08978784 -0.91998971 -0.82690227 -0.04060287
-18.80807686 -8.99039459 2.06308579 -0.92189443 -0.80037147 0.93294603
-18.54230499 -8.05057144 1.89664257 -0.90886736 -0.71670353 0.85767895
-18.54526329 -7.24038696 1.71252465 -0.90901238 -0.64457673 0.77441913
-19.37556458 -11.13421249 0.92726922 -0.94971031 -0.99122524 0.41931954
-18.54060936 -11.01630211 1.63971663 -0.90878427 -0.98072821 0.74149472
-18.48583412 -9.22056103 1.32092059 -0.90609938 -0.82086205 0.59733224
-18.52171326 -7.29153776 0.35953555 -0.90785801 -0.64913040 0.16258523
-18.49699593 -8.39803123 1.18803298 -0.90664649 -0.74763620 0.53723925
-18.44964981 -7.56505156 1.04990363 -0.90432578 -0.67348003 0.47477591
-18.64309883 -10.24885941 0.05309859 -0.91380787 -0.91240650 0.02401166
-18.76233292 -9.43215656 -0.08965474 -0.91965222 -0.83969939 -0.04054268
-18.55253983 -9.01212215 2.03976893 -0.90936905 -0.80230576 0.92240196
-18.52592659 -8.18222618 1.90044916 -0.90806454 -0.72842413 0.85940027
-18.43276215 -7.33034277 1.70585930 -0.90349805 -0.65258503 0.77140498
-18.66806030 -10.88501549 0.89212883 -0.91503137 -0.96904039 0.40342873
-18.53935242 -11.17366982 1.64628983 -0.90872264 -0.99473792 0.74446714
-18.46876144 -9.90082932 0.76355690 -0.90526259 -0.88142306 0.34528732
-18.46670723 -9.35632706 1.32402062 -0.90516186 -0.83294868 0.59873408
-18.49095535 -8.53588009 1.19142056 -0.90635043 -0.75990820 0.53877115
-18.43677330 -7.69539928 1.05216360 -0.90369463 -0.68508428 0.47579789
-18.63419342 -10.39702988 0.05367300 -0.91337138 -0.92559743 0.02427141
-18.75794411 -9.57799816 -0.08951247 -0.91943711 -0.85268295 -0.04047835
-18.54558182 -9.11696339 2.04397011 -0.90902799 -0.81163925 0.92430174
-18.55615997 -8.30038166 1.90806222 -0.90954649 -0.73894292 0.86284298
-18.47746658 -7.44905996 1.71382070 -0.90568924 -0.66315389 0.77500522
-18.64410973 -10.98906994 0.89365250 -0.91385740 -0.97830391 0.40411773
-18.50589561 -9.48593521 1.33064365 -0.90708274 -0.84448707 0.60172909
-18.50835609 -8.65001869 1.19558978 -0.90720332 -0.77006942 0.54065651
-18.45917130 -7.80702066 1.05596972 -0.90479249 -0.69502139 0.47751907
-18.65288734 -10.52311420 0.05437306 -0.91428763 -0.93682212 0.02458799
-18.77837944 -9.70018482 -0.08934265 -0.92043877 -0.86356068 -0.04040155
-18.57872581 -9.27853966 2.05468321 -0.91065258 -0.82602364 0.92914635
-18.53985023 -8.43332386 1.91206920 -0.90874702 -0.75077814 0.86465496
-18.47084427 -7.58160400 1.71789396 -0.90536463 -0.67495364 0.77684718
-18.49406433 -11.05788898 0.88917661 -0.90650278 -0.98443049 0.40209371
-18.51482773 -10.54456997 1.49908209 -0.90752053 -0.93873221 0.67789847
-18.50081444 -9.63052559 1.33501196 -0.90683365 -0.85735923 0.60370445
-18.50409126 -8.79016685 1.19923782 -0.90699428 -0.78254616 0.54230618
-18.45561981 -7.94253206 1.05894339 -0.90461844 -0.70708531 0.47886378
-18.66446304 -10.68489170 0.05518082 -0.91485506 -0.95122439 0.02495327
-18.78439713 -9.85321999 -0.08916824 -0.92073375 -0.87718463 -0.04032268
-18.63541031 -9.45346451 2.06833744 -0.91343099 -0.84159636 0.93532091
-18.54968262 -8.57894516 1.91908121 -0.90922898 -0.76374209 0.86782587
-18.47799110 -7.72048521 1.72344840 -0.90571499 -0.68731755 0.77935892
-18.51896095 -10.70166779 1.50536489 -0.90772313 -0.95271784 0.68073964
-18.49464607 -9.77542591 1.33938026 -0.90653133 -0.87025899 0.60567987
-18.49879646 -8.93060112 1.20288587 -0.90673476 -0.79504836 0.54395586
-18.44743347 -8.07670879 1.06167901 -0.90421718 -0.71903044 0.48010084
-18.65572548 -10.83616066 0.05579113 -0.91442674 -0.96469110 0.02522925
-18.78746605 -10.00577259 -0.08899842 -0.92088413 -0.89076567 -0.04024589
-18.54041481 -8.71653652 1.92408991 -0.90877473 -0.77599120 0.87009084
-18.46578598 -7.85198069 1.72715139 -0.90511674 -0.69902396 0.78103346
-18.51325035 -10.85418129 1.51088142 -0.90744323 -0.96629542 0.68323421
-18.50145531 -9.92816067 1.34487593 -0.90686506 -0.88385624 0.60816509
-18.52872849 -8.75281048 0.51309133 -0.90820187 -0.77922046 0.23202454
-18.49783707 -9.07395744 1.20692492 -0.90668774 -0.80781066 0.54578239
-18.45106125 -8.21676731 1.06524742 -0.90439498 -0.73149914 0.48171452
-18.66992950 -11.00197792 0.05665275 -0.91512299 -0.97945303 0.02561889
-18.78583527 -10.15685272 -0.08883778 -0.92080420 -0.90421557 -0.04017325
-18.54629898 -8.86208725 1.93090165 -0.90906316 -0.78894889 0.87317121
-18.48191261 -7.99624968 1.73381674 -0.90590715 -0.71186751 0.78404760
-19.39592552 -11.15703964 0.82467729 -0.95070833 -0.99325740 0.37292653
-18.51662827 -11.01317024 1.51731741 -0.90760881 -0.98044944 0.68614465
-18.49129677 -10.07279205 1.34910333 -0.90636712 -0.89673209 0.61007673
-18.51008797 -9.22478962 1.21200609 -0.90728819 -0.82123852 0.54808009
-18.46093178 -8.36047745 1.06929147 -0.90487880 -0.74429297 0.48354328
-18.78304482 -10.30830669 -0.08867715 -0.92066741 -0.91769880 -0.04010061
-18.47506905 -8.13142586 1.73826027 -0.90557176 -0.72390163 0.78605700
-18.57686424 -10.84089088 0.78736889 -0.91056132 -0.96511221 0.35605535
-18.59601784 -9.93882847 0.63389409 -0.91150016 -0.88480598 0.28665262
-18.51761055 -9.37432480 1.21682680 -0.90765697 -0.83455092 0.55026007
-18.46609497 -8.50296783 1.07309771 -0.90513188 -0.75697821 0.48526448
-18.79307556 -10.46789742 -0.08847979 -0.92115909 -0.93190640 -0.04001136
-18.56912041 -9.12527466 1.94452512 -0.91018176 -0.81237918 0.87933183
-18.48385811 -8.23942947 1.74307418 -0.90600252 -0.73351663 0.78823394
-18.47741127 -10.89983940 0.78496194 -0.90568656 -0.97036010 0.35496688
-18.52258873 -10.01211834 0.63279670 -0.90790093 -0.89133060 0.28615639
-18.49615860 -10.34061718 1.35854459 -0.90660548 -0.92057526 0.61434615
-18.53004265 -9.49065208 1.22099602 -0.90826631 -0.84490699 0.55214542
-18.47288895 -8.61177731 1.07619023 -0.90546489 -0.76666498 0.48666295
-18.80282021 -10.58965397 -0.08832374 -0.92163676 -0.94274580 -0.03994080
-18.59861565 -9.28540611 1.95434201 -0.91162747 -0.82663488 0.88377112
-18.48434639 -8.37919426 1.74844348 -0.90602648 -0.74595922 0.79066193
-18.54222488 -11.09587765 0.79166710 -0.90886343 -0.98781246 0.35799903
-18.52630997 -10.51068020 1.36629486 -0.90808338 -0.93571514 0.61785090
-18.51782799 -9.63180351 1.22451389 -0.90766758 -0.85747302 0.55373627
-18.47256470 -8.75326920 1.07975852 -0.90544897 -0.77926135 0.48827657
-18.81061935 -10.75018692 -0.08812638 -0.92201900 -0.95703727 -0.03985155
-18.59134865 -9.42823219 1.96015203 -0.91127127 -0.83935004 0.88639849
-18.49828148 -8.52594471 1.75529397 -0.90670949 -0.75902373 0.79375982
-18.51180267 -10.65668774 1.37052226 -0.90737230 -0.94871348 0.61976254
-18.51867867 -9.78064442 1.22907400 -0.90770930 -0.87072361 0.55579835
-18.47119141 -8.89509487 1.08332682 -0.90538168 -0.79188740 0.48989019
-18.81194687 -10.90822983 -0.08794279 -0.92208409 -0.97110707 -0.03976853
-18.56180191 -9.56037712 1.96355796 -0.90982300 -0.85111427 0.88793868
-18.48042870 -8.65886593 1.75899684 -0.90583444 -0.77085704 0.79543430
-18.76234436 -10.60291862 0.65094066 -0.91965276 -0.94392669 0.29436126
-18.52894020 -10.82201195 1.37742698 -0.90821230 -0.96343154 0.62288493
-18.52350616 -8.74284267 0.37397501 -0.90794593 -0.77833313 0.16911489
-18.52893448 -9.93554497 1.23441577 -0.90821201 -0.88451362 0.55821395
-18.46876144 -9.03724861 1.08689511 -0.90526259 -0.80454266 0.49150380
-18.50660515 -8.81326008 1.76732862 -0.90711749 -0.78460205 0.79920197
-19.59049034 -11.23277760 0.68869191 -0.96024507 -1.00000000 0.31143272
-18.51553345 -10.97070885 1.38193619 -0.90755516 -0.97666931 0.62492406
-18.51870155 -10.08044434 1.23832452 -0.90771043 -0.89741331 0.55998152
-18.46348381 -9.17883396 1.09034443 -0.90500391 -0.81714731 0.49306360
-18.49031830 -8.94841099 1.77140188 -0.90631920 -0.79663384 0.80104393
-18.51809502 -11.12992573 1.38785458 -0.90768069 -0.99084359 0.62760037
-18.53376579 -9.88656425 0.52941221 -0.90844882 -0.88015312 0.23940499
-18.52832794 -10.23720837 1.24379659 -0.90818226 -0.91136926 0.56245607
-18.47854996 -9.33148766 1.09522116 -0.90574235 -0.83073735 0.49526891
-18.60047913 -10.93967247 0.65196490 -0.91171885 -0.97390628 0.29482442
-18.59423065 -10.03179455 0.53328604 -0.91141254 -0.89308226 0.24115677
-18.53212166 -10.35365868 1.24770534 -0.90836823 -0.92173630 0.56422365
-18.47884178 -9.44112682 1.09819472 -0.90575665 -0.84049797 0.49661359
-18.56205177 -9.23617554 1.78917611 -0.90983528 -0.82225215 0.80908161
-18.54511452 -11.06450558 0.65255022 -0.90900511 -0.98501956 0.29508913
-18.53784370 -10.51031971 1.25304711 -0.90864867 -0.93568307 0.56663924
-18.48475838 -9.59100246 1.10259569 -0.90604669 -0.85384071 0.49860373
-18.57655716 -9.38938046 1.79676712 -0.91054624 -0.83589125 0.81251436
-18.52849579 -10.65948486 1.25734663 -0.90819049 -0.94896251 0.56858349
-18.48068237 -9.73667908 1.10640180 -0.90584689 -0.86680955 0.50032490
-18.56328011 -9.52951622 1.80158103 -0.90989548 -0.84836686 0.81469125
-18.54039764 -10.82204628 1.26334000 -0.90877390 -0.96343458 0.57129377
-18.47374153 -9.88174248 1.11008906 -0.90550667 -0.87972385 0.50199229
-18.57017517 -9.68087959 1.80861664 -0.91023344 -0.86184204 0.81787282
-19.41995811 -11.11760998 0.57297689 -0.95188630 -0.98974717 0.25910532
-18.53210449 -10.97397232 1.26790011 -0.90836740 -0.97695982 0.57335591
-18.48501587 -10.03756332 1.11508477 -0.90605927 -0.89359581 0.50425142
-18.51555824 -9.86784172 0.38641593 -0.90755635 -0.87848634 0.17474078
-18.54828072 -11.14165974 1.27441454 -0.90916026 -0.99188823 0.57630175
-18.49155998 -10.19198990 1.11984253 -0.90638006 -0.90734369 0.50640291
-18.64529419 -10.94727325 0.54897189 -0.91391546 -0.97458291 0.24825005
-18.59563828 -10.02316475 0.39001331 -0.91148156 -0.89231402 0.17636755
-18.49741554 -10.30909348 1.12352979 -0.90666705 -0.91776884 0.50807035
-18.57271004 -11.06215954 0.54884487 -0.91035771 -0.98481071 0.24819261
-18.51051903 -10.46926594 1.12888217 -0.90730935 -0.93202823 0.51049072
-18.50501060 -10.62008667 1.13304520 -0.90703934 -0.94545507 0.51237327
-18.51989555 -10.36862087 1.83490777 -0.90776896 -0.92306828 0.82976186
-18.78333092 -10.58551788 0.40090534 -0.92068148 -0.94237757 0.18129303
