-7.16790962 6.94127417 1.70473421 -0.35586834 0.95100212 0.81687844
-7.20282030 6.88794708 1.70267415 -0.35760155 0.94369596 0.81589127
-7.18136883 6.78181171 1.68722343 -0.35653654 0.92915469 0.80848753
-7.21357822 7.16238117 0.75161451 -0.35813567 0.98129529 0.36016035
-7.19063187 6.70571804 1.67932653 -0.35699645 0.91872931 0.80470353
-7.20334339 7.12082672 0.04798146 -0.35762754 0.97560209 0.02299186
-7.16578627 7.02643299 0.74027628 -0.35576293 0.96266949 0.35472727
-7.19051123 6.62178612 1.66936946 -0.35699046 0.90723008 0.79993224
-7.17338943 7.00294018 0.04607353 -0.35614040 0.95945078 0.02207762
-7.16344357 7.15759516 1.09704292 -0.35564661 0.98063958 0.52568352
-7.08449125 7.05395126 0.39466709 -0.35172683 0.96643966 0.18911748
-7.20549059 6.97712183 0.73975295 -0.35773414 0.95591354 0.35447651
-7.18231916 6.53150988 1.65769565 -0.35658374 0.89486164 0.79433835
-7.20282412 6.94388103 0.04570661 -0.35760176 0.95135927 0.02190180
-7.15326643 7.08055258 1.08953178 -0.35514134 0.97008425 0.52208430
-7.19886303 7.10026360 0.40073293 -0.35740510 0.97278476 0.19202411
-7.17634201 6.88390923 0.73225230 -0.35628697 0.94314277 0.35088232
-7.18796825 7.04073954 -0.28717676 -0.35686418 0.96462959 -0.13761002
-7.15875101 6.44891214 1.64499187 -0.35541365 0.88354516 0.78825092
-7.15067053 6.98976755 1.08153594 -0.35501245 0.95764607 0.51825285
-7.21179628 7.02429914 0.39839175 -0.35804719 0.96237713 0.19090226
-7.18612003 6.80723763 0.72824031 -0.35677242 0.93263823 0.34895983
-7.23926544 7.00237465 -0.28732511 -0.35941097 0.95937330 -0.13768110
-7.18290472 6.38943481 1.64121497 -0.35661280 0.87539637 0.78644115
-7.07197618 6.97745991 1.64521503 -0.35110548 0.95595986 0.78835785
-7.16582394 6.91718340 1.07668996 -0.35576478 0.94770151 0.51593071
-7.18064117 6.71713543 0.72248399 -0.35650042 0.92029357 0.34620151
-7.16545105 7.19052267 0.69859415 -0.35574627 0.98515087 0.33475393
-7.24399948 6.91953516 -0.28652385 -0.35964599 0.94802374 -0.13729715
-7.18583155 6.31174946 1.63263130 -0.35675812 0.86475295 0.78232795
-7.21435165 7.02942228 1.66854775 -0.35817406 0.96307904 0.79953849
-7.21616220 6.72048903 0.04306487 -0.35826394 0.92075306 0.02063592
-7.17602921 6.84058523 1.07111716 -0.35627145 0.93720704 0.51326036
-7.22404957 6.86175203 0.39285797 -0.35865554 0.94010705 0.18825057
-7.19337797 6.64490843 0.71899527 -0.35713276 0.91039801 0.34452978
-7.21331501 7.14817095 0.69892281 -0.35812259 0.97934842 0.33491144
-7.16420698 6.21367645 1.61855412 -0.35568452 0.85131627 0.77558243
-7.23001051 6.95655107 1.66188121 -0.35895148 0.95309520 0.79634404
-7.20073366 6.62234449 0.04163392 -0.35749796 0.90730661 0.01995024
-7.18265915 6.76141787 1.06505978 -0.35660061 0.92636061 0.51035774
-7.23199368 6.78350687 0.39030394 -0.35904995 0.92938691 0.18702672
-7.18926907 6.55805111 0.71358782 -0.35692877 0.89849794 0.34193864
-7.17135525 7.01749325 0.68889862 -0.35603940 0.96144468 0.33010802
-7.25121069 6.75451803 -0.28492132 -0.36000401 0.92541528 -0.13652925
-7.18361616 6.15192127 1.61409056 -0.35664812 0.84285539 0.77344358
-7.24361277 6.88240051 1.65488148 -0.35962680 0.94293606 0.79298985
-7.19474077 6.53404951 0.04045981 -0.35720044 0.89520955 0.01938762
-7.18732786 6.99343061 -0.01022564 -0.35683241 0.95814794 -0.00489994
-7.17838097 6.67299747 1.05730629 -0.35638821 0.91424638 0.50664246
-7.10206175 7.04834795 1.02595711 -0.35259917 0.96567196 0.49162045
-7.25979280 6.72439194 0.38923976 -0.36043009 0.92128778 0.18651679
-7.20199347 7.16457939 0.34626195 -0.35756052 0.98159647 0.16592258
-7.18732119 6.47417021 0.70852923 -0.35683206 0.88700569 0.33951464
-7.18955612 6.94731236 0.68594062 -0.35694304 0.95182943 0.32869059
-7.17848873 6.60346127 -0.28260654 -0.35639358 0.90471947 -0.13542004
-7.17841673 6.06986475 1.60413349 -0.35639000 0.83161306 0.76867235
-7.23934555 6.79212809 1.64388180 -0.35941494 0.93056810 0.78771901
-7.21029711 6.46607256 0.03983606 -0.35797277 0.88589627 0.01908873
-7.16585112 6.59884262 1.05003726 -0.35576615 0.90408665 0.50315922
-7.14933491 7.02875853 1.02826965 -0.35494614 0.96298808 0.49272859
-7.24569464 6.64834356 0.38594079 -0.35973015 0.91086864 0.18493599
-7.16183043 7.05749702 0.34130993 -0.35556653 0.96692544 0.16354968
-7.16710997 6.39523506 0.70259845 -0.35582864 0.87619102 0.33667272
-7.15179777 6.84567499 0.67788845 -0.35506842 0.93790442 0.32483214
-7.30578804 6.65690994 -0.28453553 -0.36271363 0.91204232 -0.13634439
-7.17364883 6.00821018 1.59657991 -0.35615328 0.82316595 0.76505280
-7.23955393 6.72833776 1.63654864 -0.35942531 0.92182839 0.78420508
-7.19126129 6.38830185 0.03862526 -0.35702768 0.87524116 0.01850854
-7.16155195 6.51237917 1.04252613 -0.35555270 0.89224058 0.49956003
-7.16063833 6.95180511 1.02295089 -0.35550734 0.95244497 0.49017993
-7.21911573 6.54114246 0.38104552 -0.35841060 0.89618134 0.18259026
-7.20603228 7.01235867 0.34130993 -0.35776103 0.96074122 0.16354968
-7.16970873 6.31722784 0.69823760 -0.35595766 0.86550349 0.33458307
-7.15129709 6.75943899 0.67295849 -0.35504356 0.92608947 0.32246977
-7.37576818 6.63623142 -0.28509939 -0.36618799 0.90920919 -0.13661458
-7.16562319 5.92544985 1.58627951 -0.35575482 0.81182724 0.76011699
-7.24262905 7.00278425 -0.34700355 -0.35957795 0.95942944 -0.16627795
-7.22948027 6.63460779 1.62454891 -0.35892516 0.90898675 0.77845502
-7.18908787 6.30615950 0.03759791 -0.35691980 0.86398709 0.01801625
-7.17338467 5.64921188 2.03905654 -0.35614017 0.77398074 0.97707975
-7.15201092 6.42226171 1.03428805 -0.35507900 0.87989390 0.49561250
-7.17060232 6.41594076 0.37466043 -0.35600203 0.87902784 0.17953064
-7.17763472 6.24465990 0.69457448 -0.35635117 0.85556120 0.33282778
-7.16453981 6.68711138 0.66967189 -0.35570103 0.91618007 0.32089490
-7.36190367 6.54072762 -0.28400132 -0.36549965 0.89612454 -0.13608840
-7.17213249 5.85545635 1.57941258 -0.35607800 0.80223763 0.75682652
-7.25761747 6.92946434 -0.34617341 -0.36032209 0.94938409 -0.16588016
-7.23164320 6.55321741 1.61554921 -0.35903254 0.89783573 0.77414256
-7.18919611 6.22691011 0.03664395 -0.35692516 0.85312939 0.01755913
-7.19948292 5.59686708 2.03639913 -0.35743588 0.76680917 0.97580636
-7.27109480 6.74853134 -0.01160006 -0.36099121 0.92459506 -0.00555854
-7.14608717 6.33646536 1.02677679 -0.35478491 0.86813921 0.49201325
-7.18263626 6.79968357 1.01254475 -0.35659948 0.93160325 0.48519349
-7.18799734 7.18375015 1.34475994 -0.35686564 0.98422301 0.64438510
-7.17478514 6.33909988 0.37210637 -0.35620970 0.86850011 0.17830677
-7.17433500 6.16317749 0.68969029 -0.35618734 0.84439754 0.33048737
-7.14207363 7.10197115 0.63573748 -0.35458565 0.97301871 0.30463412
-7.36369801 6.46013451 -0.28322974 -0.36558872 0.88508272 -0.13571867
-7.15653181 5.76835251 1.56773877 -0.35530347 0.79030383 0.75123262
-7.23566866 6.82186651 -0.34430555 -0.35923240 0.93464249 -0.16498512
-7.22133589 6.46151876 1.60388279 -0.35852081 0.88527238 0.76855218
-7.17793703 6.13883448 0.03543315 -0.35636616 0.84106243 0.01697894
-7.20195818 5.52665997 2.02709842 -0.35755876 0.75719029 0.97134966
-7.18179274 7.11143255 -0.04713602 -0.35655761 0.97431499 -0.02258674
-7.15882301 6.26795769 1.02241552 -0.35541722 0.85875314 0.48992339
-7.19914627 6.72994661 1.00838232 -0.35741916 0.92204881 0.48319894
-7.26827526 7.17312813 1.35198510 -0.36085123 0.98276770 0.64784729
-7.18431807 6.26770020 0.36997801 -0.35668299 0.85871786 0.17728691
-7.26417637 6.80684280 0.33654836 -0.36064774 0.93258411 0.16126801
-7.17638493 6.08712626 0.68550390 -0.35628912 0.83397800 0.32848132
-7.16413879 6.51990652 0.66030502 -0.35568112 0.89327186 0.31640646
-7.11669874 6.98863602 0.62822884 -0.35332584 0.95749104 0.30103612
-7.36780071 6.38239098 -0.28251749 -0.36579242 0.87443131 -0.13537738
-7.17255545 5.70736885 1.56327522 -0.35609898 0.78194863 0.74909377
-7.24333191 6.74349689 -0.34330937 -0.35961285 0.92390531 -0.16450776
-7.22343969 6.38198900 1.59521639 -0.35862526 0.87437624 0.76439941
-7.14136744 6.03055906 0.03363529 -0.35455060 0.82622790 0.01611743
-7.21006632 5.46133995 2.01956940 -0.35796130 0.74824101 0.96774185
-7.21800900 6.10277271 2.05737805 -0.35835564 0.83612168 0.98585910
-7.14635086 7.10130835 1.59655154 -0.35479799 0.97292793 0.76503921
-7.19481325 7.03547049 -0.04753093 -0.35720402 0.96390766 -0.02277598
-7.15743923 6.18788481 1.01587343 -0.35534850 0.84778261 0.48678854
-7.19466782 6.64136410 1.00098240 -0.35719681 0.90991241 0.47965303
-7.13173008 7.15445900 0.99741274 -0.35407212 0.98020995 0.47794250
-7.19392014 7.01153183 1.32770848 -0.35715970 0.96062791 0.63621438
-7.17959499 6.18472958 0.36689186 -0.35644847 0.84735036 0.17580807
-7.19850016 6.66044283 0.32950121 -0.35738707 0.91252631 0.15789114
-7.18082428 6.01384592 0.68166631 -0.35650951 0.82393813 0.32664242
-7.12801552 6.40532303 0.65175986 -0.35388771 0.87757313 0.31231177
-7.10737276 7.09603786 0.29410768 -0.35286283 0.97220582 0.14093119
-7.21067190 6.99226856 0.63359219 -0.35799137 0.95798874 0.30360615
-7.22354317 6.17907524 -0.27892661 -0.35863039 0.84657568 -0.13365668
-7.16171026 5.62578011 1.55297482 -0.35556054 0.77077043 0.74415803
-7.23413563 6.65038204 -0.34185660 -0.35915628 0.91114795 -0.16381162
-7.22779703 6.30528879 1.58721662 -0.35884160 0.86386776 0.76056606
-7.22835398 6.02643967 0.03480940 -0.35886925 0.82566357 0.01668005
-7.19103909 5.37634373 2.00451112 -0.35701665 0.73659593 0.96052617
-7.21730471 6.02468061 2.04614258 -0.35832068 0.82542253 0.98047525
-7.07787132 6.94587040 1.57098913 -0.35139817 0.95163184 0.75279015
-7.15382957 6.90833282 -0.04858999 -0.35516930 0.94648898 -0.02328346
-7.15026283 6.12317419 1.01005828 -0.35499221 0.83891684 0.48400202
-7.15418339 6.54154921 0.98965120 -0.35518688 0.89623708 0.47422332
-7.16395283 7.11937428 0.99718922 -0.35567188 0.97540307 0.47783539
-7.21261644 6.96383619 1.32481849 -0.35808793 0.95409328 0.63482952
-7.14625549 6.09781218 0.36252871 -0.35479325 0.83544207 0.17371733
-7.20481777 6.60344791 0.32788229 -0.35770074 0.90471762 0.15711538
-7.17375088 5.95076084 0.67765433 -0.35615835 0.81529504 0.32471994
-7.20567369 6.41417170 0.65701842 -0.35774323 0.87878549 0.31483158
-7.13788605 7.05966234 0.29393575 -0.35437775 0.96722215 0.14084880
-7.23271036 6.12820339 -0.27854082 -0.35908553 0.83960587 -0.13347182
-7.15231085 5.56422329 1.54507792 -0.35509390 0.76233673 0.74037397
-7.21817446 6.57303810 -0.34052834 -0.35836387 0.90055126 -0.16317515
-7.21721601 6.23626089 1.57821679 -0.35831627 0.85441047 0.75625348
-7.21496677 5.95802212 0.03381874 -0.35820460 0.81628984 0.01620534
-7.19588280 5.32735729 1.99875355 -0.35725713 0.72988445 0.95776725
-7.15304279 6.33089018 -0.01628328 -0.35513023 0.86737537 -0.00780266
-7.21406746 5.96440411 2.03706765 -0.35815996 0.81716424 0.97612673
-7.24953222 7.04702187 1.60230303 -0.35992068 0.96549028 0.76779521
-7.15366268 6.04872131 1.00448549 -0.35516101 0.82871628 0.48133165
-7.18778515 6.48979712 0.98849499 -0.35685509 0.88914669 0.47366929
-7.17727470 7.04365873 0.99227166 -0.35633329 0.96502954 0.47547898
-7.22035170 6.88431311 1.31759334 -0.35847196 0.94319808 0.63136739
-7.13393307 6.01043606 0.35901690 -0.35418150 0.82347095 0.17203453
-7.22694683 6.54058218 0.32664427 -0.35879940 0.89610457 0.15652214
-7.13674545 6.27247953 0.64502227 -0.35432112 0.85937268 0.30908325
-7.20215416 7.03418016 0.29513925 -0.35756850 0.96373087 0.14142551
-7.19289970 6.82354784 0.62363166 -0.35710904 0.93487281 0.29883322
-7.23573065 6.05320215 -0.27785826 -0.35923547 0.82933021 -0.13314475
-7.15112686 5.49165440 1.53718090 -0.35503513 0.75239432 0.73658985
-7.21480894 6.48735332 -0.33928311 -0.35819677 0.88881189 -0.16257845
-7.22780466 6.16641140 1.57188368 -0.35884199 0.84484065 0.75321877
-7.21810246 5.88484764 0.03301154 -0.35836029 0.80626446 0.01581855
-7.21974897 5.27515697 1.99609613 -0.35844204 0.72273266 0.95649385
-7.21672821 6.30692863 -0.01587605 -0.35829204 0.86409247 -0.00760752
-7.25442028 5.92143583 2.03793192 -0.36016336 0.81127727 0.97654086
-7.28360701 7.07685232 -0.38927722 -0.36161241 0.96957725 -0.18653475
-7.19520044 6.90719318 1.58025551 -0.35722324 0.94633281 0.75723040
-7.15641117 5.97446823 0.99891269 -0.35529748 0.81854308 0.47866127
-7.15589714 6.37957573 0.97716385 -0.35527194 0.87404561 0.46823961
-7.19564962 6.97357941 0.98824823 -0.35724556 0.95542818 0.47355103
-7.20716333 6.78601694 1.30632198 -0.35781717 0.92973083 0.62596631
-7.14233112 5.94129133 0.35699496 -0.35459843 0.81399763 0.17106566
-7.15490246 6.39363861 0.31940669 -0.35522255 0.87597233 0.15305403
-7.13776588 5.77144623 0.66526949 -0.35437179 0.79072767 0.31878534
-7.15798426 6.21179867 0.64305031 -0.35537556 0.85105902 0.30813831
-7.18897200 6.73468876 0.61872804 -0.35691404 0.92269850 0.29648352
-7.23963976 5.97967577 -0.27720538 -0.35942957 0.81925654 -0.13283190
-7.14302301 5.41457462 1.52791047 -0.35463279 0.74183387 0.73214763
-7.21960831 6.40995646 -0.33828694 -0.35843503 0.87820798 -0.16210110
-7.22274637 6.08393908 1.56221724 -0.35859084 0.83354133 0.74858683
-7.22216463 5.81312037 0.03224103 -0.35856196 0.79643732 0.01544933
-7.19570637 5.18875456 1.98015213 -0.35724837 0.71089494 0.94885379
-7.18971634 6.20383310 -0.01699595 -0.35695100 0.84996766 -0.00814416
-7.38862419 5.95436716 2.06558871 -0.36682624 0.81578910 0.98979348
-7.21228981 6.92044067 -0.38531774 -0.35807171 0.94814783 -0.18463743
-7.20113182 6.82660913 1.57194781 -0.35751775 0.93529224 0.75324953
-7.15850973 5.90042019 0.99333984 -0.35540166 0.80839801 0.47599083
-7.16309595 6.30554056 0.97207642 -0.35562935 0.86390227 0.46580178
-7.20479584 6.89532042 0.98288357 -0.35769963 0.94470614 0.47098038
-7.19883537 6.69353914 1.29620683 -0.35740373 0.91706073 0.62111932
-7.15950871 7.14842558 1.28703260 -0.35545126 0.97938329 0.61672318
-7.13468170 5.85963726 0.35390884 -0.35421866 0.80281049 0.16958684
-7.14260292 6.30218458 0.31607357 -0.35461193 0.86344248 0.15145685
-7.13957071 5.69921589 0.66143197 -0.35446137 0.78083163 0.31694648
-7.14097261 6.11859465 0.63697010 -0.35453099 0.83828938 0.30522478
-7.19284821 6.85098791 0.28937966 -0.35710648 0.93863231 0.13866560
-7.19741249 6.65831041 0.61520356 -0.35733309 0.91223419 0.29479465
-7.19773340 7.15080309 0.57844609 -0.35734901 0.97970903 0.27718112
-7.23204374 5.89751720 -0.27634475 -0.35905242 0.80800027 -0.13241950
-7.16425991 5.36017323 1.52516377 -0.35568714 0.73438048 0.73083144
-7.22372150 6.33275652 -0.33729076 -0.35863924 0.86763108 -0.16162376
-7.22147942 6.00556803 1.55355084 -0.35852793 0.82280397 0.74443400
-7.19155741 5.11751652 1.96996570 -0.35704240 0.70113486 0.94397265
-7.27261925 6.19624233 -0.01625783 -0.36106691 0.84892768 -0.00779046
-7.21536684 5.73960161 2.00595379 -0.35822448 0.78636473 0.96121752
-7.29198265 6.90929413 -0.38655508 -0.36202824 0.94662064 -0.18523034
-7.21355677 6.75295591 1.56523764 -0.35813460 0.92520124 0.75003415
-7.24459219 6.51101780 2.04899406 -0.35967544 0.89205408 0.98184162
-7.20935583 7.11891365 -0.11459502 -0.35792604 0.97533995 -0.05491190
-7.13836575 5.80908775 0.98437482 -0.35440156 0.79588485 0.47169498
-7.16665506 6.22905493 0.96652645 -0.35580605 0.85342324 0.46314234
-7.24797773 6.84991550 0.98288357 -0.35984352 0.93848538 0.47098038
-7.25827551 6.66420078 1.29967487 -0.36035478 0.91304117 0.62278116
-7.19583750 7.09494066 1.28535748 -0.35725489 0.97205549 0.61592054
-7.14183044 5.79085970 0.35188687 -0.35457358 0.79338747 0.16861795
-7.14597654 6.22561026 0.31378803 -0.35477942 0.85295129 0.15036166
-7.13918352 5.62596178 0.65741998 -0.35444215 0.77079535 0.31502399
-7.13978338 6.04004908 0.63269746 -0.35447195 0.82752812 0.30317742
-7.18908644 6.76194668 0.28662881 -0.35691971 0.92643303 0.13734744
-7.19337845 6.57135820 0.61045319 -0.35713279 0.90032113 0.29251835
-7.14871454 7.01303673 0.56914580 -0.35491535 0.96083409 0.27272457
-7.24554920 5.83320093 -0.27589959 -0.35972294 0.79918849 -0.13220619
-7.16921949 5.29405069 1.51898348 -0.35593337 0.72532123 0.72786999
-7.22413254 6.25313520 -0.33621156 -0.35865965 0.85672235 -0.16110662
-7.22864246 5.93498230 1.54688430 -0.35888356 0.81313324 0.74123955
-7.18999624 5.04877090 1.96066499 -0.35696489 0.69171619 0.93951589
-7.21363926 6.06782532 -0.01788678 -0.35813871 0.83133364 -0.00857103
-7.38773870 5.80179024 2.04441404 -0.36678228 0.79488504 0.97964698
-7.27966738 6.81154442 -0.38467434 -0.36141682 0.93322825 -0.18432912
-7.30813456 6.75563860 1.57674074 -0.36283013 0.92556882 0.75554621
-7.23699665 6.42263222 2.03519034 -0.35929832 0.87994462 0.97522712
-7.21535683 7.03569841 -0.11471894 -0.35822397 0.96393889 -0.05497128
-7.13441324 5.73188257 0.97807515 -0.35420534 0.78530723 0.46867627
-7.15448999 6.13980484 0.95866400 -0.35520208 0.84119534 0.45937479
-7.19479275 6.71493816 0.96813095 -0.35720301 0.91999257 0.46391118
-7.13063574 7.14187098 0.92727709 -0.35401779 0.97848529 0.44433475
-7.19130754 6.52032375 1.27828836 -0.35702997 0.89332902 0.61253315
-7.12273407 6.93468189 1.26218534 -0.35362548 0.95009893 0.60481685
-7.14995956 5.72346878 0.34997132 -0.35497716 0.78415447 0.16770005
-7.14715958 6.14793730 0.31140724 -0.35483816 0.84230953 0.14922082
-7.14288473 5.55659819 0.65393126 -0.35462591 0.76129204 0.31335226
-7.21089458 6.69764757 0.28542534 -0.35800242 0.91762364 0.13677076
-7.23867416 7.21547651 0.23618940 -0.35938162 0.98856974 0.11317777
-7.19595480 6.49138403 0.60646898 -0.35726070 0.88936412 0.29060918
-7.37301683 5.85952902 -0.27762085 -0.36605138 0.80279565 -0.13303100
-7.17363167 5.22807837 1.51280332 -0.35615242 0.71628255 0.72490853
-7.22534752 6.17506266 -0.33517388 -0.35871997 0.84602588 -0.16060938
-7.22755861 5.85831928 1.53855121 -0.35882977 0.80262989 0.73724645
-7.17365551 5.55510473 0.02860863 -0.35615361 0.76108742 0.01370875
-7.19106817 4.98246193 1.95225012 -0.35701811 0.68263143 0.93548363
-7.21169329 5.98907518 -0.01854854 -0.35804209 0.82054436 -0.00888813
-7.20064068 5.58129358 1.98175430 -0.35749334 0.76467550 0.94962156
-7.27229881 6.71963930 -0.38299158 -0.36105099 0.92063665 -0.18352278
-7.20580912 6.57810974 1.54510736 -0.35774994 0.90124613 0.74038804
-7.34204769 6.43361282 2.05359530 -0.36451384 0.88144904 0.98404646
-7.24360418 6.97493267 -0.11476942 -0.35962638 0.95561361 -0.05499547
-7.14267015 5.68340731 0.97516757 -0.35461527 0.77866578 0.46728301
-7.15161562 6.07893419 0.95380783 -0.35505939 0.83285564 0.45704779
-7.22197008 6.67692089 0.96746033 -0.35855231 0.91478395 0.46358985
-7.17125702 7.11520815 0.92832744 -0.35603452 0.97483230 0.44483805
-7.20720291 6.47317028 1.27539837 -0.35781914 0.88686872 0.61114830
-7.22504377 6.96854830 1.27586520 -0.35870489 0.95473886 0.61137199
-7.12825060 5.65135765 0.34667236 -0.35389936 0.77427471 0.16611925
-7.13506985 6.07911873 0.30883598 -0.35423791 0.83288091 0.14798872
-7.12946367 5.49256706 0.64957041 -0.35395959 0.75251931 0.31126264
-7.12911177 5.89748526 0.62448096 -0.35394213 0.80799592 0.29924020
-7.17313433 6.60014820 0.28138500 -0.35612774 0.90426552 0.13483471
-7.18885326 7.09826422 0.23187289 -0.35690814 0.97251087 0.11110938
-7.16687489 6.40437841 0.60033947 -0.35581696 0.87744373 0.28767204
-7.35175037 5.78648376 -0.27670085 -0.36499557 0.79278791 -0.13259014
-7.20619059 5.19996166 1.51452005 -0.35776889 0.71243042 0.72573113
-7.21018744 6.10338497 -0.33397013 -0.35796732 0.83620560 -0.16003257
-7.21977758 5.79572392 1.53088474 -0.35844344 0.79405391 0.73357284
-7.16319466 5.49333239 0.02776474 -0.35563424 0.75262421 0.01330437
-7.15969610 4.91113806 1.93719184 -0.35546055 0.67285955 0.92826802
-7.24232531 5.55922413 1.98607564 -0.35956287 0.76165181 0.95169222
-7.26546526 6.65027523 -0.38170475 -0.36071172 0.91113329 -0.18290615
-7.19418144 6.50576687 1.53584099 -0.35717267 0.89133465 0.73594779
-7.35304785 6.38231707 2.04815745 -0.36505997 0.87442118 0.98144072
-7.29683113 7.03746223 2.04258823 -0.36226895 0.96418059 0.97877204
-7.13288403 5.60295439 0.96814096 -0.35412940 0.76764315 0.46391597
-7.15017653 6.00058985 0.94779539 -0.35498795 0.82212192 0.45416674
-7.17260456 6.54852009 0.95360178 -0.35610142 0.89719212 0.45694906
-7.16619587 7.02119064 0.92097521 -0.35578325 0.96195126 0.44131500
-7.19136429 6.37797880 1.26441610 -0.35703281 0.87382680 0.60588580
-7.17851448 6.83678293 1.25827670 -0.35639483 0.93668610 0.60294390
-7.13841009 5.58682013 0.34496966 -0.35440376 0.76543266 0.16530335
-7.14718390 6.01224947 0.30721706 -0.35483935 0.82371938 0.14721297
-7.01608992 5.33583927 0.63334799 -0.34833089 0.73104656 0.30348912
-7.12595940 5.81970596 0.62020832 -0.35378560 0.79733962 0.29719284
-7.17593861 6.52009249 0.27914995 -0.35626695 0.89329737 0.13376370
-7.22902632 7.04876089 0.23165339 -0.35890263 0.96572858 0.11100420
-7.14555311 6.30525732 0.59405667 -0.35475838 0.86386347 0.28466141
-7.20522547 6.82796431 0.56294560 -0.35772097 0.93547791 0.26975355
-7.35948944 5.71815395 -0.27616668 -0.36537978 0.78342628 -0.13233417
-7.20174599 5.12837982 1.50662303 -0.35754824 0.70262319 0.72194707
-7.19632244 6.01425171 -0.33255887 -0.35727897 0.82399368 -0.15935631
-7.22519302 5.72568274 1.52421832 -0.35871232 0.78445780 0.73037839
-7.14805841 5.41091490 0.02662732 -0.35488278 0.74133241 0.01275934
-7.17099905 4.85298395 1.93187714 -0.35602173 0.66489208 0.92572129
-7.19807482 5.84495258 -0.01984661 -0.35736597 0.80079859 -0.00951014
-7.20408201 5.45802116 1.96576524 -0.35766420 0.74778628 0.94195986
-7.24469185 6.54831457 -0.37962604 -0.35968038 0.89716399 -0.18191007
-7.19360495 6.42370272 1.52689421 -0.35714406 0.88009131 0.73166066
-7.27827215 7.05351734 -0.45432258 -0.36134756 0.96638024 -0.21770333
-7.03425169 6.98606110 1.48010194 -0.34923255 0.95713824 0.70923859
-7.35432434 6.30298138 2.03728175 -0.36512336 0.86355168 0.97622931
-7.28207827 6.85913467 -0.11488876 -0.36153653 0.93974847 -0.05505266
-7.25877190 6.91293812 2.01930761 -0.36037943 0.94711989 0.96761644
-7.12394238 5.52406311 0.96135664 -0.35368547 0.75683451 0.46066505
-7.14651060 5.92123413 0.94155169 -0.35480592 0.81124967 0.45117489
-7.31565475 6.59493589 0.96902502 -0.36320350 0.90355140 0.46433961
-7.17878437 6.94553614 0.91635388 -0.35640824 0.95158607 0.43910053
-7.20444775 6.30925703 1.25921392 -0.35768235 0.86441147 0.60339302
-7.21269035 6.78338623 1.25660157 -0.35809159 0.92937040 0.60214120
-7.14012480 5.51629162 0.34273487 -0.35448888 0.75576979 0.16423248
-7.14339972 5.93267202 0.30464581 -0.35465148 0.81281674 0.14598086
-7.17717075 5.38704300 0.64730275 -0.35632813 0.73806185 0.31017601
-7.14999342 5.76478148 0.61889368 -0.35497883 0.78981459 0.29656288
-7.19143248 6.45224476 0.27768856 -0.35703617 0.88400173 0.13306344
-7.26455021 6.99486542 0.23121443 -0.36066630 0.95834452 0.11079386
-7.17448521 6.25108910 0.59298402 -0.35619479 0.85644203 0.28414744
-7.22762966 6.76343250 0.56097281 -0.35883328 0.92663664 0.26880822
-7.34281969 5.63175344 -0.27518734 -0.36455217 0.77158880 -0.13186489
-7.19830275 5.05818939 1.49906933 -0.35737729 0.69300663 0.71832746
-7.18932152 5.93191481 -0.33135515 -0.35693139 0.81271297 -0.15877952
-7.21295881 5.64239979 1.51388526 -0.35810491 0.77304745 0.72542697
-7.15463591 5.34561062 0.02600357 -0.35520932 0.73238528 0.01246045
-7.17860460 4.79272413 1.92567670 -0.35639933 0.65663606 0.92275012
-7.19415951 5.76699924 -0.02050836 -0.35717157 0.79011840 -0.00982724
-7.17734528 5.36690426 1.94891191 -0.35633680 0.73530269 0.93388402
-7.20947695 6.43492556 -0.37710187 -0.35793206 0.88162893 -0.18070053
-7.18634844 6.33669424 1.51666927 -0.35678378 0.86817056 0.72676104
-7.35415840 7.03811884 -0.45569551 -0.36511511 0.96427053 -0.21836121
-7.18225002 7.04438210 1.50244498 -0.35658029 0.96512866 0.71994501
-7.18439531 6.08021784 1.97872031 -0.35668680 0.83303154 0.94816768
-7.25633335 6.74908495 -0.11510447 -0.36025834 0.92467088 -0.05515602
-7.22371244 6.79320908 1.99723113 -0.35863879 0.93071622 0.95703775
-7.12060976 5.45031881 0.95554149 -0.35352001 0.74673104 0.45787853
-7.19186306 6.40249968 0.94421375 -0.35705757 0.87718636 0.45245048
-7.16056538 6.84108734 0.90732116 -0.35550371 0.93727589 0.43477222
-7.20495510 6.23029327 1.25169981 -0.35770756 0.85359287 0.59979236
-7.21606302 6.70146608 1.24906373 -0.35825902 0.91814679 0.59852922
-7.18896103 5.48218775 0.34369266 -0.35691348 0.75109732 0.16469143
-7.12502098 5.84194994 0.30121747 -0.35373902 0.80038720 0.14433807
-7.17078590 5.31228256 0.64294189 -0.35601112 0.72781914 0.30808637
-7.12224531 5.66870832 0.61215615 -0.35360122 0.77665192 0.29333436
-7.19437027 6.37388563 0.27553946 -0.35718203 0.87326604 0.13203362
-7.41822529 7.05397367 0.23677468 -0.36829588 0.96644276 0.11345823
-7.17424393 6.17215824 0.58899981 -0.35618281 0.84562796 0.28223827
-7.24219608 6.69210434 0.55829543 -0.35955647 0.91686416 0.26752529
-7.18884277 7.17645931 0.52499288 -0.35690761 0.98322409 0.25156727
-7.33653641 5.55421448 -0.27441576 -0.36424023 0.76096547 -0.13149516
-7.16020536 4.96474838 1.48430550 -0.35548583 0.68020457 0.71125287
-7.19859505 5.86383390 -0.33060801 -0.35739180 0.80338544 -0.15842150
-7.20931435 5.56675005 1.50555217 -0.35792398 0.76268291 0.72143394
-7.31866264 5.39638424 0.02897554 -0.36335284 0.73934162 0.01388456
-7.20205116 4.74324942 1.92390513 -0.35756338 0.64985770 0.92190123
-7.21249294 5.32286501 1.94934404 -0.35808179 0.72926897 0.93409109
-7.21670532 6.36048651 -0.37601301 -0.35829091 0.87143028 -0.18017878
-7.19618559 6.26555061 1.51027870 -0.35727218 0.85842335 0.72369879
-7.17250872 6.94673777 1.49097145 -0.35609668 0.95175070 0.71444708
-7.13628721 6.11365795 -0.05350838 -0.35429835 0.83761305 -0.02564027
-7.19388962 6.01119232 1.97077274 -0.35715818 0.82357454 0.94435936
-7.74407196 7.11419344 -0.11371380 -0.38447332 0.97469324 -0.05448964
-7.22326326 6.70760107 1.98518932 -0.35861650 0.91898733 0.95126754
-7.05951071 5.33388281 0.94100368 -0.35048661 0.73077852 0.45091230
-7.19605684 6.32576942 0.93884915 -0.35726577 0.86667377 0.44987988
-7.17741728 6.77134037 0.90354002 -0.35634038 0.92772007 0.43296036
-7.21531057 6.16054630 1.24620867 -0.35822168 0.84403706 0.59716111
-7.19684029 6.59964943 1.23733807 -0.35730466 0.90419722 0.59291047
-7.13960028 7.07056665 1.22060609 -0.35446286 0.96871608 0.58489281
-7.18330526 5.40697384 0.34103218 -0.35663268 0.74079245 0.16341658
-7.13368654 5.77438068 0.29950330 -0.35416925 0.79112971 0.14351667
-7.17180157 5.24367762 0.63945323 -0.35606155 0.71841979 0.30641466
-7.11234951 5.58803272 0.60739052 -0.35310993 0.76559877 0.29105076
-7.19058228 6.29049587 0.27304652 -0.35699397 0.86184102 0.13083905
-7.14132118 6.06643581 0.58179760 -0.35454828 0.83114326 0.27878711
-7.25321054 6.61816549 0.55533624 -0.36010331 0.90673405 0.26610729
-7.14834833 7.04725456 0.51717556 -0.35489717 0.96552217 0.24782136
-7.35203409 5.49368668 -0.27405962 -0.36500964 0.75267273 -0.13132451
-7.14728165 4.88972712 1.47503507 -0.35484421 0.66992611 0.70681065
-7.20263147 5.79210186 -0.32973635 -0.35759220 0.79355764 -0.15800382
-7.21126842 5.49616623 1.49855232 -0.35802099 0.75301242 0.71807969
-7.33622932 5.33856392 0.02860863 -0.36422497 0.73141986 0.01370875
-7.21860695 4.68943548 1.92036200 -0.35838532 0.64248478 0.92020345
-7.19221640 5.23823261 1.93465149 -0.35707510 0.71767378 0.92705071
-7.20061970 6.26657104 -0.37418175 -0.35749230 0.85856318 -0.17930126
-7.19041491 6.18169641 1.50069284 -0.35698566 0.84693480 0.71910542
-7.21173668 6.89742661 1.49006569 -0.35804424 0.94499475 0.71401304
-7.18315411 5.92615080 1.95738721 -0.35662520 0.81192327 0.93794525
-7.83297968 7.10579491 -0.11357611 -0.38888735 0.97354263 -0.05442366
-7.20040464 6.60236120 1.96712673 -0.35748163 0.90456873 0.94261223
-7.14189148 5.34324026 0.94972640 -0.35457662 0.73206055 0.45509204
-7.13314819 5.70480013 0.92443931 -0.35414252 0.78159672 0.44297493
-7.15287590 7.05912638 -0.17126209 -0.35512194 0.96714872 -0.08206575
-7.18824530 6.25923967 0.93326098 -0.35687795 0.85755873 0.44720212
-7.15413380 6.68572330 0.89555764 -0.35518441 0.91598994 0.42913535
-7.20490170 6.09333467 1.23869455 -0.35770491 0.83482862 0.59356046
-7.16640902 6.50960636 1.22561228 -0.35579383 0.89186066 0.58729166
-7.18418074 7.04792452 1.22275162 -0.35667616 0.96561396 0.58592087
-7.18143749 5.35283518 0.33922309 -0.35653996 0.73337513 0.16254969
-7.13281202 5.71814585 0.29778913 -0.35412583 0.78342515 0.14269528
-7.17218399 5.19235373 0.63683671 -0.35608056 0.71138805 0.30516085
-7.12446976 5.54340649 0.60591155 -0.35371166 0.75948471 0.29034206
-7.18081141 6.22260284 0.27081144 -0.35650888 0.85253924 0.12976804
-7.13772821 6.00582457 0.57857960 -0.35436991 0.82283914 0.27724510
-7.20866013 7.03992939 0.51965106 -0.35789150 0.96451861 0.24900757
-7.34402657 5.43407583 -0.27343643 -0.36461210 0.74450564 -0.13102590
-7.14736891 4.84057808 1.47022820 -0.35484853 0.66319239 0.70450729
-7.09869051 5.65316677 -0.32624972 -0.35243177 0.77452260 -0.15633309
-7.19937563 5.43352652 1.49055254 -0.35743055 0.74443036 0.71424633
-7.33367968 5.28412294 0.02798488 -0.36409840 0.72396106 0.01340986
-7.27512836 4.67743540 1.92966270 -0.36119148 0.64084071 0.92466015
-7.18519545 5.18136597 1.92600870 -0.35672653 0.70988268 0.92290920
-7.14207506 6.15704107 -0.37131116 -0.35458571 0.84355682 -0.17792572
-7.19085360 6.12348509 1.49462175 -0.35700744 0.83895946 0.71619624
-7.20691633 6.82793570 1.48221540 -0.35780492 0.93547398 0.71025133
-7.18771982 6.02201176 -0.05368789 -0.35685188 0.82505691 -0.02572628
-7.34602833 6.00207806 1.99461567 -0.36471146 0.82232583 0.95578450
-7.91538429 7.11301231 -0.11342465 -0.39297855 0.97453147 -0.05435108
-7.19235229 6.53270721 1.95628917 -0.35708186 0.89502567 0.93741912
-7.12893009 5.26416779 0.94269979 -0.35393310 0.72122705 0.45172504
-7.13616562 5.63394499 0.91958314 -0.35429233 0.77188909 0.44064793
-7.24588251 7.06140518 -0.17148818 -0.35973948 0.96746093 -0.08217410
-7.18364668 6.17646885 0.92677879 -0.35664964 0.84621859 0.44409597
-7.15661097 6.60413980 0.88988596 -0.35530740 0.90481240 0.42641759
-7.19891262 6.01125574 1.23031330 -0.35740757 0.82358325 0.58954430
-7.20863962 6.46577597 1.22589147 -0.35789049 0.88585562 0.58742547
-7.20449638 7.17994499 0.88549870 -0.35768476 0.98370171 0.42431527
-7.18268156 6.95860863 1.21416938 -0.35660172 0.95337707 0.58180845
-7.19075680 5.28991032 0.33762679 -0.35700265 0.72475398 0.16178477
-7.13263273 5.64462233 0.29559880 -0.35411692 0.77335197 0.14164571
-7.16731930 5.12063456 0.63282472 -0.35583904 0.70156205 0.30323839
-7.13548851 5.48026800 0.60344660 -0.35425872 0.75083429 0.28916091
-7.19238853 6.15403748 0.26926410 -0.35708365 0.84314531 0.12902659
-7.22457170 6.63478947 0.22111817 -0.35868147 0.90901166 0.10595591
-7.14919949 5.93925333 0.57597458 -0.35493943 0.81371844 0.27599680
-7.17548752 6.40353203 0.54110396 -0.35624456 0.87732780 0.25928742
-7.19268990 7.14355707 0.18413362 -0.35709861 0.97871625 0.08823357
-7.13333845 4.76612473 1.46095788 -0.35415196 0.65299177 0.70006514
-7.20939112 5.66794062 -0.32824206 -0.35792780 0.77654672 -0.15728778
-7.24916124 5.40000057 1.49388576 -0.35990226 0.73983711 0.71584356
-7.33408976 5.21483850 0.02725106 -0.36411875 0.71446860 0.01305823
-7.35056210 4.66076756 1.94206357 -0.36493656 0.63855708 0.93060243
-7.16995621 5.10204268 1.91304469 -0.35596994 0.69901484 0.91669708
-7.21570158 6.14177561 -0.37244949 -0.35824108 0.84146535 -0.17847119
-7.18528366 6.04143143 1.48535550 -0.35673091 0.82771754 0.71175605
-7.24102879 6.77439642 1.48040390 -0.35949853 0.92813873 0.70938331
-7.13587475 5.90299225 -0.05472901 -0.35427788 0.80875039 -0.02622517
-7.31650019 5.90191984 1.97621059 -0.36324549 0.80860347 0.94696510
-8.02264404 7.11901045 -0.11323188 -0.39830372 0.97535324 -0.05425871
-7.17647791 6.43624878 1.94063497 -0.35629374 0.88181019 0.92991787
-7.22775602 5.26705980 0.95263398 -0.35883957 0.72162330 0.45648530
-7.13075447 5.55715466 0.91357070 -0.35402367 0.76136827 0.43776688
-7.18891907 6.10298586 0.92186123 -0.35691139 0.83615088 0.44173956
-7.15101004 6.51607704 0.88316399 -0.35502931 0.89274722 0.42319652
-7.20288658 5.93828297 1.22395515 -0.35760486 0.81358546 0.58649760
-7.15589619 6.33743715 1.20830297 -0.35527191 0.86827230 0.57899737
-7.17983341 7.06628036 0.87568182 -0.35646033 0.96812886 0.41961122
-7.18500042 5.21655321 0.33507276 -0.35671684 0.71470356 0.16056092
-7.12081146 5.56269455 0.29274186 -0.35353002 0.76212728 0.14027672
-7.16673040 5.05261517 0.62933600 -0.35580978 0.69224292 0.30156666
-7.19268465 6.07657003 0.26711500 -0.35709834 0.83253175 0.12799677
-7.23065042 6.55696869 0.21936230 -0.35898325 0.89834964 0.10511453
-7.14312649 5.85890198 0.57168388 -0.35463792 0.80270976 0.27394077
-7.15133715 6.30146885 0.53504467 -0.35504556 0.86334443 0.25638393
-7.18166351 7.04374647 0.18165691 -0.35655117 0.96504152 0.08704677
-9.23820782 6.65146732 -0.30679306 -0.45865333 0.91129661 -0.14700980
-7.15820074 4.71796989 1.45992780 -0.35538632 0.64639419 0.69957155
-7.24328470 5.62130165 -0.32820058 -0.35961053 0.77015686 -0.15726790
-7.25122309 5.33091307 1.48721933 -0.36000463 0.73037165 0.71264917
-7.34375715 5.15262699 0.02673739 -0.36459872 0.70594519 0.01281208
-7.43932009 4.65157700 1.95800769 -0.36934316 0.63729793 0.93824255
-7.14302683 5.38315439 -0.02402078 -0.35463297 0.73752904 -0.01151033
-7.20984936 5.06252146 1.91520536 -0.35795054 0.69360012 0.91773248
-7.20661354 6.05654287 -0.37091520 -0.35778987 0.82978791 -0.17773598
-7.18353367 5.96346426 1.47704768 -0.35664403 0.81703550 0.70777506
-7.17184258 6.62523317 1.45715499 -0.35606360 0.90770233 0.69824284
-7.19765139 5.87822628 -0.05444180 -0.35734493 0.80535728 -0.02608754
-7.33658028 5.84246731 1.97160935 -0.36424240 0.80045807 0.94476026
-8.10926437 7.10544682 -0.11310337 -0.40260419 0.97349489 -0.05419713
-7.19627905 6.37280226 1.93501544 -0.35727680 0.87311757 0.92722511
-7.13962746 5.13488531 0.93446165 -0.35446420 0.70351446 0.44777745
-7.12466192 5.48065615 0.90755826 -0.35372120 0.75088745 0.43488583
-7.19050121 6.02713394 0.91649663 -0.35698995 0.82575864 0.43916893
-7.16819859 6.44968271 0.87980294 -0.35588267 0.88365072 0.42158598
-7.18777752 5.85054779 1.21412897 -0.35685474 0.80156517 0.58178908
-7.19557381 6.29235029 1.20830297 -0.35724178 0.86209512 0.57899737
-7.19835377 6.99611664 0.87207556 -0.35737982 0.95851594 0.41788316
-7.19594049 6.79853678 1.20049155 -0.35725999 0.93144614 0.57525426
-7.19486904 5.15507317 0.33358291 -0.35720679 0.70628035 0.15984702
-7.13825035 5.50438547 0.29169431 -0.35439584 0.75413853 0.13977474
-7.16229534 4.98253870 0.62549847 -0.35558960 0.68264198 0.29972777
-7.15917969 5.35663319 0.59884530 -0.35543492 0.73389548 0.28695604
-7.18614435 5.99423695 0.26462203 -0.35677364 0.82125157 0.12680219
-7.21523142 6.46062565 0.21658218 -0.35821775 0.88515002 0.10378234
-7.13788033 5.78011465 0.56754643 -0.35437745 0.79191530 0.27195817
-7.17125940 6.23934603 0.53321278 -0.35603464 0.85483319 0.25550610
-7.20995283 6.98321772 0.18095836 -0.35795566 0.95674866 0.08671204
-7.23373890 6.80321264 0.51013994 -0.35913658 0.93208677 0.24445002
-9.36143017 6.65105820 -0.30827689 -0.46477100 0.91124058 -0.14772083
-7.19266653 4.67611074 1.46095788 -0.35709745 0.64065921 0.70006514
-7.22775269 5.53665590 -0.32687232 -0.35883939 0.75855982 -0.15663143
-7.26385832 5.27014542 1.48288608 -0.36063194 0.72204602 0.71057272
-7.18661737 4.97591734 0.02251793 -0.35679713 0.68173480 0.01079019
-7.54820108 4.65369034 1.97926641 -0.37474883 0.63758749 0.94842935
-7.22957182 5.37767506 -0.02318086 -0.35892969 0.73677832 -0.01110785
-7.15978384 4.96021509 1.89316642 -0.35546491 0.67958349 0.90717179
-7.20753098 5.98058176 -0.36972737 -0.35783544 0.81938070 -0.17716680
-7.18108892 5.88575840 1.46873999 -0.35652265 0.80638927 0.70379418
-7.19964361 6.40690088 -0.43878332 -0.35744384 0.87778932 -0.21025719
-7.17979717 6.54932499 1.45021057 -0.35645851 0.89730239 0.69491518
-7.20169067 5.80659676 -0.05481876 -0.35754547 0.79554355 -0.02626818
-7.23760986 5.69018221 1.93479919 -0.35932878 0.77959394 0.92712146
-8.21263981 7.10549974 -0.11292437 -0.40773651 0.97350216 -0.05411136
-7.17434502 6.27316141 1.91815698 -0.35618785 0.85946614 0.91914684
-7.16202021 5.08305311 0.93300790 -0.35557595 0.69641310 0.44708085
-7.18896675 5.45867634 0.91195196 -0.35691378 0.74787605 0.43699121
-7.26372385 6.81705475 -0.17096947 -0.36062527 0.93398321 -0.08192554
-7.19601679 5.95529604 0.91180259 -0.35726377 0.81591636 0.43691963
-7.11211634 6.31844664 0.86614889 -0.35309833 0.86567050 0.41504321
-7.19503355 5.78178167 1.20863783 -0.35721496 0.79214370 0.57915783
-7.18110418 6.20030689 1.19825244 -0.35652342 0.84948456 0.57418132
-7.19469929 6.90537548 0.86546415 -0.35719839 0.94608378 0.41471508
-7.32127619 6.83008432 1.21577859 -0.36348259 0.93576837 0.58257955
-7.29234934 7.29890490 1.18409538 -0.36204645 1.00000000 0.56739753
-7.18954945 5.08333302 0.33113527 -0.35694271 0.69645149 0.15867415
-7.19808483 5.47884226 0.29321802 -0.35736647 0.75063896 0.14050488
-7.15726376 4.91271782 0.62166089 -0.35533980 0.67307603 0.29788888
-7.11906147 5.25691032 0.59128612 -0.35344315 0.72023273 0.28333384
-7.18503571 5.91729450 0.26247296 -0.35671860 0.81070989 0.12577239
-7.21831846 6.38198853 0.21475314 -0.35837102 0.87437618 0.10290590
-7.14441061 5.71155930 0.56463492 -0.35470167 0.78252280 0.27056304
-7.16651583 6.15637016 0.52912629 -0.35579914 0.84346491 0.25354794
-7.22618628 6.91158247 0.17975175 -0.35876164 0.94693416 0.08613385
-7.20747995 6.69393682 0.50401640 -0.35783291 0.91711521 0.24151573
-7.18778563 7.16048431 0.46636635 -0.35685512 0.98103541 0.22347449
-8.94725513 6.27378035 -0.30002677 -0.44420829 0.85955089 -0.14376751
-7.27340031 4.66367340 1.47160161 -0.36110568 0.63895524 0.70516539
-7.18278360 5.43065739 -0.32479694 -0.35660678 0.74403727 -0.15563694
-7.21038437 5.16221237 1.46488655 -0.35797709 0.70725846 0.70194769
-7.15158844 4.88569975 0.02105029 -0.35505804 0.66937435 0.01008693
-7.66407442 4.65865421 2.00229669 -0.38050166 0.63826758 0.95946509
-7.20527983 5.28940868 -0.02409714 -0.35772368 0.72468525 -0.01154692
-7.16183615 4.89522886 1.88538802 -0.35556680 0.67067993 0.90344453
-7.20777988 5.90484905 -0.36853951 -0.35784778 0.80900478 -0.17659760
-7.18102837 5.81079769 1.46107125 -0.35651964 0.79611909 0.70011944
-7.12434292 6.25969172 -0.43397802 -0.35370538 0.85762066 -0.20795457
-7.17388630 6.46164370 1.44054878 -0.35616505 0.88528949 0.69028544
-7.18787241 5.72148752 -0.05539317 -0.35685945 0.78388304 -0.02654342
-7.31191206 5.67448664 1.94525659 -0.36301768 0.77744359 0.93213248
-7.10630035 6.06691885 -0.11640335 -0.35280961 0.83120948 -0.05577842
-7.31428003 6.31524277 1.94545162 -0.36313525 0.86523157 0.93222594
-7.17752838 5.02660227 0.93058491 -0.35634589 0.68867898 0.44591978
-7.14377260 5.35365009 0.90038955 -0.35466999 0.73348677 0.43145072
-7.63121176 7.07106066 -0.17243916 -0.37887010 0.96878380 -0.08262978
-7.08690166 6.92401409 1.90092850 -0.35184649 0.94863737 0.91089123
-7.30620289 7.26865625 -0.21990480 -0.36273426 0.99585575 -0.10537448
-7.16062975 6.28152418 0.86740929 -0.35550690 0.86061186 0.41564715
-7.19549751 5.70825052 1.20199072 -0.35723799 0.78206944 0.57597268
-7.19133759 6.13059187 1.19294798 -0.35703146 0.83993310 0.57163954
-7.19742632 6.82178736 0.85985452 -0.35733378 0.93463165 0.41202703
-7.22092676 6.65264034 1.18949568 -0.35850051 0.91145730 0.56998527
-7.15078354 7.06710148 1.15026200 -0.35501808 0.96824133 0.55118513
-7.18525410 5.01300287 0.32879406 -0.35672945 0.68681574 0.15755229
-7.20844984 5.41545439 0.29178956 -0.35788107 0.74195439 0.13982038
-7.17642355 4.85985804 0.62043989 -0.35629103 0.66583389 0.29730380
-7.13586950 5.20030022 0.58964282 -0.35427764 0.71247679 0.28254640
-7.17392635 5.83306122 0.25980806 -0.35616705 0.79916936 0.12449542
-7.22370911 6.30620384 0.21307044 -0.35863864 0.86399317 0.10209958
-7.13624907 5.63206434 0.56034428 -0.35429648 0.77163142 0.26850703
-7.14278984 6.05817699 0.52334881 -0.35462120 0.83001179 0.25077948
-7.21122837 6.81125689 0.17721154 -0.35801899 0.93318886 0.08491663
-7.26560640 6.66332388 0.50544959 -0.36071873 0.91292107 0.24220249
-7.11331940 6.99733305 0.45637509 -0.35315809 0.95868260 0.21868685
-7.10436630 4.92043257 -0.26610628 -0.35271358 0.67413300 -0.12751341
-7.35592747 4.65145445 1.48258877 -0.36520293 0.63728112 0.71043026
-7.17516756 5.35423279 -0.32371774 -0.35622868 0.73356658 -0.15511981
-7.21373272 5.09625864 1.45888674 -0.35814333 0.69822234 0.69907266
-7.13398123 4.80837154 0.01998625 -0.35418388 0.65877986 0.00957706
-7.75350142 4.64636326 2.01824069 -0.38494146 0.63658363 0.96710515
-7.22867060 5.23697042 -0.02424985 -0.35888496 0.71750087 -0.01162010
-7.16982174 4.83479548 1.87933803 -0.35596326 0.66240013 0.90054548
-7.20269108 5.82558918 -0.36720321 -0.35759515 0.79814565 -0.17595726
-7.18031025 5.73607111 1.45340252 -0.35648400 0.78588104 0.69644475
-7.18764734 6.23581696 -0.43497652 -0.35684827 0.85434967 -0.20843303
-7.17305708 6.37956476 1.43209457 -0.35612389 0.87404412 0.68623435
-7.17168522 5.49442339 1.89798915 -0.35605580 0.75277364 0.90948278
-7.20838785 6.07642746 -0.11621058 -0.35787797 0.83251220 -0.05568605
-7.33000183 6.24877357 1.93902934 -0.36391580 0.85612482 0.92914850
-7.10754490 4.91166782 0.91556251 -0.35287139 0.67293215 0.43872133
-7.75678873 7.09706926 -0.17280491 -0.38510469 0.97234714 -0.08280504
-7.19112921 6.93782949 1.91741347 -0.35702112 0.95053017 0.91879052
-7.19937420 7.07233620 -0.21820101 -0.35743046 0.96895856 -0.10455806
-7.16800594 5.78226805 0.89704990 -0.35587311 0.79221034 0.42985040
-7.15193701 6.19463587 0.86068726 -0.35507533 0.84870756 0.41242608
-7.18908024 5.63007593 1.19418752 -0.35691941 0.77135897 0.57223350
-7.19493008 6.05587959 1.18652678 -0.35720983 0.82969701 0.56856263
-7.19938850 6.73843908 0.85424483 -0.35743117 0.92321235 0.40933898
-7.19942570 6.54991913 1.17796338 -0.35743302 0.89738381 0.56445915
-7.16812515 6.99565220 1.14542866 -0.35587904 0.95845228 0.54886913
-7.15399694 4.92487097 0.32475016 -0.35517761 0.67474109 0.15561451
-7.19747639 5.33663845 0.28912306 -0.35733625 0.73115605 0.13854264
-7.17363119 4.79261351 0.61695117 -0.35615239 0.65662092 0.29563206
-7.18233681 5.76541853 0.25826070 -0.35658461 0.78990185 0.12375395
-7.21785593 6.22144794 0.21087560 -0.35834804 0.85238099 0.10104785
-7.14155483 5.56389666 0.55743271 -0.35455990 0.76229197 0.26711187
-7.15628529 5.99263144 0.52109420 -0.35529122 0.82103157 0.24969910
-7.26731396 6.58145332 0.50193179 -0.36080351 0.90170419 0.24051681
-7.20859528 7.00268507 0.46065706 -0.35788828 0.95941585 0.22073869
-7.20129204 4.92067242 -0.26729333 -0.35752568 0.67416584 -0.12808223
-7.45700359 4.64980555 1.49735260 -0.37022111 0.63705522 0.71750480
-7.33725500 5.40419817 -0.32703835 -0.36427590 0.74041218 -0.15671098
-7.20038652 5.01915264 1.44955361 -0.35748073 0.68765831 0.69460040
-7.05064297 4.68843174 0.01749127 -0.35004634 0.64234728 0.00838150
-7.87165880 4.64993095 2.04171371 -0.39080769 0.63707238 0.97835302
-7.21920395 5.16111183 -0.02491161 -0.35841498 0.70710772 -0.01193720
-7.17733145 4.77445555 1.87328815 -0.35633612 0.65413314 0.89764649
-7.21567440 5.76155710 -0.36646080 -0.35823974 0.78937280 -0.17560151
-7.19136190 5.67133713 1.44829011 -0.35703269 0.77701205 0.69399494
-7.11454773 6.09405613 -0.43035844 -0.35321906 0.83492744 -0.20622014
-7.17889500 6.30429125 1.42515016 -0.35641372 0.86373109 0.68290669
-7.17793894 5.42808390 1.89045978 -0.35636628 0.74368471 0.90587479
-7.21880388 6.00792694 -0.11629319 -0.35839510 0.82312715 -0.05572564
-7.22247887 6.07863808 1.89969301 -0.35857755 0.83281511 0.91029924
-7.12076426 4.87141752 0.91410875 -0.35352769 0.66741759 0.43802470
-7.20860624 5.27948809 0.90131456 -0.35788882 0.72332603 0.43189394
-7.86288738 7.12610865 -0.17313077 -0.39037219 0.97632575 -0.08296119
-7.18819761 6.87003231 1.90782917 -0.35687560 0.94124150 0.91419792
-7.21974754 7.02575254 -0.21805769 -0.35844195 0.96257627 -0.10448938
-7.15784264 5.71873474 0.89168531 -0.35536852 0.78350586 0.42727980
-7.14940739 6.13360023 0.85627592 -0.35494974 0.84034526 0.41031224
-7.19360018 5.57920504 1.19014144 -0.35714382 0.76438934 0.57029468
-7.18846416 5.99266434 1.18010557 -0.35688883 0.82103610 0.56548566
-7.18135405 6.65853977 0.84743309 -0.35653582 0.91226560 0.40607491
-7.13847017 7.10400248 0.79789162 -0.35440674 0.97329706 0.38233551
-7.19186020 6.48150253 1.17099035 -0.35705742 0.88801026 0.56111783
-7.15403891 6.91619873 1.13703382 -0.35517970 0.94756663 0.54484648
-7.09116936 4.83282042 0.31921640 -0.35205838 0.66212952 0.15296283
-7.18235397 5.27301359 0.28674227 -0.35658547 0.72243899 0.13740182
-7.17949152 4.74780512 0.61520684 -0.35644335 0.65048182 0.29479620
-7.16398764 5.69554853 0.25576776 -0.35567361 0.78032917 0.12255938
-7.20005894 6.14703465 0.20860760 -0.35746446 0.84218585 0.09996106
-7.12657404 5.49860239 0.55344856 -0.35381612 0.75334620 0.26520273
-7.13539553 5.91797876 0.51658493 -0.35425410 0.81080365 0.24753834
-7.19127321 7.11804867 0.11496409 -0.35702828 0.97522146 0.05508875
-7.04522896 6.32110071 0.47978267 -0.34977755 0.86603415 0.22990336
-7.19453764 4.86658478 -0.26675916 -0.35719034 0.66675550 -0.12782626
-7.54935837 4.65790510 1.51177323 -0.37480628 0.63816494 0.72441494
-7.17210340 4.94920349 1.43888724 -0.35607654 0.67807478 0.68948925
-7.21653318 4.74935675 0.02064669 -0.35828239 0.65069443 0.00989353
-7.94406605 4.64219379 2.05500054 -0.39440250 0.63601238 0.98471981
-7.21411085 5.10617113 -0.02536975 -0.35816211 0.69958043 -0.01215674
-7.17858124 4.72656965 1.86767042 -0.35639817 0.64757246 0.89495456
-7.19718552 5.69162512 -0.36502549 -0.35732180 0.77979165 -0.17491375
-7.17124748 5.60103178 1.43870425 -0.35603404 0.76737976 0.68940157
-7.21469736 6.12140131 -0.43329152 -0.35819122 0.83867395 -0.20762561
-7.18172264 6.24697828 1.41971540 -0.35655412 0.85587883 0.68030244
-7.16893959 5.36848593 1.88125730 -0.35591948 0.73551935 0.90146512
-7.22854948 5.95853710 -0.11634827 -0.35887894 0.81636041 -0.05575203
-7.18644571 5.99044991 1.88243318 -0.35678861 0.82073271 0.90202862
-7.11002779 4.79891205 0.90805131 -0.35299465 0.65748382 0.43512210
-7.14679861 5.16521597 0.88767093 -0.35482022 0.70766997 0.42535618
-7.97916555 7.14044666 -0.17344998 -0.39614511 0.97829014 -0.08311415
-7.18116140 6.77767944 1.89441109 -0.35652626 0.92858857 0.90776819
-7.16236782 5.64910173 0.88721484 -0.35559320 0.77396566 0.42513761
-7.14084387 6.04860497 0.84976399 -0.35452458 0.82870036 0.40719184
-7.15925407 5.48111916 1.17742515 -0.35543862 0.75095087 0.56420124
-7.18323708 5.91204786 1.17228842 -0.35662931 0.80999106 0.56173980
-7.18628693 6.57976866 0.84242445 -0.35678074 0.90147340 0.40367487
-7.14610910 7.02264404 0.79307777 -0.35478601 0.96215039 0.38002881
-7.18200874 6.39149570 1.16187179 -0.35656834 0.87567872 0.55674839
-7.15152740 6.82718420 1.12889349 -0.35505500 0.93537104 0.54094577
-7.17451525 4.82370377 0.32262179 -0.35619628 0.66088051 0.15459464
-7.20403767 5.21955109 0.28607565 -0.35766199 0.71511430 0.13708238
-7.25096369 4.72971582 0.61956769 -0.35999176 0.64800346 0.29688585
-7.17286396 5.62951136 0.25430638 -0.35611430 0.77128166 0.12185911
-7.19887924 6.06809711 0.20670541 -0.35740590 0.83137089 0.09904957
-7.17051697 5.46094418 0.55436796 -0.35599777 0.74818677 0.26564330
-7.13854074 5.84514809 0.51348484 -0.35441026 0.80082536 0.24605283
-7.19161844 7.02931118 0.11341522 -0.35704541 0.96306384 0.05434656
-7.16412973 6.34668159 0.48668796 -0.35568067 0.86953890 0.23321225
-7.20498085 4.80801058 -0.26640305 -0.35770884 0.65873039 -0.12765563
-7.66781425 4.66444874 1.52997065 -0.38068733 0.63906145 0.73313481
-7.20631361 4.90627003 1.43955386 -0.35777500 0.67219263 0.68980867
-7.31678343 4.74948406 0.02218771 -0.36325955 0.65071189 0.01063196
-8.09491634 4.66200542 2.08688855 -0.40189186 0.63872671 1.00000000
-7.25096226 5.06418943 -0.02529340 -0.35999170 0.69382864 -0.01212015
-7.22612381 4.69311428 1.87242389 -0.35875851 0.64298880 0.89723235
-7.20912361 5.62788916 -0.36428308 -0.35791451 0.77105939 -0.17455800
-7.17340660 5.53062201 1.43199408 -0.35614124 0.75773311 0.68618619
