-18.14088440 -9.00919056 1.29245603 -0.83407259 -0.44546172 0.57141292
-18.24628448 -7.92338800 0.49403974 -0.83891863 -0.39177394 0.21842191
-20.44550323 -8.00472546 0.41079813 -0.94003320 -0.39579567 0.18161961
-18.20110703 -8.22414589 1.16575360 -0.83684146 -0.40664497 0.51539600
-18.48692703 -11.62170029 -0.46191323 -0.84998274 -0.57463789 -0.20421831
-18.59511185 -10.72429752 -0.58347291 -0.85495681 -0.53026563 -0.25796157
-18.08505630 -11.69123840 0.25726670 -0.83150572 -0.57807624 0.11374122
-20.46819305 -12.18991566 0.16534433 -0.94107640 -0.60273349 0.07310105
-19.31611633 -10.22143745 -0.67886263 -0.88810682 -0.50540155 -0.30013469
-20.39942360 -10.20535469 -0.08550109 -0.93791455 -0.50460637 -0.03780123
-18.04092407 -11.41193485 0.99944323 -0.82947665 -0.56426603 0.44186789
-18.09711647 -10.51171970 0.85965484 -0.83206022 -0.51975465 0.38006547
-18.04803848 -11.77192402 1.74815786 -0.82980376 -0.58206576 0.77288514
-18.15669250 -10.90108967 1.60767210 -0.83479941 -0.53900713 0.71077442
-18.23256493 -8.87505627 0.60433692 -0.83828783 -0.43882942 0.26718584
-18.10519981 -10.00725842 1.45142496 -0.83243191 -0.49481142 0.64169532
-18.13738251 -9.14989853 1.29668343 -0.83391154 -0.45241904 0.57328194
-18.19248581 -8.03625679 0.49391273 -0.83644509 -0.39735475 0.21836574
-20.35021591 -8.11529636 0.40959901 -0.93565214 -0.40126288 0.18108948
-18.19439125 -8.35921955 1.16901076 -0.83653271 -0.41332373 0.51683605
-18.53488350 -11.81513500 -0.46404997 -0.85218769 -0.58420235 -0.20516300
-18.59298134 -10.87923336 -0.58505017 -0.85485888 -0.53792644 -0.25865889
-18.99097061 -10.20231628 -0.67153764 -0.87315744 -0.50445610 -0.29689622
-20.40803528 -10.37040806 -0.08531292 -0.93831050 -0.51276743 -0.03771804
-18.99689674 -7.90420866 -0.30167049 -0.87342989 -0.39082560 -0.13337275
-18.01926613 -11.55745888 1.00263584 -0.82848090 -0.57146150 0.44327939
-18.06687737 -10.64648247 0.86165470 -0.83066994 -0.52641803 0.38094965
-18.01025772 -11.90930080 1.75199544 -0.82806671 -0.58885843 0.77458179
-18.07591629 -11.00771046 1.60652173 -0.83108550 -0.54427904 0.71026582
-18.18719673 -8.99474430 0.60477591 -0.83620191 -0.44474742 0.26737991
-18.07846832 -10.14134216 1.45464301 -0.83120286 -0.50144124 0.64311808
-18.10085297 -9.27457333 1.29837441 -0.83223206 -0.45858362 0.57402956
-19.81515121 -8.04711056 0.39655852 -0.91105115 -0.39789143 0.17532408
-18.18669319 -8.49453259 1.17226803 -0.83617872 -0.42001432 0.51827615
-18.51902962 -11.96940708 -0.46508864 -0.85145873 -0.59183037 -0.20562221
-18.58619308 -11.03252602 -0.58654445 -0.85454679 -0.54550606 -0.25931954
-18.86217499 -12.53373146 0.27766687 -0.86723572 -0.61973351 0.12276042
-18.75280380 -10.22650528 -0.66663778 -0.86220711 -0.50565213 -0.29472992
-20.38514900 -10.52040577 -0.08520276 -0.93725824 -0.52018416 -0.03766933
-18.22386169 -8.53512669 -0.20475881 -0.83788764 -0.42202151 -0.09052674
-18.68892479 -7.91448641 -0.29944125 -0.85927010 -0.39133379 -0.13238718
-18.02828407 -11.72387695 1.00785029 -0.82889551 -0.57969010 0.44558474
-18.07855034 -10.80686378 0.86603540 -0.83120662 -0.53434813 0.38288641
-18.00453758 -12.06888485 1.75932169 -0.82780367 -0.59674907 0.77782083
-18.06578827 -11.15766811 1.61227334 -0.83061981 -0.55169374 0.71280867
-18.24467850 -9.16615009 0.60945821 -0.83884478 -0.45322260 0.26945004
-18.08713722 -10.29623604 1.46107900 -0.83160144 -0.50910002 0.64596355
-18.12721443 -9.43223858 1.30513823 -0.83344406 -0.46637943 0.57701993
-19.35569954 -8.00301552 0.38551658 -0.88992673 -0.39571112 0.17044230
-18.18161774 -8.63179398 1.17578578 -0.83594537 -0.42680123 0.51983142
-18.56621361 -11.17895222 -0.58774817 -0.85362816 -0.55274612 -0.25985172
-20.37075806 -12.65786648 0.16738051 -0.93659657 -0.62587142 0.07400128
-18.60600662 -10.29854393 -0.66431159 -0.85545772 -0.50921410 -0.29370147
-20.35763550 -10.66866970 -0.08510179 -0.93599325 -0.52751505 -0.03762469
-18.20236206 -8.66496754 -0.20487851 -0.83689916 -0.42844152 -0.09057967
-18.33197212 -7.89989090 -0.29678208 -0.84285831 -0.39061210 -0.13121152
-18.00092316 -11.86774349 1.01083004 -0.82763749 -0.58680362 0.44690216
-18.05131531 -10.94505978 0.86832094 -0.82995439 -0.54118127 0.38389689
-17.98928833 -12.22325897 1.76577568 -0.82710254 -0.60438216 0.78067422
-18.41620255 -11.53400326 1.65319169 -0.84673101 -0.57030171 0.73089921
-18.26688004 -9.32140446 0.61275047 -0.83986557 -0.46089920 0.27090558
-18.10818481 -9.56734276 1.30837929 -0.83256912 -0.47305968 0.57845283
-19.06163406 -8.85453415 0.52979326 -0.87640637 -0.43781468 0.23422904
-18.75749016 -7.89466524 0.37067741 -0.86242259 -0.39035374 0.16388169
-18.16654778 -8.76498032 1.17865217 -0.83525252 -0.43338668 0.52109867
-18.13817596 -7.93682575 1.04145861 -0.83394808 -0.39243835 0.46044347
-18.56193161 -12.33081722 -0.46856081 -0.85343128 -0.60970038 -0.20715731
-18.56561470 -11.33804989 -0.58945000 -0.85360062 -0.56061274 -0.26060411
-20.35692787 -13.90104961 0.31443122 -0.93596071 -0.68734092 0.13901445
-18.60190964 -10.44957542 -0.66604388 -0.85526937 -0.51668191 -0.29446736
-20.31669617 -10.81043816 -0.08503295 -0.93411094 -0.53452486 -0.03759426
-18.21355438 -8.77587605 -0.20507137 -0.83741379 -0.43392542 -0.09066493
-18.21569061 -7.95186520 -0.29609737 -0.83751196 -0.39318198 -0.13090880
-18.00792122 -11.99456978 1.01487398 -0.82795924 -0.59307456 0.44869003
-18.06430244 -11.06960487 0.87193972 -0.83055151 -0.54733944 0.38549680
-17.99879265 -12.35418606 1.77292752 -0.82753956 -0.61085588 0.78383613
-18.08189011 -11.44397545 1.62591279 -0.83136016 -0.56585026 0.71883887
-18.29027176 -9.44215393 0.61553061 -0.84094101 -0.46686968 0.27213472
-18.10867119 -9.67697144 1.31204307 -0.83259147 -0.47848031 0.58007264
-18.40545273 -7.84917259 0.36213365 -0.84623677 -0.38810432 0.16010436
-18.18061066 -8.87769413 1.18269110 -0.83589911 -0.43895984 0.52288431
-18.16996193 -8.05288029 1.04597855 -0.83540946 -0.39817670 0.46244180
-18.61480331 -12.49291706 -0.47054917 -0.85586220 -0.61771548 -0.20803639
-18.59199905 -11.47469616 -0.59140086 -0.85481369 -0.56736928 -0.26146662
-20.34548378 -14.03433800 0.31564203 -0.93543452 -0.69393140 0.13954978
-18.61153984 -10.57074738 -0.66772664 -0.85571212 -0.52267331 -0.29521132
-18.96517372 -10.20774269 -0.08842012 -0.87197137 -0.50472444 -0.03909178
-18.19934654 -8.91040993 -0.20522432 -0.83676052 -0.44057748 -0.09073255
-18.23303032 -8.09612083 -0.29668653 -0.83830923 -0.40031475 -0.13116927
-18.00498581 -12.15672112 1.01955640 -0.82782429 -0.60109216 0.45076019
-18.05211830 -11.21868324 0.87517762 -0.82999134 -0.55471063 0.38692832
-17.99436569 -12.51830101 1.78077710 -0.82733601 -0.61897057 0.78730655
-18.01970100 -11.56381035 1.62689877 -0.82850087 -0.57177556 0.71927476
-18.19339180 -9.53743744 0.61399424 -0.83648676 -0.47158101 0.27145547
-18.07115173 -10.70493412 1.47578990 -0.83086646 -0.52930820 0.65246743
-18.09839439 -9.81809711 1.31612957 -0.83211899 -0.48545831 0.58187938
-18.23649979 -7.91305304 0.35888603 -0.83846873 -0.39126292 0.15866855
-18.16914368 -9.01396847 1.18594837 -0.83537185 -0.44569796 0.52432442
-18.18638229 -8.19717121 1.05037940 -0.83616447 -0.40531120 0.46438748
-18.67309380 -12.70311356 -0.47301233 -0.85854220 -0.62810868 -0.20912538
-18.57210922 -11.62412357 -0.59268761 -0.85389924 -0.57475775 -0.26203552
-19.52870750 -12.60822392 0.15798861 -0.89788121 -0.62341684 0.06984898
-18.60015869 -10.71947765 -0.66931039 -0.85518885 -0.53002727 -0.29591152
-20.46576500 -12.18475914 0.07593139 -0.94096476 -0.60247850 0.03357033
-20.27913666 -11.07816601 -0.08481723 -0.93238407 -0.54776275 -0.03749889
-18.20027542 -9.05314350 -0.20543712 -0.83680320 -0.44763497 -0.09082664
-18.20368385 -8.22037697 -0.29687762 -0.83695996 -0.40645862 -0.13125376
-18.19602203 -10.51765728 2.22501302 -0.83660764 -0.52004826 0.98370945
-17.97601318 -12.30236435 1.02264249 -0.82649219 -0.60829353 0.45212460
-18.04553604 -11.37229919 0.87879640 -0.82968867 -0.56230623 0.38852823
-17.98370361 -12.67939663 1.78810334 -0.82684577 -0.62693596 0.79054558
-18.03027534 -11.73107529 1.63511527 -0.82898706 -0.58004600 0.72290742
-19.65297699 -10.45859909 0.67698610 -0.90359479 -0.51712811 0.29930505
-18.07186508 -10.85941696 1.48191941 -0.83089924 -0.53694665 0.65517735
-18.10454178 -9.96908092 1.32162511 -0.83240163 -0.49292374 0.58430898
-18.26776886 -8.87190151 0.50724888 -0.83990639 -0.43867341 0.22426185
-18.21203995 -8.03875637 0.35958552 -0.83734411 -0.39747834 0.15897781
-18.16915131 -9.15674877 1.19011760 -0.83537221 -0.45275778 0.52616769
-18.17809677 -8.33119583 1.05323410 -0.83578348 -0.41193810 0.46564957
-18.40369606 -12.68947124 -0.46959952 -0.84615600 -0.62743413 -0.20761654
-18.56796646 -11.78445244 -0.59438938 -0.85370874 -0.58268523 -0.26278788
-18.79937553 -13.31785488 0.28485832 -0.86434835 -0.65850472 0.12593986
-18.61696625 -10.88566494 -0.67173558 -0.85596162 -0.53824449 -0.29698372
-20.46066856 -12.35659218 0.07668531 -0.94073045 -0.61097485 0.03390365
-20.28087997 -11.24506378 -0.08462905 -0.93246424 -0.55601501 -0.03741569
-18.20726395 -9.19985485 -0.20567653 -0.83712453 -0.45488915 -0.09093248
-18.19713211 -8.35540771 -0.29727569 -0.83665872 -0.41313526 -0.13142976
-18.08502960 -10.60559464 2.21920133 -0.83150452 -0.52439630 0.98114008
-17.97871971 -12.47091770 1.02785695 -0.82661664 -0.61662769 0.45442998
-18.02425766 -11.51768017 0.88165331 -0.82871038 -0.56949461 0.38979131
-17.97172165 -12.84085083 1.79542959 -0.82629490 -0.63491911 0.79378462
-18.00615883 -11.87700844 1.64004529 -0.82787824 -0.58726168 0.72508705
-19.65900803 -10.62075996 0.67998570 -0.90387213 -0.52514619 0.30063123
-18.05262947 -11.00289536 1.48636329 -0.83001482 -0.54404098 0.65714204
-18.09207916 -10.11081219 1.32571161 -0.83182865 -0.49993166 0.58611572
-18.21166420 -8.98650551 0.50724888 -0.83732682 -0.44434005 0.22426185
-18.14854813 -9.28986168 1.19285369 -0.83442491 -0.45933956 0.52737737
-18.16884422 -8.46543884 1.05608869 -0.83535808 -0.41857576 0.46691161
-18.56253815 -11.94518566 -0.59609121 -0.85345918 -0.59063274 -0.26354030
-18.89188194 -12.53680134 0.15070926 -0.86860156 -0.61988533 0.06663068
-18.58429337 -11.02387810 -0.67277497 -0.85445940 -0.54507846 -0.29744324
-18.10286140 -9.29028416 -0.20550363 -0.83232439 -0.45936045 -0.09085604
-18.17872429 -8.48561573 -0.29757825 -0.83581233 -0.41957343 -0.13156351
-18.06754112 -10.74853230 2.22568369 -0.83070046 -0.53146392 0.98400599
-17.98328018 -12.64229012 1.03328431 -0.82682633 -0.62510127 0.45682949
-18.03038406 -11.68168068 0.88612920 -0.82899207 -0.57760364 0.39177015
-17.97938538 -13.01786232 1.80502343 -0.82664728 -0.64367151 0.79802620
-18.01407814 -12.04522800 1.64826179 -0.82824236 -0.59557933 0.72871965
-18.64088058 -11.52355671 1.54581976 -0.85706115 -0.56978518 0.68342859
-18.09243965 -10.26063919 1.33092546 -0.83184522 -0.50733989 0.58842081
-19.75521851 -9.90500641 0.56414968 -0.90829563 -0.48975554 0.24941848
-18.14822578 -9.43414402 1.19715321 -0.83441013 -0.46647364 0.52927822
-18.16223145 -8.60159969 1.05918121 -0.83505404 -0.42530829 0.46827888
-18.48089981 -13.08869076 -0.47393230 -0.84970564 -0.64717364 -0.20953211
-18.55079460 -12.10304070 -0.59766853 -0.85291922 -0.59843791 -0.26423764
-18.86324310 -13.72263718 0.29014179 -0.86728483 -0.67851925 0.12827575
-18.02075768 -12.12352371 0.13856851 -0.82854944 -0.59945071 0.06126308
-18.57630157 -11.17759609 -0.67455673 -0.85409194 -0.55267906 -0.29823101
-18.15935516 -9.46403885 -0.20593588 -0.83492184 -0.46795180 -0.09104715
-18.31847763 -8.69120216 -0.29928201 -0.84223789 -0.42973870 -0.13231678
-18.05407143 -10.89475250 2.23283648 -0.83008111 -0.53869379 0.98716837
-18.25442314 -10.10413837 2.06497645 -0.83929282 -0.49960169 0.91295505
-17.96526146 -12.79912472 1.03732824 -0.82599789 -0.63285595 0.45861736
-18.01510811 -11.83306980 0.88946229 -0.82828969 -0.58508915 0.39324376
-17.95663452 -13.17423439 1.81147754 -0.82560122 -0.65140337 0.80087966
-17.99582672 -12.19726181 1.65401340 -0.82740319 -0.60309672 0.73126251
-18.43370628 -10.26140690 0.63433307 -0.84753579 -0.50737786 0.28044754
-18.38574219 -11.52589035 1.52927005 -0.84533054 -0.56990057 0.67611176
-18.19543648 -10.47047138 1.34459412 -0.83658075 -0.51771510 0.59446394
-18.99353218 -8.81395817 0.38536668 -0.87327516 -0.43580839 0.17037602
-18.13269234 -9.57131958 1.20041049 -0.83369595 -0.47325632 0.53071833
-18.15102386 -8.73628235 1.06203592 -0.83453876 -0.43196771 0.46954098
-18.50870323 -13.28393936 -0.47595033 -0.85098398 -0.65682775 -0.21042432
-18.53612709 -12.26011753 -0.59920430 -0.85224485 -0.60620463 -0.26491663
-17.99713326 -12.27251625 0.13938297 -0.82746327 -0.60681766 0.06162317
-18.57904816 -11.33894920 -0.67668492 -0.85421824 -0.56065720 -0.29917189
-18.19059181 -9.58968830 -0.20622185 -0.83635801 -0.47416458 -0.09117357
-18.20516968 -8.74287033 -0.29864508 -0.83702826 -0.43229344 -0.13203518
-18.09410286 -11.03568077 2.24490690 -0.83192170 -0.54566205 0.99250484
-18.61643028 -10.41889668 2.11455107 -0.85593700 -0.51516497 0.93487269
-17.97764778 -12.93620110 1.04211712 -0.82656735 -0.63963372 0.46073461
-18.02910042 -11.96415997 0.89346206 -0.82893300 -0.59157091 0.39501211
-17.96314240 -13.30977249 1.81897819 -0.82590044 -0.65810508 0.80419576
-18.01220512 -12.33253384 1.66140819 -0.82815623 -0.60978526 0.73453188
-18.14814377 -10.21506310 0.62438315 -0.83440632 -0.50508636 0.27604854
-17.99114418 -11.39652348 1.49831593 -0.82718790 -0.56350398 0.66242647
-18.66935730 -8.77101612 0.37757239 -0.85837042 -0.43368512 0.16693005
-18.13841629 -9.68397045 1.20418882 -0.83395910 -0.47882637 0.53238881
-18.16352463 -8.84789467 1.06560421 -0.83511353 -0.43748641 0.47111857
-18.48958588 -13.40273952 -0.47675160 -0.85010499 -0.66270185 -0.21077856
-18.54968071 -12.39503574 -0.60098910 -0.85286802 -0.61287570 -0.26570570
-18.59513855 -11.46947384 -0.67871416 -0.85495806 -0.56711102 -0.30006906
-18.19166183 -9.73688602 -0.20645460 -0.83640718 -0.48144281 -0.09127647
-18.15167618 -8.85795879 -0.29866102 -0.83456874 -0.43798402 -0.13204223
-18.38274956 -10.44054317 2.09417510 -0.84519291 -0.51623529 0.92586422
-17.96051979 -13.09602737 1.04637384 -0.82577986 -0.64753640 0.46261656
-18.00830841 -12.11394787 0.89660466 -0.82797706 -0.59897721 0.39640149
-17.95081329 -13.47626781 1.82682776 -0.82533360 -0.66633749 0.80766618
-17.99827003 -12.48972321 1.66781712 -0.82751554 -0.61755753 0.73736537
-18.56287193 -10.60201454 0.64457566 -0.85347450 -0.52421927 0.28497595
-17.95942688 -11.53524208 1.50199366 -0.82572961 -0.57036299 0.66405249
-18.72903252 -11.05256462 1.39785945 -0.86111414 -0.54649687 0.61801326
-18.21441460 -9.52818680 0.51512355 -0.83745331 -0.47112361 0.22774334
-18.36477661 -8.76949978 0.37067741 -0.84436655 -0.43361014 0.16388169
-18.11930084 -9.82061100 1.20731568 -0.83308023 -0.48558259 0.53377122
-18.15411949 -8.98482227 1.06869674 -0.83468109 -0.44425681 0.47248581
-18.53107071 -12.55165577 -0.60248339 -0.85201240 -0.62061977 -0.26636636
-18.60402489 -11.63705349 -0.68108982 -0.85536659 -0.57539707 -0.30111936
-18.19511032 -9.88638878 -0.20670065 -0.83656573 -0.48883501 -0.09138526
-18.17274857 -9.00995636 -0.29934570 -0.83553761 -0.44549957 -0.13234493
-18.13229561 -10.44975376 2.07169843 -0.83367771 -0.51669073 0.91592693
-18.00285721 -12.27518463 0.90069962 -0.82772642 -0.60694963 0.39821193
-17.94026566 -13.64554596 1.83502614 -0.82484865 -0.67470747 0.81129080
-17.99611855 -12.65638351 1.67554069 -0.82741660 -0.62579811 0.74078006
-18.02186584 -11.73612785 1.51440597 -0.82860041 -0.58029580 0.66954011
-18.73971558 -11.21810913 1.40448248 -0.86160535 -0.55468225 0.62094140
-19.67341423 -10.45129490 0.56980163 -0.90453446 -0.51676691 0.25191730
-18.14734650 -8.80631924 0.36618069 -0.83436966 -0.43543068 0.16189362
-18.09044456 -9.95257378 1.20979118 -0.83175349 -0.49210754 0.53486568
-18.13299942 -9.11660957 1.07107556 -0.83371001 -0.45077306 0.47353753
-18.54751205 -12.73339462 -0.60489082 -0.85276830 -0.62960595 -0.26743072
-18.84425163 -13.33144188 0.15592697 -0.86641163 -0.65917653 0.06893750
-18.07734871 -10.89714432 -0.08940690 -0.83115137 -0.53881204 -0.03952805
-18.16939163 -10.02083492 -0.20684031 -0.83538324 -0.49548271 -0.09144700
-18.17475128 -9.15358829 -0.29987118 -0.83562970 -0.45260149 -0.13257726
-18.10235786 -10.58452320 2.07610965 -0.83230120 -0.52335441 0.91787720
-19.89277077 -10.68463516 2.13485336 -0.91461992 -0.52830452 0.94384861
-17.98128891 -12.42662144 0.90393752 -0.82673478 -0.61443746 0.39964345
-17.93145180 -13.81765747 1.84357345 -0.82444340 -0.68321759 0.81506968
-17.96984100 -12.80733299 1.68096364 -0.82620841 -0.63326180 0.74317759
-18.60229492 -10.93658257 0.65196490 -0.85528708 -0.54076213 0.28824285
-18.02094650 -11.89754105 1.52114844 -0.82855815 -0.58827692 0.67252105
-18.72858047 -11.37181759 1.40941441 -0.86109340 -0.56228238 0.62312192
-18.09883308 -8.92369747 0.36638054 -0.83213913 -0.44123450 0.16198198
-18.08154106 -10.09625721 1.21383023 -0.83134413 -0.49921200 0.53665137
-18.12161446 -9.25392342 1.07416809 -0.83318657 -0.45756260 0.47490478
-18.54104805 -12.90100574 -0.60675871 -0.85247111 -0.63789350 -0.26825655
-19.22278404 -14.88235092 0.30819374 -0.88381565 -0.73586160 0.13625678
-18.94202423 -12.18292141 -0.69539338 -0.87090701 -0.60238767 -0.30744317
-18.08364677 -11.05634308 -0.08920495 -0.83144093 -0.54668367 -0.03943876
-18.17409515 -10.17296314 -0.20709966 -0.83559954 -0.50300473 -0.09156167
-18.16854095 -9.29396343 -0.30033296 -0.83534414 -0.45954239 -0.13278142
-18.30250931 -10.85608673 2.10887933 -0.84150368 -0.53678197 0.93236512
-18.49459457 -10.08234024 1.98219013 -0.85033530 -0.49852386 0.87635410
-18.55963707 -14.07747555 1.10320127 -0.85332578 -0.69606435 0.48774076
-17.91490364 -13.98528385 1.85142303 -0.82368255 -0.69150591 0.81854010
-17.96986389 -12.97826385 1.68918014 -0.82620949 -0.64171356 0.74681026
-18.32367516 -10.92854691 0.64303923 -0.84247684 -0.54036480 0.28429666
-17.99552155 -12.04385471 1.52574551 -0.82738918 -0.59551144 0.67455351
-18.43749428 -11.35451984 1.39123654 -0.84770995 -0.56142712 0.61508518
-18.29817009 -9.16502571 0.37352532 -0.84130418 -0.45316702 0.16514079
-18.21905518 -10.32399750 1.22894371 -0.83766669 -0.51047266 0.54333323
-18.11808205 -9.39603901 1.07785535 -0.83302420 -0.46458954 0.47653496
-18.60188293 -13.11737347 -0.61036986 -0.85526812 -0.64859188 -0.26985309
-18.98394203 -12.37934303 -0.69890743 -0.87283427 -0.61209977 -0.30899680
-17.94741440 -12.06628132 0.05625784 -0.82517731 -0.59662032 0.02487238
-18.16717339 -10.31960583 -0.20731911 -0.83528125 -0.51025552 -0.09165869
-18.17193413 -9.44014263 -0.30089027 -0.83550018 -0.46677023 -0.13302781
-18.17936897 -10.93810940 2.10215735 -0.83584201 -0.54083759 0.92939329
-18.32124519 -10.13754272 1.96956837 -0.84236509 -0.50125337 0.87077379
-19.40768242 -14.91504097 1.16620100 -0.89231676 -0.73747796 0.51559383
-17.90163803 -14.15695763 1.85979581 -0.82307261 -0.69999439 0.82224184
-17.95073891 -13.13676643 1.69558907 -0.82533014 -0.64955074 0.74964374
-17.92512703 -11.78241444 0.78487599 -0.82415259 -0.58258444 0.34700468
-18.15027237 -10.98045349 0.63857639 -0.83450419 -0.54293132 0.28232357
-17.99700546 -12.20937538 1.53294778 -0.82745737 -0.60369569 0.67773771
-18.01361847 -11.25065708 1.36192644 -0.82822120 -0.55629158 0.60212678
-18.50766182 -9.41554070 0.38101986 -0.85093606 -0.46555379 0.16845423
-18.10368156 -10.40936852 1.22516537 -0.83236206 -0.51469386 0.54166281
-18.10464096 -9.53383255 1.08094788 -0.83240616 -0.47140276 0.47790223
-18.66723633 -13.33965492 -0.61414707 -0.85827291 -0.65958261 -0.27152303
-17.96718025 -14.27348137 0.28317052 -0.82608610 -0.70575589 0.12519366
-18.00337219 -12.26903343 0.05769387 -0.82775009 -0.60664546 0.02550727
-18.18247604 -10.44201660 -0.20756517 -0.83598483 -0.51630819 -0.09176748
-18.16621590 -9.54609966 -0.30124056 -0.83523726 -0.47200933 -0.13318267
-18.12932396 -11.02468777 2.10236740 -0.83354104 -0.54511851 0.92948616
-18.36352539 -10.27437878 1.97998631 -0.84430903 -0.50801927 0.87537974
-18.17667198 -14.10418797 1.08787704 -0.83571798 -0.69738513 0.48096570
-17.91873932 -14.30836868 1.86921525 -0.82385892 -0.70748091 0.82640630
-17.95921135 -13.27327442 1.70281959 -0.82571971 -0.65630043 0.75284046
-18.05904388 -11.99294853 0.79467583 -0.83030975 -0.59299439 0.35133734
-18.12903786 -11.08460045 0.63989329 -0.83352792 -0.54808086 0.28290582
-18.00337982 -12.33807278 1.53892410 -0.82775044 -0.61005914 0.68037993
-18.00598145 -11.36412525 1.36573112 -0.82787007 -0.56190205 0.60380888
-18.17454529 -10.20968246 0.52433181 -0.83562022 -0.50482035 0.23181444
-18.28166580 -9.40950108 0.37592357 -0.84054536 -0.46525517 0.16620108
-18.10271263 -10.52269363 1.22881341 -0.83231753 -0.52029723 0.54327565
-18.11769295 -9.64995670 1.08487308 -0.83300626 -0.47714457 0.47963762
-19.87346458 -15.53380966 -0.51218557 -0.91373229 -0.76807314 -0.22644442
-17.90751076 -14.36425400 0.28335398 -0.82334262 -0.71024418 0.12527478
-18.81722260 -13.98859978 0.16055928 -0.86516893 -0.69166988 0.07098551
-18.17004776 -10.58731937 -0.20777133 -0.83541346 -0.52349269 -0.09185862
-18.16590309 -9.69200039 -0.30178195 -0.83522290 -0.47922343 -0.13342203
-18.09696198 -11.16131306 2.10698891 -0.83205312 -0.55187398 0.93152934
-18.20521355 -10.33640957 1.96916759 -0.83703029 -0.51108640 0.87059665
-17.99511909 -14.14521408 1.08159828 -0.82737064 -0.69941372 0.47818977
-17.89659500 -14.47586346 1.87689042 -0.82284075 -0.71576273 0.82979959
-17.95049667 -13.44193745 1.71054316 -0.82531899 -0.66464001 0.75625515
-18.04131126 -12.14528847 0.79768461 -0.82949448 -0.60052687 0.35266757
-19.64136505 -12.17738628 0.70800644 -0.90306091 -0.60211396 0.31301957
-17.99588203 -12.49992943 1.54551327 -0.82740575 -0.61806220 0.68329310
-18.03342819 -11.54038715 1.37404501 -0.82913202 -0.57061738 0.60748458
-19.69010735 -10.28957367 0.41729340 -0.90530199 -0.50877059 0.18449126
-18.11293030 -9.79393387 1.08867931 -0.83278733 -0.48426354 0.48132041
-19.56238556 -15.48936749 -0.50814956 -0.89942962 -0.76587570 -0.22466005
-17.89754868 -14.54212856 0.28526190 -0.82288462 -0.71903926 0.12611829
-18.05535126 -11.63181973 -0.08855781 -0.83013999 -0.57513827 -0.03915265
-18.15822983 -10.73389626 -0.20798413 -0.83487010 -0.53074020 -0.09195270
-18.14159775 -9.82591438 -0.30211636 -0.83410537 -0.48584482 -0.13356988
-18.44660759 -11.53701496 2.15929437 -0.84812897 -0.57045060 0.95465434
-18.10716629 -10.43168640 1.96536112 -0.83252227 -0.51579738 0.86891371
-17.89183617 -14.24679184 1.08064055 -0.82262194 -0.70443624 0.47776636
-17.90538979 -14.67018795 1.88822865 -0.82324511 -0.72537118 0.83481240
-17.92924690 -13.60259056 1.71711636 -0.82434201 -0.67258352 0.75916123
-18.05866432 -12.32268810 0.80258453 -0.83029228 -0.60929847 0.35483387
-17.98868942 -12.66332722 1.55225575 -0.82707500 -0.62614143 0.68627405
-18.02587318 -11.69575405 1.37954068 -0.82878464 -0.57829952 0.60991430
-19.61446571 -10.40747356 0.41699362 -0.90182418 -0.51460016 0.18435873
-18.10181808 -9.93535328 1.09212863 -0.83227640 -0.49125606 0.48284540
-19.27760124 -15.46167660 -0.50458837 -0.88633597 -0.76450652 -0.22308560
-17.88914108 -14.72298717 0.28724322 -0.82249802 -0.72798181 0.12699425
-20.27219772 -15.46726036 0.18667334 -0.93206501 -0.76478261 0.08253091
-18.04222870 -11.78435040 -0.08839259 -0.82953662 -0.58268017 -0.03907960
-18.14357185 -10.87971115 -0.20819028 -0.83419615 -0.53795010 -0.09204384
-18.15139580 -9.97913933 -0.30276921 -0.83455586 -0.49342108 -0.13385852
-18.24043846 -10.66192913 1.98860109 -0.83864981 -0.52718180 0.87918842
-18.18768692 -9.73557949 1.77954841 -0.83622444 -0.48137820 0.78676331
-17.88119316 -14.42294502 1.08606791 -0.82213265 -0.71314615 0.48016587
-21.25125504 -15.84508038 1.12563634 -0.97707963 -0.78346401 0.49765962
-17.86954880 -14.82952690 1.89468277 -0.82159722 -0.73324972 0.83766586
-17.93989372 -13.78898335 1.72714055 -0.82483155 -0.68179977 0.76359308
-18.78699684 -11.97797012 0.67764455 -0.86377919 -0.59225374 0.29959616
-17.98826027 -12.83292294 1.55976450 -0.82705528 -0.63452715 0.68959379
-18.02541351 -11.85695362 1.38574088 -0.82876348 -0.58627009 0.61265546
-18.24049759 -11.06838608 1.25474083 -0.83865255 -0.54727918 0.55473852
-18.12105370 -10.09447765 1.09771895 -0.83316082 -0.49912402 0.48531696
-17.87302399 -14.89918423 0.28907776 -0.82175702 -0.73669392 0.12780534
-20.24110985 -15.64564228 0.18774234 -0.93063569 -0.77360272 0.08300352
-18.11132812 -11.99230385 -0.08799787 -0.83271366 -0.59296250 -0.03890509
-18.12267113 -11.02264118 -0.20837648 -0.83323514 -0.54501730 -0.09212617
-18.11105347 -10.10563660 -0.30297622 -0.83270103 -0.49967575 -0.13395004
-18.35099602 -10.88205338 2.00943708 -0.84373295 -0.53806591 0.88840032
-18.10689926 -9.83922386 1.77751172 -0.83250999 -0.48650292 0.78586286
-17.85512924 -14.58813953 1.09053743 -0.82093424 -0.72131425 0.48214191
-18.61850548 -14.06801224 0.97440881 -0.85603237 -0.69559646 0.43079981
-17.86746216 -15.01850986 1.90514874 -0.82150131 -0.74259400 0.84229302
-17.90168953 -13.93934917 1.73223484 -0.82307500 -0.68923467 0.76584536
-18.07148552 -11.68295765 0.64977008 -0.83088177 -0.57766682 0.28727248
-17.96702766 -12.98897457 1.56543434 -0.82607907 -0.64224315 0.69210047
-17.99872398 -12.00202847 1.38982737 -0.82753640 -0.59344333 0.61446220
-18.14850998 -11.16915607 1.25304711 -0.83442318 -0.55226177 0.55398971
-18.07813835 -10.21990490 1.09914625 -0.83118767 -0.50532579 0.48594797
-17.86760902 -15.08608818 0.29120585 -0.82150805 -0.74593544 0.12874620
-17.95557785 -14.06291771 0.15241456 -0.82555264 -0.69534451 0.06738462
-18.01402092 -12.09139347 -0.08805754 -0.82823968 -0.59786201 -0.03893147
-18.12280464 -11.17940807 -0.20864914 -0.83324128 -0.55276865 -0.09224671
-18.13078117 -10.26645088 -0.30374053 -0.83360803 -0.50762725 -0.13428795
-18.31975365 -11.01974297 2.01384473 -0.84229654 -0.54487401 0.89034903
-18.09706306 -9.98159981 1.78306615 -0.83205777 -0.49354273 0.78831857
-17.86920357 -14.78798962 1.09788036 -0.82158136 -0.73119593 0.48538831
-19.52025604 -14.94159508 1.03383327 -0.89749265 -0.73879093 0.45707220
-17.85915565 -15.20417023 1.91509151 -0.82111937 -0.75177407 0.84668881
-17.90771675 -14.12553596 1.74209464 -0.82335210 -0.69844073 0.77020448
-18.53631210 -12.14855480 0.67332804 -0.85225338 -0.60068840 0.29768777
-17.96704865 -13.16178226 1.57324946 -0.82608002 -0.65078765 0.69555569
-18.00069237 -12.16731739 1.39645040 -0.82762688 -0.60161608 0.61739033
-18.18350410 -10.98044491 0.53690588 -0.83603209 -0.54293090 0.23737362
-18.27967453 -10.14667511 0.38456726 -0.84045380 -0.50170493 0.17002258
-17.96630096 -11.21311760 1.24444807 -0.82604569 -0.55443543 0.55018795
-18.08460999 -10.37395096 1.10402298 -0.83148521 -0.51294261 0.48810405
-17.83473206 -15.25139332 0.29271019 -0.81999648 -0.75410903 0.12941128
-17.96092987 -14.24995232 0.15394169 -0.82579869 -0.70459253 0.06805978
-18.01711464 -12.25826740 -0.08783723 -0.82838196 -0.60611314 -0.03883407
-18.13098526 -11.30283260 -0.20888855 -0.83361745 -0.55887145 -0.09235255
-18.11172295 -10.36863804 -0.30401123 -0.83273178 -0.51267993 -0.13440762
-18.16226006 -11.04175663 2.00142336 -0.83505535 -0.54596245 0.88485736
-18.09680939 -10.09291267 1.78806520 -0.83204609 -0.49904662 0.79052871
-17.86517334 -14.92715263 1.10245633 -0.82139605 -0.73807687 0.48741141
-18.32035065 -14.16204166 0.96583796 -0.84232396 -0.70024574 0.42701051
-17.92364693 -14.27550888 1.75080419 -0.82408452 -0.70585614 0.77405512
-18.68973732 -13.41070366 0.85166997 -0.85930747 -0.66309565 0.37653524
-18.89739227 -12.51234913 0.69169152 -0.86885494 -0.61867630 0.30580652
-17.97211075 -13.29617691 1.57968545 -0.82631278 -0.65743285 0.69840109
-18.01239777 -12.29919338 1.40236866 -0.82816505 -0.60813671 0.62000686
-18.14349556 -11.07331181 0.53735042 -0.83419263 -0.54752272 0.23757017
-18.14268684 -10.18288231 0.38201913 -0.83415544 -0.50349522 0.16889602
-18.07015610 -11.39681911 1.25656497 -0.83082068 -0.56351858 0.55554503
-18.08736420 -10.48905277 1.10759127 -0.83161187 -0.51863390 0.48968163
-17.92013168 -14.35566425 0.15437438 -0.82392293 -0.70981944 0.06825108
-18.02512169 -12.38828468 -0.08765364 -0.82875007 -0.61254185 -0.03875291
-18.11874199 -11.45398998 -0.20912130 -0.83305454 -0.56634545 -0.09245546
-18.11370087 -10.52134228 -0.30463222 -0.83282274 -0.52023041 -0.13468218
-18.09760284 -11.15879345 2.00202441 -0.83208257 -0.55174935 0.88512307
-18.12147331 -10.25635719 1.79750776 -0.83318013 -0.50712818 0.79470342
-17.86852837 -15.12176323 1.10926712 -0.82155031 -0.74769944 0.49042255
-17.93353653 -14.04434013 0.94783920 -0.82453924 -0.69442594 0.41905302
-17.91277122 -14.45160389 1.75918508 -0.82358450 -0.71456319 0.77776039
-17.96475220 -13.46631622 1.58704090 -0.82597446 -0.66584539 0.70165306
-18.00370979 -12.45974445 1.40828705 -0.82776564 -0.61607522 0.62262344
-18.05027962 -11.54351330 1.26060390 -0.82990682 -0.57077193 0.55733067
-18.06759071 -10.62977982 1.11080277 -0.83070272 -0.52559215 0.49110150
-17.90261650 -14.52713680 0.15557064 -0.82311761 -0.71829796 0.06877996
-18.01754189 -12.55038452 -0.08745629 -0.82840157 -0.62055695 -0.03866566
-18.11877632 -11.61408424 -0.20940726 -0.83305609 -0.57426137 -0.09258188
-18.09895706 -10.66535568 -0.30510992 -0.83214486 -0.52735120 -0.13489337
-18.47566986 -11.55334854 2.05531621 -0.84946519 -0.57125825 0.90868413
-17.82144737 -14.13813972 0.94641072 -0.81938565 -0.69906390 0.41842145
-17.90347672 -14.63064289 1.76789463 -0.82315713 -0.72341585 0.78161103
-17.95913506 -13.63930035 1.59470284 -0.82571620 -0.67439866 0.70504051
-17.99371147 -12.62067032 1.41420543 -0.82730591 -0.62403226 0.62524009
-20.19921684 -12.68197918 0.61978036 -0.92870957 -0.62706369 0.27401361
-20.43299484 -11.80527401 0.45181817 -0.93945807 -0.58371478 0.19975515
-18.05772209 -11.70889187 1.26685774 -0.83024895 -0.57894915 0.56009561
-18.06905937 -10.78395176 1.11556053 -0.83077025 -0.53321522 0.49320495
-18.14380836 -15.66133308 -0.49354860 -0.83420700 -0.77437860 -0.21820477
-17.99882317 -12.70596409 -0.08728647 -0.82754093 -0.62824965 -0.03859057
-18.10242653 -11.76480675 -0.20963337 -0.83230436 -0.58171386 -0.09268185
-18.11231422 -10.82701492 -0.30585831 -0.83275896 -0.53534448 -0.13522425
-18.16332054 -10.58335304 1.81602263 -0.83510411 -0.52329659 0.80288911
-17.90368080 -14.38733578 0.95688623 -0.82316655 -0.71138549 0.42305282
-17.87880707 -14.79870701 1.77512515 -0.82202291 -0.73172581 0.78480774
-20.35728073 -14.03571796 0.76719391 -0.93597692 -0.69399965 0.33918720
-17.94257355 -13.80543900 1.60144532 -0.82495475 -0.68261343 0.70802146
-17.97263718 -12.77503395 1.41927838 -0.82633698 -0.63166481 0.62748289
-18.03546333 -11.85615444 1.27089667 -0.82922560 -0.58623058 0.56188124
-18.05392075 -10.92926979 1.11924779 -0.83007419 -0.54040051 0.49483517
-18.00490189 -12.88039684 -0.08704322 -0.82782042 -0.63687450 -0.03848303
-18.10325623 -11.92790222 -0.20993263 -0.83234251 -0.58977813 -0.09281416
-18.07472992 -10.95923805 -0.30614492 -0.83103096 -0.54188228 -0.13535097
-18.63683128 -11.98290730 2.09217978 -0.85687500 -0.59249789 0.92498201
-18.15478325 -10.73166466 1.82231760 -0.83471161 -0.53062987 0.80567217
-17.88890076 -14.56127167 0.96155256 -0.82248700 -0.71998578 0.42511588
-17.85425758 -14.96831512 1.78252006 -0.82089418 -0.74011213 0.78807712
-17.93091774 -13.97681522 1.60880077 -0.82441884 -0.69108719 0.71127337
-17.96166992 -12.93778229 1.42533767 -0.82583272 -0.63971192 0.63016176
-18.74241257 -12.09675980 0.57075423 -0.86172932 -0.59812737 0.25233847
-18.02866173 -12.01468086 1.27623856 -0.82891285 -0.59406894 0.56424296
-18.05298805 -11.08420753 1.12400556 -0.83003134 -0.54806143 0.49693862
-17.97870827 -13.03313065 -0.08688717 -0.82661611 -0.64442647 -0.03841404
-18.08612633 -12.08034611 -0.21016537 -0.83155495 -0.59731579 -0.09291705
-18.08733559 -11.12279510 -0.30690923 -0.83161056 -0.54996943 -0.13568889
-18.71278000 -12.19879818 2.11041117 -0.86036688 -0.60317266 0.93304241
-18.09724998 -10.85165691 1.82342851 -0.83206636 -0.53656292 0.80616331
-17.87572479 -14.73812675 0.96640933 -0.82188118 -0.72873044 0.42726311
-17.87085533 -15.17428398 1.79451621 -0.82165730 -0.75029629 0.79338080
-18.80513000 -13.31896782 0.70559216 -0.86461294 -0.65855974 0.31195220
-17.90530205 -14.13868904 1.61493027 -0.82324111 -0.69909108 0.71398336
-17.95420074 -13.10441780 1.43181968 -0.82548934 -0.64795125 0.63302755
-18.73290634 -12.25812531 0.57329440 -0.86129224 -0.60610610 0.25346151
-18.19244194 -10.97562695 0.39306107 -0.83644307 -0.54269266 0.17377782
-18.01066208 -12.16687584 1.28079867 -0.82808530 -0.60159427 0.56625909
-18.02877426 -11.22586727 1.12721694 -0.82891804 -0.55506587 0.49835843
-17.92247581 -14.21353340 0.06745885 -0.82403070 -0.70279175 0.02982450
-17.98033905 -13.20732689 -0.08664851 -0.82669109 -0.65303963 -0.03830852
-18.09361458 -12.20912933 -0.21042474 -0.83189923 -0.60368347 -0.09303173
-18.08230972 -11.23741817 -0.30735508 -0.83137947 -0.55563700 -0.13588600
-18.52055740 -12.19806194 2.09418321 -0.85152900 -0.60313624 0.92586780
-18.26743889 -11.07078266 1.84749782 -0.83989125 -0.54739767 0.81680471
-17.87675476 -14.88093090 0.97079003 -0.82192856 -0.73579139 0.42919990
-18.31789970 -14.17374516 0.85846114 -0.84221131 -0.70082444 0.37953773
-19.53104782 -13.97072601 0.74107534 -0.89798880 -0.69078606 0.32763982
-17.90703201 -14.27766895 1.62167275 -0.82332063 -0.70596296 0.71696430
-17.95974159 -13.23853493 1.43773806 -0.82574409 -0.65458274 0.63564420
-18.92157745 -12.50964832 0.58269322 -0.86996686 -0.61854273 0.25761685
-18.20884132 -11.10280418 0.39505962 -0.83719707 -0.54898095 0.17466140
-18.02396584 -12.30005360 1.28640103 -0.82869697 -0.60817927 0.56873596
-18.03992462 -11.35104275 1.13173687 -0.82943070 -0.56125522 0.50035673
-17.91925812 -14.34914207 0.06819481 -0.82388276 -0.70949697 0.03014988
-17.98380280 -13.34070492 -0.08646033 -0.82685035 -0.65963453 -0.03822533
-18.07923698 -12.36553669 -0.21067743 -0.83123815 -0.61141711 -0.09314345
-18.10107613 -11.40723801 -0.30819902 -0.83224231 -0.56403375 -0.13625911
-18.18553352 -12.14157677 2.06292939 -0.83612543 -0.60034335 0.91205001
-18.08887672 -11.11870480 1.83564830 -0.83168137 -0.54976720 0.81156588
-17.87308121 -15.06885529 0.97640866 -0.82175964 -0.74508339 0.43168396
-17.93146706 -14.05531883 0.84221393 -0.82444412 -0.69496882 0.37235460
-17.89448166 -14.45261574 1.62933469 -0.82274359 -0.71461326 0.72035176
-17.95138359 -13.40715790 1.44436097 -0.82535982 -0.66292030 0.63857228
-20.38469315 -12.60294533 0.46101147 -0.93723732 -0.62315583 0.20381965
-18.01522064 -12.46080494 1.29187322 -0.82829487 -0.61612767 0.57115525
-18.02045441 -11.49740505 1.13542414 -0.82853550 -0.56849211 0.50198692
-17.97641945 -13.51104546 -0.08624003 -0.82651091 -0.66805708 -0.03812793
-18.07838821 -12.53251171 -0.21099000 -0.83119917 -0.61967319 -0.09328164
-18.07963371 -11.55300331 -0.30867672 -0.83125645 -0.57124120 -0.13647030
-18.10229874 -12.25113201 2.06212807 -0.83229852 -0.60576034 0.91169578
-18.07446098 -11.26685143 1.84175825 -0.83101857 -0.55709231 0.81426716
-17.78346252 -16.85885239 2.00701833 -0.81763923 -0.83359021 0.88733095
-17.86156654 -14.18263435 0.84324551 -0.82123023 -0.70126396 0.37281066
-17.88197899 -14.62922955 1.63714981 -0.82216877 -0.72334594 0.72380692
-17.94798279 -13.58100605 1.45154762 -0.82520342 -0.67151630 0.64174956
-18.00026512 -12.61848831 1.29695451 -0.82760727 -0.62392437 0.57340181
-18.01998520 -11.65696335 1.14053869 -0.82851392 -0.57638150 0.50424814
-17.95645714 -13.67334557 -0.08605185 -0.82559305 -0.67608202 -0.03804473
-18.07124519 -12.69650936 -0.21128260 -0.83087075 -0.62778211 -0.09341100
-18.06546783 -11.70437717 -0.30923402 -0.83060509 -0.57872587 -0.13671671
-18.08564186 -12.40633488 2.06954074 -0.83153266 -0.61343437 0.91497302
-18.10268784 -11.44287682 1.85268199 -0.83231640 -0.56579596 0.81909668
-17.75186348 -17.04206657 2.01608896 -0.81618637 -0.84264928 0.89134121
-17.88879395 -14.38861084 0.84969276 -0.82248211 -0.71144849 0.37566110
-21.26974487 -15.82621670 0.83252698 -0.97792977 -0.78253132 0.36807185
-17.86795998 -14.80625534 1.64496493 -0.82152420 -0.73209906 0.72726208
-17.92884254 -13.74442673 1.45746601 -0.82432342 -0.67959666 0.64436615
-17.98728752 -12.77878857 1.30229628 -0.82701057 -0.63185042 0.57576346
-18.00652313 -11.80931473 1.14482069 -0.82789499 -0.58391458 0.50614130
-17.96368408 -13.85789013 -0.08578106 -0.82592535 -0.68520689 -0.03792501
-18.06275368 -12.86090946 -0.21157520 -0.83048034 -0.63591093 -0.09354036
-18.05680466 -11.86041355 -0.30985504 -0.83020681 -0.58644116 -0.13699126
-18.77311897 -13.05319595 2.16350269 -0.86314112 -0.64541858 0.95651489
-18.02036667 -11.54995537 1.85157108 -0.82853144 -0.57109046 0.81860554
-17.87543297 -14.56389809 0.85399097 -0.82186776 -0.72011566 0.37756139
-21.27368355 -16.03767014 0.83728242 -0.97811085 -0.79298669 0.37017432
-17.86157608 -14.99137878 1.65369952 -0.82123065 -0.74125254 0.73112375
-17.92096710 -13.91791916 1.46451163 -0.82396132 -0.68817502 0.64748114
-19.45247078 -12.54028702 0.44047645 -0.89437604 -0.62005764 0.19474082
-17.99080849 -12.95226574 1.30907130 -0.82717246 -0.64042807 0.57875878
-18.00516701 -11.97078609 1.15005410 -0.82783264 -0.59189856 0.50845504
-17.93775940 -14.01846027 -0.08560207 -0.82473338 -0.69314635 -0.03784588
-18.04804230 -13.02218628 -0.21184786 -0.82980394 -0.64388531 -0.09366091
-18.05355263 -12.02122879 -0.31053972 -0.83005726 -0.59439272 -0.13729396
-18.03432465 -11.71929455 1.86119878 -0.82917321 -0.57946348 0.82286209
-17.86057281 -14.73958397 0.85828918 -0.82118458 -0.72880244 0.37946171
-21.26467514 -16.24131203 0.84152579 -0.97769666 -0.80305576 0.37205037
-17.83079529 -15.15761089 1.66013551 -0.81981546 -0.74947190 0.73396921
-17.89749527 -14.08076286 1.47028911 -0.82288218 -0.69622689 0.65003544
-18.83735275 -13.32318592 0.59507674 -0.86609447 -0.65876830 0.26309177
-17.97191048 -13.11097908 1.31415260 -0.82630360 -0.64827567 0.58100533
-17.99089241 -12.12490463 1.15445507 -0.82717633 -0.59951901 0.51040077
-17.93406105 -14.19785023 -0.08535422 -0.82456332 -0.70201629 -0.03773630
-18.03846931 -13.18851280 -0.21214712 -0.82936376 -0.65210938 -0.09379322
-18.03737831 -12.17464828 -0.31111297 -0.82931364 -0.60197860 -0.13754740
-18.00359917 -11.86081982 1.86601269 -0.82776052 -0.58646125 0.82499039
-17.85340118 -14.92335224 0.86310315 -0.82085484 -0.73788893 0.38159001
-20.24485588 -15.66589737 0.79909223 -0.93080795 -0.77460426 0.35328990
-17.88517380 -14.25379562 1.47719395 -0.82231563 -0.70478255 0.65308815
-17.95974541 -13.27590370 1.31988537 -0.82574427 -0.65643042 0.58353984
-17.97703934 -12.28043938 1.15897489 -0.82653940 -0.60720944 0.51239908
-17.91788483 -14.36899471 -0.08513851 -0.82381964 -0.71047860 -0.03764093
-18.03239441 -13.31500149 -0.21237987 -0.82908446 -0.65836364 -0.09389612
-18.05090332 -12.30789185 -0.31179768 -0.82993549 -0.60856682 -0.13785014
-18.01054192 -11.98739719 1.87304831 -0.82807976 -0.59271991 0.82810092
-17.86375237 -15.07569027 0.86765927 -0.82133073 -0.74542135 0.38360435
-17.96616554 -14.04127502 0.69673961 -0.82603943 -0.69427443 0.30803835
-17.89868736 -14.40288544 1.48452139 -0.82293695 -0.71215433 0.65632772
-21.74976730 -15.74878788 0.71516538 -1.00000000 -0.77870280 0.31618464
-17.97369766 -13.41776466 1.32613921 -0.82638574 -0.66344476 0.58630478
-17.98638344 -12.41144466 1.16385162 -0.82696903 -0.61368704 0.51455516
-18.03639603 -13.49401379 -0.21274562 -0.82926846 -0.66721493 -0.09405783
-18.03577614 -12.46421432 -0.31240276 -0.82923996 -0.61629623 -0.13811764
-18.00259399 -12.14592457 1.88063943 -0.82771432 -0.60055834 0.83145708
-17.80070496 -16.82900238 1.88128281 -0.81843197 -0.83211428 0.83174151
-17.95442581 -14.21460342 0.70032454 -0.82549965 -0.70284468 0.30962330
-17.87747574 -14.57172012 1.49086261 -0.82196170 -0.72050238 0.65913129
-21.50219154 -15.77622890 0.70932287 -0.98861706 -0.78005964 0.31360158
-17.95902443 -13.58346748 1.33187187 -0.82571113 -0.67163801 0.58883923
-17.97189331 -12.56877422 1.16849041 -0.82630277 -0.62146622 0.51660603
-18.01639938 -18.44270134 0.33519831 -0.82834905 -0.91190404 0.14819588
-18.01496696 -13.65545559 -0.21301164 -0.82828319 -0.67519748 -0.09417544
-18.02922821 -12.62770557 -0.31310338 -0.82893890 -0.62438011 -0.13842739
-17.99007416 -12.30257797 1.88786018 -0.82713872 -0.60830408 0.83464950
-18.34011459 -18.40776634 1.24654698 -0.84323269 -0.91017669 0.55111593
-17.63311958 -18.19767952 2.08010650 -0.81072682 -0.89978886 0.91964430
-17.75945663 -17.00249100 1.88867772 -0.81653547 -0.84069246 0.83501095
-17.89440346 -14.35086536 0.70171458 -0.82274002 -0.70958215 0.31023785
-17.88718033 -14.76749992 1.50016284 -0.82240790 -0.73018277 0.66324306
-17.94772530 -13.75315857 1.33799553 -0.82519162 -0.68002844 0.59154660
-17.97243309 -12.73793983 1.17431867 -0.82632762 -0.62983066 0.51918274
-17.77392960 -18.42447281 0.33185944 -0.81720090 -0.91100276 0.14671971
-18.01440811 -13.83423328 -0.21337074 -0.82825750 -0.68403715 -0.09433420
-18.02623177 -12.79507256 -0.31385177 -0.82880116 -0.63265562 -0.13875827
-17.97793007 -12.46068573 1.89526606 -0.82658035 -0.61612177 0.83792371
-18.09953117 -18.39583397 1.23707569 -0.83217126 -0.90958667 0.54692852
-19.39335251 -18.26147461 1.13182640 -0.89165795 -0.90294325 0.50039631
-17.68909264 -18.48674965 2.10173631 -0.81330031 -0.91408205 0.92920709
-17.90013123 -14.54106236 0.70625061 -0.82300335 -0.71898651 0.31224331
-17.84611320 -14.92306328 1.50495398 -0.82051975 -0.73787463 0.66536129
-21.32937813 -16.06564713 0.71040249 -0.98067158 -0.79437000 0.31407890
-17.93342590 -13.92201710 1.34398878 -0.82453418 -0.68837768 0.59419632
-17.97479820 -12.90993309 1.18038476 -0.82643634 -0.63833493 0.52186465
-18.00284767 -14.00616360 -0.21368995 -0.82772601 -0.69253832 -0.09447533
-18.01534271 -12.95823383 -0.31453645 -0.82830048 -0.64072317 -0.13906097
-18.30094910 -13.91216660 2.17592430 -0.84143198 -0.68789059 0.96200669
-17.97102928 -12.62369728 1.90341258 -0.82626307 -0.62418193 0.84152544
-17.78509712 -16.96134949 1.03354752 -0.81771433 -0.83865821 0.45694587
-17.67649460 -18.70767212 2.11499333 -0.81272107 -0.92500561 0.93506825
-17.83337021 -17.50754356 1.92203689 -0.81993383 -0.86566496 0.84975946
-17.87946129 -14.71159744 0.70961601 -0.82205302 -0.72741866 0.31373119
-17.86169052 -15.12763691 1.51509976 -0.82123595 -0.74798983 0.66984689
-21.32330704 -16.27217865 0.71421278 -0.98039240 -0.80458200 0.31576350
-18.81831551 -13.29385853 0.43787837 -0.86521918 -0.65731823 0.19359218
-17.93025017 -14.10111713 1.35102439 -0.82438815 -0.69723332 0.59730685
-17.95955467 -13.07072258 1.18526149 -0.82573551 -0.64628518 0.52402073
-17.99768066 -14.18468857 -0.21404241 -0.82748842 -0.70136553 -0.09463115
-18.00472832 -13.12293720 -0.31523708 -0.82781243 -0.64886695 -0.13937074
-18.08241081 -13.92598534 2.15929556 -0.83138412 -0.68857390 0.95465487
-17.96278763 -12.78711128 1.91155910 -0.82588410 -0.63226193 0.84512711
-17.65638351 -18.92332840 2.12755251 -0.81179643 -0.93566877 0.94062084
-17.87886238 -14.90034103 0.71400571 -0.82202548 -0.73675114 0.31567195
-20.25650787 -15.65928459 0.67547452 -0.93134367 -0.77427727 0.29863676
-17.88965225 -14.25209045 1.35506332 -0.82252157 -0.70469820 0.59909248
-17.93013573 -13.22236061 1.18918657 -0.82438290 -0.65378296 0.52575606
-18.00257301 -14.32669449 -0.21434832 -0.82771337 -0.70838702 -0.09476640
-18.00554466 -13.25381756 -0.31585810 -0.82784998 -0.65533835 -0.13964529
-17.97352028 -12.92270184 1.91970563 -0.82637757 -0.63896626 0.84872878
-17.88037872 -15.04484367 0.71744430 -0.82209516 -0.74389613 0.31719220
-17.97781372 -14.03076363 0.58656704 -0.82657498 -0.69375467 0.25932953
-19.40219307 -14.02766609 0.46041191 -0.89206439 -0.69360149 0.20355457
-17.92019272 -14.41512871 1.36327147 -0.82392573 -0.71275967 0.60272145
-17.94934464 -13.36744976 1.19525278 -0.82526606 -0.66095692 0.52843803
-17.66161919 -17.82488823 0.18150653 -0.81203717 -0.88135612 0.08024658
-18.00533485 -13.42878628 -0.31668609 -0.82784033 -0.66398972 -0.14001137
-17.95478439 -13.08105278 1.92692649 -0.82551616 -0.64679599 0.85192126
-17.85562325 -18.14524078 1.96049023 -0.82095701 -0.89719605 0.86676025
-17.86465645 -15.22423458 0.72124869 -0.82137233 -0.75276613 0.31887418
-17.78776169 -16.83836555 1.74395692 -0.81783688 -0.83257723 0.77102780
-17.97862053 -14.21419048 0.59018683 -0.82661211 -0.70282423 0.26092988
-17.89574623 -14.58170605 1.36887395 -0.82280171 -0.72099614 0.60519838
-17.92879105 -13.52800655 1.20001042 -0.82432103 -0.66889572 0.53054142
-17.73404503 -18.12403870 0.18486623 -0.81536710 -0.89614767 0.08173196
-17.99724579 -13.59945679 -0.31745040 -0.82746845 -0.67242861 -0.14034928
-17.94598961 -13.24794483 1.93544328 -0.82511181 -0.65504801 0.85568666
-18.43820953 -18.43126106 1.10478067 -0.84774286 -0.91133839 0.48843905
-17.62587357 -18.13851738 1.94685078 -0.81039369 -0.89686358 0.86073005
-17.78229904 -17.04647636 1.75468361 -0.81758571 -0.84286737 0.77577025
-17.91078568 -14.34438610 0.59107590 -0.82349318 -0.70926183 0.26132295
-17.90067482 -14.77397823 1.37708211 -0.82302833 -0.73050308 0.60882735
-17.92914772 -13.70578575 1.20643342 -0.82433742 -0.67768604 0.53338116
-17.72690964 -18.34575844 0.18682607 -0.81503904 -0.90711069 0.08259843
-18.02903748 -13.80212402 -0.31862873 -0.82893014 -0.68244952 -0.14087023
-17.94218445 -13.42000675 1.94470072 -0.82493687 -0.66355562 0.85977948
-18.17029190 -18.39337730 1.09449565 -0.83542466 -0.90946519 0.48389187
-17.67730713 -18.42135429 1.96657050 -0.81275845 -0.91084856 0.86944842
-17.89631653 -14.51841545 0.59418768 -0.82282794 -0.71786672 0.26269871
-17.86563873 -14.93485069 1.38203311 -0.82141745 -0.73845750 0.61101621
-17.91533852 -13.87433243 1.21190488 -0.82370251 -0.68601990 0.53580016
-17.71077538 -18.56087112 0.18865862 -0.81429726 -0.91774696 0.08340862
-18.74849701 -14.53949547 -0.32674956 -0.86200911 -0.71890903 -0.14446057
-17.92104149 -13.58052731 1.95210671 -0.82396477 -0.67149264 0.86305380
-17.97338867 -18.42430496 1.08897221 -0.82637155 -0.91099441 0.48144990
-17.67510414 -18.65205574 1.98020995 -0.81265718 -0.92225564 0.87547863
-17.88499451 -14.69663811 0.59748995 -0.82230741 -0.72667903 0.26415870
-19.43342590 -14.80737114 0.47265297 -0.89350039 -0.73215425 0.20896651
-17.86733437 -15.12813759 1.39024127 -0.82149541 -0.74801463 0.61464518
-17.89697075 -14.04078293 1.21713829 -0.82285804 -0.69425005 0.53811389
-17.69400597 -18.77795601 0.19051665 -0.81352621 -0.92848080 0.08423009
-18.80785179 -14.77548790 -0.32827818 -0.86473805 -0.73057777 -0.14513639
-17.91439247 -13.75342369 1.96136403 -0.82365906 -0.68004155 0.86714655
-17.75462341 -18.43048477 1.08192515 -0.81631327 -0.91130000 0.47833431
-17.65570259 -18.86745453 1.99204183 -0.81176513 -0.93290609 0.88070965
-17.74026108 -17.66021919 1.78533125 -0.81565291 -0.87321401 0.78931999
-17.86906624 -14.87272930 0.60066521 -0.82157505 -0.73538589 0.26556250
-19.55855560 -15.09759808 0.47954795 -0.89925355 -0.74650455 0.21201488
-17.86627007 -14.19886303 1.22153926 -0.82144648 -0.70206636 0.54005963
-17.68610954 -19.00726128 0.19257829 -0.81316316 -0.93981886 0.08514156
-19.22719574 -15.25131989 -0.33324623 -0.88401848 -0.75410539 -0.14733283
-17.93758011 -13.90593719 1.97173238 -0.82472515 -0.68758261 0.87173057
-17.72140884 -18.57026863 1.08563912 -0.81478614 -0.91821164 0.47997630
-17.91122818 -17.99967384 1.81306744 -0.82351357 -0.88999844 0.80158257
-17.87830353 -15.02371311 0.60396749 -0.82199979 -0.74285132 0.26702249
-17.97553444 -14.01331043 0.43168288 -0.82647020 -0.69289172 0.19085306
-17.89265442 -14.35778427 1.22867584 -0.82265955 -0.70992428 0.54321486
-17.69401550 -19.19619179 0.19441085 -0.81352663 -0.94916058 0.08595176
-17.76607323 -17.92878342 0.08869407 -0.81683969 -0.88649327 0.03921289
-17.91567802 -14.06996822 1.97950864 -0.82371813 -0.69569314 0.87516856
-17.74750519 -18.06061172 1.80755079 -0.81598598 -0.89301151 0.79914355
