0.34836125 -4.14588833 0.24837118 0.03004240 -0.62528294 0.10326315
0.10762000 -4.08832598 1.39365232 0.00928107 -0.61660141 0.57942683
0.53038603 -4.13196373 0.42461011 0.04574008 -0.62318283 0.17653649
0.38519153 -4.07174253 1.67372811 0.03321862 -0.61410028 0.69587153
0.40525874 -4.10834789 0.39040941 0.03494920 -0.61962110 0.16231716
0.18379632 -4.07304525 1.62655473 0.01585045 -0.61429673 0.67625862
1.10551453 -4.10120916 0.08828832 0.09533872 -0.61854440 0.03670688
1.28229463 -4.00042677 1.15850210 0.11058410 -0.60334444 0.48166046
0.98182863 -4.13449430 0.06456724 0.08467214 -0.62356448 0.02684456
1.09855294 -4.08806753 1.13398433 0.09473836 -0.61656243 0.47146690
1.85134137 -6.46263504 0.45019197 0.15965824 -0.97469473 0.18717244
1.05551577 -4.17573977 0.21677624 0.09102686 -0.62978512 0.09012719
1.18405604 -4.03037453 1.35851467 0.10211208 -0.60786116 0.56481797
0.79409528 -4.13723373 0.04326484 0.06848216 -0.62397766 0.01798785
0.66663486 -4.13127375 0.01524234 0.05749007 -0.62307876 0.00633718
0.66676748 -4.55891371 1.15732515 0.05750151 -0.68757546 0.48117110
0.85817999 -4.14340925 0.18690251 0.07400878 -0.62490904 0.07770684
0.89210051 -4.04097891 1.30523431 0.07693405 -0.60946047 0.54266602
0.72869289 -4.14121008 0.15880498 0.06284191 -0.62457734 0.06602498
0.69640636 -4.07556057 1.26392984 0.06005754 -0.61467612 0.52549320
0.48353702 -4.17644072 -0.00435026 0.04169986 -0.62989086 -0.00180867
0.33594286 -4.12481213 0.99535209 0.02897145 -0.62210423 0.41382897
0.36021253 -4.15264416 -0.03372736 0.03106445 -0.62630183 -0.01402254
0.20274809 -6.53779268 1.52213848 0.01748484 -0.98602998 0.63284642
0.54467076 -4.16706657 0.13621089 0.04697198 -0.62847704 0.05663123
0.40845516 -4.00281668 1.18665373 0.03522485 -0.60370487 0.49336481
0.41880837 -4.14931917 0.11036818 0.03611771 -0.62580037 0.04588683
0.21688280 -4.09993744 1.16827464 0.01870380 -0.61835265 0.48572350
1.17613518 -4.09848261 -0.05963314 0.10142899 -0.61813319 -0.02479316
2.19901252 -6.33160448 1.48765862 0.18964113 -0.95493269 0.61851102
1.05653656 -4.12973452 -0.08360461 0.09111489 -0.62284660 -0.03475957
1.85925508 -6.40917349 1.44244874 0.16034071 -0.96663165 0.59971452
0.99352854 -4.92519188 0.77919656 0.08568113 -0.74281752 0.32395986
0.62183630 -4.09192181 0.59815657 0.05362668 -0.61714369 0.24869041
0.86769241 -4.14538670 -0.09983817 0.07482912 -0.62520730 -0.04150885
1.00049627 -4.49467659 0.95054793 0.08628202 -0.67788720 0.39520112
0.74693829 -4.17151785 -0.12812078 0.06441538 -0.62914836 -0.05326767
1.11263001 -6.48269701 1.31326032 0.09595235 -0.97772044 0.54600292
1.32207513 -4.02132463 1.64502597 0.11401473 -0.60649621 0.68393826
1.10855472 -4.03458595 1.59520233 0.09560090 -0.60849631 0.66322356
0.55188614 -4.18747091 -0.15189023 0.04759423 -0.63155442 -0.06315009
0.68218005 -6.39134741 1.22120786 0.05883068 -0.96394312 0.50773108
0.42903250 -4.22450686 -0.17165744 0.03699943 -0.63714021 -0.07136854
0.23358186 -4.10824966 0.73169458 0.02014392 -0.61960626 0.30421036
0.80119896 -4.08957481 0.32996652 0.06909478 -0.61678976 0.13718733
0.81554776 -4.03530455 1.53072095 0.07033221 -0.60860467 0.63641465
0.61334538 -4.07220840 1.49352431 0.05289443 -0.61417055 0.62094975
0.90962875 -4.02712345 1.77974820 0.07844568 -0.60737079 0.73995060
0.74722916 -4.15490627 0.45590529 0.06444047 -0.62664300 0.18954782
0.69847459 -4.02646542 1.72438717 0.06023591 -0.60727155 0.71693361
0.49899819 -4.14576769 0.28185767 0.04303322 -0.62526476 0.11718553
0.33267695 -4.07236910 1.43611634 0.02868980 -0.61419475 0.59708172
0.37152192 -4.10988665 0.24522367 0.03203976 -0.61985314 0.10195453
0.13320111 -4.08379459 1.39233279 0.01148716 -0.61591798 0.57887822
0.55332035 -4.10695791 0.42165998 0.04771792 -0.61941147 0.17530994
0.40785053 -4.04171801 1.66215527 0.03517271 -0.60957199 0.69106001
0.43284085 -4.12348604 0.39269888 0.03732786 -0.62190425 0.16326903
0.20826781 -4.04776096 1.61673641 0.01796085 -0.61048335 0.67217660
1.13180232 -4.09610415 0.08839474 0.09760576 -0.61777449 0.03675112
1.31287289 -4.00871992 1.16342080 0.11322114 -0.60459518 0.48370546
1.00453556 -4.11464262 0.06390062 0.08663037 -0.62057048 0.02656741
1.11818051 -4.05875158 1.12759686 0.09643102 -0.61214095 0.46881124
1.88511264 -6.42795372 0.44809875 0.16257066 -0.96946406 0.18630216
1.41309857 -3.98141837 1.39573872 0.12186453 -0.60047758 0.58029425
1.21043146 -4.02649593 1.35977435 0.10438667 -0.60727620 0.56534165
0.82047284 -4.13412046 0.04335080 0.07075694 -0.62350810 0.01802359
0.69514865 -4.14278507 0.01582763 0.05994908 -0.62481493 0.00658052
0.69766897 -4.56995678 1.16133249 0.06016643 -0.68924093 0.48283720
0.89101374 -4.16910458 0.18935433 0.07684033 -0.62878442 0.07872622
0.92048955 -4.04826689 1.30954850 0.07938231 -0.61055964 0.54445970
0.75225824 -4.12279940 0.15781859 0.06487416 -0.62180066 0.06561487
0.72459149 -4.08614731 1.26872575 0.06248821 -0.61627281 0.52748716
0.50951672 -4.17133713 -0.00441377 0.04394033 -0.62912112 -0.00183507
0.36292818 -4.13421488 0.99825007 0.03129864 -0.62352234 0.41503385
0.38506803 -4.13635731 -0.03407711 0.03320797 -0.62384546 -0.01416795
0.24415439 -6.54611206 1.52445364 0.02105569 -0.98728472 0.63380897
0.56803572 -4.14380264 0.13490801 0.04898696 -0.62496835 0.05608954
0.43100724 -3.97735310 1.17968082 0.03716973 -0.59986442 0.49046573
0.44446430 -4.14263391 0.11013029 0.03833026 -0.62479210 0.04578792
0.24118394 -4.07166338 1.16040003 0.02079952 -0.61408836 0.48244953
1.80810845 -5.52647781 0.97924221 0.15592986 -0.83350348 0.40713111
1.19957209 -4.08334827 -0.05977990 0.10345016 -0.61585063 -0.02485417
1.37477720 -3.90286326 0.90525836 0.11855972 -0.58862990 0.37637147
1.08545494 -4.13463449 -0.08345190 0.09360879 -0.62358564 -0.03469608
1.89893806 -6.39549112 1.44201660 0.16376294 -0.96456808 0.59953481
0.64753419 -4.08793402 0.59815657 0.05584285 -0.61654228 0.24869041
0.89458418 -4.14375877 -0.09980226 0.07714824 -0.62496173 -0.04149393
1.00422311 -4.38356066 0.92754161 0.08660343 -0.66112870 0.38563600
0.77348918 -4.16871023 -0.12811619 0.06670511 -0.62872493 -0.05326577
1.15300214 -6.47364855 1.31285882 0.09943401 -0.97635579 0.54583603
1.14124966 -4.08374023 0.37863246 0.09842049 -0.61590976 0.15742075
1.34101033 -4.01504993 1.64502597 0.11564769 -0.60554987 0.68393826
1.12311399 -4.01314545 1.58866429 0.09685648 -0.60526264 0.66050529
0.56740981 -4.15511990 -0.15179048 0.04893298 -0.62667525 -0.06310862
0.71094871 -6.37636089 1.21890759 0.06131167 -0.96168286 0.50677472
0.44671410 -4.20055103 -0.17148229 0.03852428 -0.63352716 -0.07129572
0.25149375 -4.08158350 0.72693753 0.02168863 -0.61558449 0.30223256
0.83300275 -4.02410221 1.52787566 0.07183751 -0.60691518 0.63523173
0.62918246 -4.04702425 1.48516917 0.05426021 -0.61037225 0.61747599
0.92523170 -4.00853872 1.77330494 0.07979126 -0.60456789 0.73727173
0.75699097 -4.09676170 0.44808817 0.06528232 -0.61787367 0.18629776
0.71712756 -4.02131939 1.72359574 0.06184452 -0.60649544 0.71660453
0.52135295 -4.16507673 0.28406146 0.04496107 -0.62817693 0.11810179
0.35203514 -4.07262993 1.43679416 0.03035924 -0.61423409 0.59736353
0.39857599 -4.19337463 0.25318503 0.03437288 -0.63244480 0.10526456
0.15256608 -4.08689547 1.39365232 0.01315718 -0.61638564 0.57942683
0.57918853 -4.14942074 0.42782840 0.04994877 -0.62581569 0.17787454
0.42811066 -4.05075502 1.66678441 0.03691993 -0.61093491 0.69298458
0.45330101 -4.13126516 0.39397082 0.03909233 -0.62307745 0.16379786
0.22771843 -4.05413246 1.61975741 0.01963826 -0.61144429 0.67343259
1.15714395 -4.11184406 0.08956534 0.09979120 -0.62014836 0.03723781
1.32743549 -3.98973083 1.15959513 0.11447701 -0.60173124 0.48211488
1.02722955 -4.12344885 0.06456724 0.08858748 -0.62189859 0.02684456
1.13627076 -4.04971981 1.12653232 0.09799111 -0.61077881 0.46836865
1.91825998 -6.42853642 0.44897091 0.16542925 -0.96955198 0.18666478
1.43900108 -3.99428463 1.40279734 0.12409834 -0.60241807 0.58322895
1.23430860 -4.03710890 1.36544311 0.10644582 -0.60887682 0.56769854
0.84239113 -4.14194536 0.04386658 0.07264715 -0.62468827 0.01823803
0.71367180 -4.13354969 0.01560815 0.06154650 -0.62342203 0.00648927
0.72241741 -4.58767223 1.16684270 0.06230072 -0.69191277 0.48512813
0.90934449 -4.15902138 0.18889461 0.07842116 -0.62726367 0.07853509
0.94131500 -4.05128860 1.31201386 0.08117828 -0.61101538 0.54548472
0.77346724 -4.12902212 0.15852314 0.06670322 -0.62273920 0.06590780
0.74217486 -4.07329369 1.26572824 0.06400459 -0.61433423 0.52624094
0.52812266 -4.16096258 -0.00466779 0.04554489 -0.62755644 -0.00194069
0.45132428 -4.83944178 1.17502606 0.03892186 -0.72988468 0.48853046
0.40548062 -4.14445066 -0.03382729 0.03496834 -0.62506610 -0.01406408
0.18082289 -4.12436962 0.94798386 0.01559403 -0.62203747 0.39413509
0.58929634 -4.15292740 0.13568974 0.05082046 -0.62634456 0.05641455
0.45109403 -3.98668075 1.18316722 0.03890200 -0.60127127 0.49191526
0.46270514 -4.12858295 0.10941663 0.03990333 -0.62267292 0.04549121
0.25844806 -4.03791046 1.15083802 0.02228836 -0.60899770 0.47847402
1.84669161 -5.55524635 0.98610914 0.15925725 -0.83784235 0.40998611
1.22694647 -4.10443401 -0.05926622 0.10581091 -0.61903077 -0.02464061
1.99624252 -5.55725050 1.30651665 0.17215441 -0.83814460 0.54319918
1.10340369 -4.12367058 -0.08352826 0.09515668 -0.62193203 -0.03472782
1.93576217 -6.40892458 1.44720221 0.16693863 -0.96659410 0.60169083
0.93226838 -4.38343048 0.69132614 0.08039811 -0.66110903 0.28742671
0.91718537 -4.15315247 -0.09967662 0.07909735 -0.62637854 -0.04144169
0.79385453 -4.16895199 -0.12810701 0.06846140 -0.62876141 -0.05326195
1.18765581 -6.49128389 1.31767559 0.10242251 -0.97901553 0.54783863
1.82235813 -6.32553577 0.66454285 0.15715875 -0.95401740 0.27629125
1.36681938 -4.00830126 1.64576411 0.11787345 -0.60453206 0.68424517
1.15234470 -4.02035952 1.59447587 0.09937731 -0.60635066 0.66292149
0.59555435 -4.16532230 -0.15183704 0.05136015 -0.62821394 -0.06312798
0.75076234 -6.36981964 1.21852422 0.06474517 -0.96069628 0.50661534
0.47224030 -4.18970776 -0.17141861 0.04072564 -0.63189179 -0.07126924
0.27886289 -4.10739565 0.73206055 0.02404892 -0.61947745 0.30436251
0.84859496 -4.09218264 0.33130765 0.07318217 -0.61718303 0.13774493
0.85946864 -4.02426720 1.53000963 0.07411991 -0.60694003 0.63611895
0.65605038 -4.05225229 1.48865044 0.05657728 -0.61116076 0.61892337
0.95428514 -4.01865768 1.78055370 0.08229681 -0.60609400 0.74028546
0.78815520 -4.12112856 0.45227590 0.06796990 -0.62154865 0.18803886
0.74400401 -4.02577305 1.72755301 0.06416233 -0.60716712 0.71824986
0.54778159 -4.16369057 0.28426182 0.04724026 -0.62796789 0.11818509
0.37688455 -4.06284714 1.43408298 0.03250223 -0.61275864 0.59623635
0.17824163 -4.08585644 1.39365232 0.01537142 -0.61622894 0.57942683
0.45290983 -4.04248762 1.66446984 0.03905859 -0.60968804 0.69202226
0.25424877 -4.07111073 1.62731004 0.02192622 -0.61400497 0.67657268
1.17677200 -4.08341217 0.08839474 0.10148390 -0.61586028 0.03675112
1.36251938 -4.01040936 1.16833949 0.11750261 -0.60484999 0.48575044
1.05408907 -4.12078857 0.06475770 0.09090383 -0.62149739 0.02692375
1.16588128 -4.05734396 1.13079059 0.10054470 -0.61192870 0.47013906
1.45480502 -3.96031547 1.39381373 0.12546125 -0.59729481 0.57949394
1.26076531 -4.03290272 1.36670280 0.10872743 -0.60824245 0.56822222
0.86713916 -4.13071012 0.04360869 0.07478141 -0.62299377 0.01813081
0.73894370 -4.12504578 0.01546183 0.06372593 -0.62213945 0.00642843
0.74970406 -4.57348204 1.16433799 0.06465390 -0.68977261 0.48408678
0.92919385 -4.12601995 0.18674928 0.08013295 -0.62228638 0.07764314
0.95727408 -4.00647831 1.29907107 0.08255457 -0.60425711 0.54010361
0.79606378 -4.10643721 0.15725492 0.06865192 -0.61933291 0.06538052
0.76878715 -4.07418013 1.26752675 0.06629961 -0.61446792 0.52698869
0.55425620 -4.15756226 -0.00466779 0.04779863 -0.62704360 -0.00194069
0.48272446 -4.84616232 1.17744112 0.04162978 -0.73089826 0.48953456
0.43092042 -4.13585281 -0.03397718 0.03716224 -0.62376940 -0.01412640
0.20559119 -4.09788465 0.94196451 0.01773002 -0.61804301 0.39163247
0.61537814 -4.14914274 0.13568974 0.05306973 -0.62577379 0.05641455
0.47613403 -3.98376775 1.18316722 0.04106143 -0.60083193 0.49191526
0.48751092 -4.11567545 0.10882191 0.04204256 -0.62072623 0.04524395
0.28656372 -4.07834101 1.16321230 0.02471303 -0.61509544 0.48361877
1.56934714 -5.35296011 -0.22064155 0.13533928 -0.80733353 -0.09173424
2.03637862 -5.99451399 1.06919909 0.17561571 -0.90409267 0.44453171
1.83709085 -6.43970203 1.09789646 0.15842929 -0.97123593 0.45646295
1.24796033 -4.08136845 -0.05955976 0.10762313 -0.61555207 -0.02476265
1.98304129 -5.41473818 1.27507138 0.17101595 -0.81665087 0.53012544
1.12981141 -4.11858749 -0.08350281 0.09743406 -0.62116545 -0.03471724
1.97085595 -6.37982750 1.44331300 0.16996509 -0.96220565 0.60007381
0.89893842 -4.10584116 0.64627254 0.07752375 -0.61924303 0.26869518
0.94145072 -4.13951588 -0.09974842 0.08118998 -0.62432182 -0.04147154
0.98382103 -4.09304523 0.86605203 0.08484396 -0.61731315 0.36007100
0.81663954 -4.14620447 -0.12814832 0.07042636 -0.62533063 -0.05327912
1.21980703 -6.43746519 1.30804217 0.10519521 -0.97089857 0.54383343
1.88192713 -6.38054657 0.67302328 0.16229594 -0.96231413 0.27981710
1.39383531 -4.00489187 1.64797878 0.12020328 -0.60401785 0.68516594
1.18119419 -4.02557325 1.59956110 0.10186527 -0.60713702 0.66503572
0.62140882 -4.15952110 -0.15183038 0.05358981 -0.62733901 -0.06312521
0.78853637 -6.34745216 1.21507382 0.06800277 -0.95732284 0.50518078
0.49969006 -4.19659281 -0.17149821 0.04309288 -0.63293016 -0.07130233
0.40843219 -5.60418081 1.01163054 0.03522287 -0.84522265 0.42059693
0.88596940 -4.02425814 1.53214347 0.07640532 -0.60693866 0.63700610
1.02489364 -5.63806820 0.46660975 0.08838603 -0.85033351 0.19399832
0.68270671 -4.05545187 1.49143553 0.05887610 -0.61164331 0.62008131
0.98040187 -4.01613474 1.78216445 0.08454910 -0.60571349 0.74095517
0.82377809 -4.16665554 0.45953467 0.07104199 -0.62841505 0.19105677
0.77130085 -4.03185320 1.73230171 0.06651638 -0.60808414 0.72022414
0.57139838 -4.14243698 0.28245872 0.04927695 -0.62476242 0.11743543
0.40474340 -4.08285713 1.44221640 0.03490476 -0.61577660 0.59961790
0.20441867 -4.09597254 1.39761102 0.01762891 -0.61775464 0.58107269
0.48078778 -4.05970621 1.67295659 0.04146276 -0.61228496 0.69555074
0.27888048 -4.05464745 1.62126791 0.02405044 -0.61152196 0.67406058
1.21101916 -4.10462999 0.08999102 0.10443735 -0.61906034 0.03741479
1.38321722 -3.98906708 1.16451383 0.11928758 -0.60163116 0.48415989
1.08344567 -4.12762690 0.06542432 0.09343551 -0.62252873 0.02720091
1.19616735 -4.06660748 1.13558125 0.10315654 -0.61332577 0.47213084
1.49311709 -3.98651099 1.40664744 0.12876526 -0.60124564 0.58482969
1.16094935 -4.17663383 0.21907687 0.10011937 -0.62991995 0.09108371
1.28664887 -4.02671242 1.36733270 0.11095960 -0.60730880 0.56848413
0.89307588 -4.12518024 0.04360869 0.07701817 -0.62215972 0.01813081
0.76839972 -4.13998985 0.01619344 0.06626619 -0.62439334 0.00673261
0.78191030 -4.58969307 1.16984820 0.06743134 -0.69221759 0.48637772
0.95601922 -4.12398100 0.18705575 0.08244636 -0.62197888 0.07777056
0.99307513 -4.04283142 1.31324649 0.08564203 -0.60973990 0.54599720
0.82529157 -4.11897659 0.15852314 0.07117251 -0.62122411 0.06590780
0.79401422 -4.06739473 1.26692724 0.06847517 -0.61344451 0.52673942
0.58065403 -4.15597630 -0.00460429 0.05007515 -0.62680441 -0.00191428
0.51507711 -4.86039591 1.18178797 0.04441985 -0.73304498 0.49134180
0.45689806 -4.13306332 -0.03397718 0.03940253 -0.62334865 -0.01412640
0.23043410 -4.07902384 0.93779725 0.01987246 -0.61519843 0.38989988
0.64395368 -4.16096067 0.13673204 0.05553406 -0.62755615 0.05684790
0.50662589 -4.02244282 1.19595087 0.04369102 -0.60666490 0.49723020
0.51502365 -4.12640715 0.10965452 0.04441524 -0.62234479 0.04559011
0.31273100 -4.08411789 1.16546226 0.02696968 -0.61596674 0.48455420
1.58026612 -5.26837444 -0.21948415 0.13628092 -0.79457629 -0.09125303
2.08182001 -6.00391483 1.07331920 0.17953454 -0.90551054 0.44624469
1.87915754 -6.43371630 1.09889638 0.16205709 -0.97033316 0.45687869
1.27721441 -4.08488083 -0.05933961 0.11014598 -0.61608177 -0.02467112
1.79734600 -4.82008457 1.13378954 0.15500173 -0.72696525 0.47138593
1.15832663 -4.12104654 -0.08337554 0.09989319 -0.62153631 -0.03466433
2.01381445 -6.37663794 1.44547367 0.17366980 -0.96172464 0.60097212
0.92738038 -4.11165476 0.64818972 0.07997657 -0.62011981 0.26949227
1.09451783 -6.27628326 0.93903857 0.09439037 -0.94658911 0.39041600
0.97209215 -4.15296984 -0.09956891 0.08383247 -0.62635100 -0.04139691
1.00664973 -4.07540464 0.86354226 0.08681269 -0.61465257 0.35902753
0.85085160 -4.18218803 -0.12805194 0.07337678 -0.63075769 -0.05323905
1.87562859 -6.21668863 0.65363950 0.16175276 -0.93760109 0.27175805
1.42149270 -4.00304985 1.65093148 0.12258843 -0.60374004 0.68639356
1.20751858 -4.02164698 1.60101402 0.10413547 -0.60654485 0.66563982
0.64467412 -4.13776302 -0.15177053 0.05559620 -0.62405747 -0.06310033
0.82892358 -6.34626341 1.21584058 0.07148573 -0.95714355 0.50549954
0.52915996 -4.21918297 -0.17170522 0.04563434 -0.63633722 -0.07138840
0.49652314 -6.30145597 1.14226735 0.04281977 -0.95038569 0.47491065
0.91165930 -4.02043295 1.53285480 0.07862079 -0.60636175 0.63730186
0.71005654 -4.06217337 1.49561310 0.06123472 -0.61265707 0.62181818
1.00516248 -4.00812197 1.78135908 0.08668444 -0.60450500 0.74062032
0.79696590 -4.02873087 1.73309314 0.06872972 -0.60761327 0.72055322
0.59359431 -4.11317968 0.27985421 0.05119111 -0.62034982 0.11635257
0.42708206 -4.05030918 1.43137193 0.03683123 -0.61086768 0.59510916
0.22995700 -4.09083605 1.39629149 0.01983131 -0.61697996 0.58052409
0.50200880 -4.02366829 1.65906918 0.04329285 -0.60684973 0.68977690
0.30499810 -4.06205225 1.62504423 0.02630280 -0.61263877 0.67563063
1.23268151 -4.08357573 0.08924609 0.10630549 -0.61588496 0.03710508
1.41215634 -3.99116087 1.16779304 0.12178326 -0.60194695 0.48552325
1.10782838 -4.11494350 0.06513863 0.09553826 -0.62061584 0.02708213
1.22333515 -4.06455755 1.13717806 0.10549948 -0.61301661 0.47279474
1.52839530 -4.00354767 1.41627288 0.13180763 -0.60381514 0.58883160
1.31192386 -4.01854897 1.36733270 0.11313929 -0.60607761 0.56848413
0.92208850 -4.13312387 0.04421044 0.07952020 -0.62335783 0.01838099
0.79108840 -4.11739922 0.01553499 0.06822285 -0.62098622 0.00645885
1.12476873 -6.40695047 1.64822757 0.09699918 -0.96629637 0.68526936
0.97955269 -4.10820532 0.18628956 0.08447586 -0.61959958 0.07745201
1.01750827 -4.03282690 1.31201386 0.08774912 -0.60823101 0.54548472
0.84997118 -4.10784292 0.15810041 0.07330085 -0.61954492 0.06573205
0.82029086 -4.06606960 1.26812625 0.07074125 -0.61324465 0.52723795
0.60824823 -4.16212845 -0.00428676 0.05245486 -0.62773228 -0.00178227
0.54088730 -4.81658077 1.17164516 0.04664570 -0.72643679 0.48712483
0.48396993 -4.14004564 -0.03372736 0.04173719 -0.62440175 -0.01402254
0.25684458 -4.09109259 0.94103843 0.02215008 -0.61701864 0.39124745
0.66877633 -4.14895725 0.13621089 0.05767475 -0.62574577 0.05663123
0.52589601 -3.97557425 1.18258619 0.04535287 -0.59959614 0.49167368
0.54019028 -4.11714745 0.10929769 0.04658559 -0.62094826 0.04544176
0.33242366 -4.00553274 1.14296341 0.02866796 -0.60411453 0.47520006
1.55990934 -5.08647394 -0.21681325 0.13452537 -0.76714206 -0.09014258
1.70770824 -4.83853197 0.86010081 0.14727144 -0.72974747 0.35759670
1.88153005 -6.29318523 1.07623029 0.16226169 -0.94913828 0.44745499
1.29976630 -4.06726599 -0.05952306 0.11209084 -0.61342514 -0.02474739
1.76318693 -4.64122343 1.09304368 0.15205587 -0.69998938 0.45444536
1.18365288 -4.11176252 -0.08340099 0.10207731 -0.62013608 -0.03467491
2.06156349 -6.38804150 1.45109153 0.17778763 -0.96344453 0.60330784
0.95501924 -4.11343050 0.64946783 0.08236012 -0.62038767 0.27002364
0.74608493 -4.08517027 0.60027009 0.06434178 -0.61612546 0.24956913
0.99578017 -4.13706923 -0.09965866 0.08587531 -0.62395287 -0.04143422
1.43901157 -5.64049387 1.21072829 0.12409924 -0.85069937 0.50337410
0.87470192 -4.16500378 -0.12807947 0.07543361 -0.62816590 -0.05325050
1.14358711 -5.63380766 1.14347172 0.09862207 -0.84969097 0.47541139
1.90519094 -6.17445850 0.64976275 0.16430219 -0.93123192 0.27014625
1.45238853 -4.00974083 1.65757525 0.12525286 -0.60474914 0.68915582
1.23545551 -4.02290010 1.60464633 0.10654473 -0.60673386 0.66714996
0.67593765 -4.16519260 -0.15187693 0.05829234 -0.62819439 -0.06314456
0.87069017 -6.35453749 1.21852422 0.07508764 -0.95839143 0.50661534
0.55540740 -4.21379089 -0.17168930 0.04789791 -0.63552397 -0.07138178
0.35574996 -4.09553051 0.73096275 0.03067960 -0.61768800 0.30390608
0.94080633 -4.03098965 1.53925657 0.08113441 -0.60795391 0.63996345
0.73524040 -4.05578518 1.49491680 0.06340656 -0.61169356 0.62152869
1.03451276 -4.01766253 1.78860784 0.08921558 -0.60594392 0.74363410
0.82226324 -4.02364397 1.73309314 0.07091134 -0.60684603 0.72055322
0.45536157 -4.07184172 1.44018304 0.03927003 -0.61411524 0.59877253
0.25565577 -4.08931065 1.39629149 0.02204756 -0.61674988 0.58052409
0.67862290 -4.10620213 0.42407373 0.05852391 -0.61929744 0.17631347
0.53026956 -4.04237413 1.66832745 0.04573004 -0.60967094 0.69362617
0.33121976 -4.06928825 1.62882054 0.02856413 -0.61373013 0.67720068
1.26429725 -4.09480476 0.09031028 0.10903201 -0.61757851 0.03754753
1.43985271 -3.98943520 1.16997910 0.12417178 -0.60168666 0.48643214
1.13888383 -4.12718439 0.06609094 0.09821646 -0.62246203 0.02747806
1.25108278 -4.06417179 1.13930726 0.10789241 -0.61295843 0.47367996
1.57228696 -4.04144335 1.43359852 0.13559280 -0.60953057 0.59603488
1.34424829 -4.03186989 1.37489104 0.11592693 -0.60808665 0.57162660
0.94803929 -4.12724876 0.04421044 0.08175817 -0.62247169 0.01838099
0.82112217 -4.13393164 0.01633976 0.07081294 -0.62347960 0.00679344
1.17079616 -6.43215942 1.65674317 0.10096855 -0.97009838 0.68880981
1.01212192 -4.12905264 0.18843490 0.08728461 -0.62274379 0.07834396
1.04574323 -4.03739119 1.31571174 0.09018409 -0.60891938 0.54702216
0.88268423 -4.13562346 0.16049594 0.07612200 -0.62373477 0.06672801
0.84848171 -4.07392454 1.27232277 0.07317241 -0.61442935 0.52898270
0.63656473 -4.17204714 -0.00384222 0.05489685 -0.62922823 -0.00159745
0.57066631 -4.80923462 1.17067909 0.04921382 -0.72532886 0.48672315
0.51067770 -4.14287996 -0.03357747 0.04404045 -0.62482923 -0.01396022
0.28565636 -4.13793993 0.95261413 0.02463478 -0.62408417 0.39606017
0.69652909 -4.15450668 0.13686234 0.06006813 -0.62658274 0.05690208
0.55222720 -3.98166275 1.18549156 0.04762365 -0.60051441 0.49288163
0.56683558 -4.11960936 0.10965452 0.04888346 -0.62131953 0.04559011
0.36563826 -4.09899044 1.17108691 0.03153236 -0.61820978 0.48689273
1.55489433 -4.96031475 -0.21500297 0.13409288 -0.74811476 -0.08938994
1.68611932 -4.68516731 0.83366311 0.14540963 -0.70661700 0.34660494
1.84510338 -6.03019094 1.03189814 0.15912029 -0.90947348 0.42902341
1.33222258 -4.07989645 -0.05911946 0.11488985 -0.61533004 -0.02457959
1.76527584 -4.56104803 1.07621384 0.15223601 -0.68789732 0.44744816
1.21224511 -4.11384916 -0.08327373 0.10454307 -0.62045079 -0.03462200
2.09802508 -6.36382389 1.44849861 0.18093206 -0.95979202 0.60222977
0.97008580 -4.06323290 0.64211869 0.08365945 -0.61281687 0.26696816
1.04660356 -5.57371140 0.83215439 0.09025828 -0.84062725 0.34597766
1.02126491 -4.12879181 -0.09967662 0.08807310 -0.62270445 -0.04144169
1.47241521 -5.62378025 1.20905507 0.12697995 -0.84817863 0.50267839
0.89588600 -4.13594580 -0.12813455 0.07726052 -0.62378341 -0.05327340
1.05334175 -5.01624680 1.01582932 0.09083938 -0.75655043 0.42234260
1.93912268 -6.14723492 0.64782441 0.16722843 -0.92712605 0.26934037
1.47820592 -4.00227690 1.65831339 0.12747933 -0.60362345 0.68946266
1.26345575 -4.02396059 1.60827863 0.10895944 -0.60689378 0.66866016
0.70209485 -4.16086340 -0.15187693 0.06054812 -0.62754148 -0.06314456
0.91800523 -6.39943647 1.22849190 0.07916806 -0.96516311 0.51075947
0.58398682 -4.22607708 -0.17181668 0.05036257 -0.63737702 -0.07143474
0.38268512 -4.10692501 0.73352426 0.03300247 -0.61940646 0.30497107
0.95670491 -4.09276199 0.33398995 0.08250549 -0.61727041 0.13886012
0.96522468 -4.02136755 1.53783393 0.08324023 -0.60650271 0.63937199
0.76070899 -4.05108547 1.49491680 0.06560295 -0.61098474 0.62152869
1.01631737 -4.08092451 0.47485030 0.08764642 -0.61548507 0.19742441
1.06211734 -4.01992130 1.79263484 0.09159618 -0.60628462 0.74530834
0.85196990 -4.03998661 1.74259055 0.07347322 -0.60931087 0.72450185
0.47886527 -4.05209255 1.43408298 0.04129697 -0.61113667 0.59623635
0.28062272 -4.07631826 1.39233279 0.02420069 -0.61479038 0.57887822
0.70854920 -4.12527704 0.42729202 0.06110473 -0.62217432 0.17765152
0.55279130 -4.01886892 1.65984070 0.04767229 -0.60612589 0.69009769
0.35540736 -4.05051613 1.62202322 0.03065006 -0.61089891 0.67437464
1.29122090 -4.09058332 0.09052311 0.11135389 -0.61694181 0.03763601
1.46287107 -3.97490287 1.16833949 0.12615687 -0.59949493 0.48575044
1.16212118 -4.11032248 0.06561479 0.10022043 -0.61991888 0.02728010
1.27602386 -4.05438900 1.13877499 0.11004331 -0.61148304 0.47345868
1.59058762 -4.01390696 1.42718160 0.13717104 -0.60537750 0.59336698
1.36714220 -4.01614475 1.37237155 0.11790128 -0.60571504 0.57057911
0.97582829 -4.12898016 0.04455429 0.08415467 -0.62273282 0.01852396
0.84433430 -4.11497259 0.01582763 0.07281473 -0.62062025 0.00658052
1.21012890 -6.41896439 1.65524042 0.10436058 -0.96810830 0.68818504
1.04052615 -4.13226891 0.18920109 0.08973417 -0.62322885 0.07866251
1.07357812 -4.03992319 1.31879342 0.09258454 -0.60930127 0.54830337
0.90320057 -4.10464001 0.15866406 0.07789131 -0.61906189 0.06596639
0.87288707 -4.06291056 1.27052426 0.07527710 -0.61276823 0.52823496
0.65985483 -4.15021133 -0.00441377 0.05690537 -0.62593496 -0.00183507
0.59415233 -4.75358534 1.15763831 0.05123924 -0.71693581 0.48130131
0.53471869 -4.12371731 -0.03397718 0.04611373 -0.62193912 -0.01412640
0.31342679 -4.16129446 0.95863348 0.02702968 -0.62760651 0.39856279
0.71980399 -4.13433218 0.13582003 0.06207534 -0.62354004 0.05646873
0.57638049 -3.97243690 1.18374836 0.04970661 -0.59912300 0.49215686
0.59243363 -4.11398888 0.10953557 0.05109102 -0.62047184 0.04554066
0.38930851 -4.07367468 1.16433728 0.03357366 -0.61439168 0.48408648
1.56070888 -4.87246418 -0.21378623 0.13459432 -0.73486513 -0.08888406
1.66747725 -4.54519844 0.80962878 0.14380194 -0.68550688 0.33661237
1.35911405 -4.07523298 -0.05904608 0.11720894 -0.61462671 -0.02454908
1.76353633 -4.47378731 1.05761242 0.15208600 -0.67473668 0.43971440
1.23579621 -4.09848166 -0.08337554 0.10657410 -0.61813307 -0.03466433
2.14105558 -6.35977888 1.45065939 0.18464297 -0.95918196 0.60312814
0.99607635 -4.05897284 0.64243823 0.08590085 -0.61217433 0.26710102
1.05119979 -4.13778162 -0.09953301 0.09065466 -0.62406027 -0.04138198
1.51337349 -5.63517523 1.21365631 0.13051216 -0.84989721 0.50459141
0.92526531 -4.14586735 -0.12809783 0.07979416 -0.62527978 -0.05325813
0.98632437 -4.54572392 0.91869259 0.08505985 -0.68558615 0.38195691
1.96500862 -6.12858582 0.64661288 0.16946082 -0.92431343 0.26883668
1.50431526 -4.01437855 1.66643357 0.12973098 -0.60544860 0.69283873
1.85181463 -6.44753647 0.64208573 0.15969905 -0.97241753 0.26695445
1.28798413 -4.03574085 1.61554325 0.11107475 -0.60867047 0.67168051
0.72169459 -4.15750837 -0.15187693 0.06223838 -0.62703550 -0.06314456
0.95550132 -6.44355917 1.23807621 0.08240169 -0.97181767 0.51474428
0.60307419 -4.21733475 -0.17176890 0.05200865 -0.63605851 -0.07141488
0.40076026 -4.09137154 0.73096275 0.03456125 -0.61706072 0.30390608
0.98734039 -4.02946806 1.54281306 0.08514747 -0.60772443 0.64144212
0.77979076 -4.04745579 1.49491680 0.06724855 -0.61043733 0.62152869
1.07959509 -4.00957537 1.79021859 0.09310345 -0.60472423 0.74430376
0.86910528 -4.02694082 1.73863328 0.07495096 -0.60734326 0.72285658
0.50153905 -4.07778740 1.44424963 0.04325234 -0.61501193 0.60046321
0.30073291 -4.08813620 1.39695132 0.02593497 -0.61657274 0.58079845
0.73258555 -4.14724302 0.43077853 0.06317761 -0.62548727 0.17910108
0.57549244 -4.04177570 1.67064202 0.04963002 -0.60958070 0.69458842
0.37465230 -4.05064154 1.62277853 0.03230972 -0.61091781 0.67468864
1.31110215 -4.08635235 0.09062953 0.11306843 -0.61630374 0.03768026
1.49658167 -4.00754499 1.18036306 0.12906404 -0.60441798 0.49074939
1.18419480 -4.11441231 0.06609094 0.10212404 -0.62053573 0.02747806
1.29743004 -4.05568695 1.14090419 0.11188936 -0.61167878 0.47434390
1.61234260 -4.01338482 1.42974830 0.13904718 -0.60529876 0.59443414
1.38666415 -4.01145506 1.37300146 0.11958484 -0.60500771 0.57084101
0.99718690 -4.13209629 0.04489815 0.08599663 -0.62320280 0.01866692
1.01660216 -4.12010098 1.10246813 0.08767098 -0.62139368 0.45836368
0.86411768 -4.11290598 0.01590079 0.07452084 -0.62030852 0.00661094
1.24144924 -6.41889715 1.65674317 0.10706162 -0.96809816 0.68880981
1.05544007 -4.10995817 0.18782194 0.09102033 -0.61986393 0.07808911
1.08956635 -4.02381468 1.31509542 0.09396335 -0.60687178 0.54676592
0.92681801 -4.11982298 0.16007321 0.07992806 -0.62135178 0.06655226
0.89402556 -4.06807995 1.27352178 0.07710007 -0.61354786 0.52948117
0.68007028 -4.15099812 -0.00428676 0.05864873 -0.62605357 -0.00178227
0.61319304 -4.72572613 1.15135932 0.05288129 -0.71273410 0.47869074
0.55440199 -4.12313461 -0.03392722 0.04781120 -0.62185121 -0.01410563
0.33361614 -4.16753197 0.96048558 0.02877080 -0.62854725 0.39933282
0.74469495 -4.16033649 0.13777436 0.06422191 -0.62746203 0.05728126
0.59802675 -3.98858786 1.18955910 0.05157336 -0.60155886 0.49457276
0.61323470 -4.12103224 0.11013029 0.05288488 -0.62153417 0.04578792
0.40831876 -4.06988430 1.16377485 0.03521309 -0.61382002 0.48385265
1.56485605 -4.80808258 -0.21289593 0.13495198 -0.72515506 -0.08851391
1.67219567 -4.49304295 0.80138850 0.14420886 -0.67764080 0.33318639
1.38025463 -4.07445574 -0.05893601 0.11903208 -0.61450946 -0.02450332
1.75534117 -4.39310741 1.03989685 0.15137926 -0.66256851 0.43234897
1.26260030 -4.11750412 -0.08304466 0.10888567 -0.62100202 -0.03452677
1.97313547 -5.76513100 1.31410444 0.17016168 -0.86949712 0.54635388
0.82831365 -4.13182068 0.60962999 0.07143313 -0.62316126 0.25346062
1.07221925 -4.13858271 -0.09947916 0.09246736 -0.62418109 -0.04135960
1.53520715 -5.61101961 1.20989168 0.13239507 -0.84625405 0.50302625
0.94522738 -4.14341307 -0.12809324 0.08151568 -0.62490964 -0.05325622
0.99441898 -4.47975779 0.90584803 0.08575792 -0.67563713 0.37661663
2.01221204 -6.14250374 0.65000504 0.17353161 -0.92641252 0.27024701
1.52816570 -4.00138092 1.66495717 0.13178782 -0.60348833 0.69222492
1.86123085 -6.32894850 0.62913585 0.16051111 -0.95453209 0.26157039
1.30933166 -4.01514816 1.61045802 0.11291575 -0.60556471 0.66956627
0.74925822 -4.16075850 -0.15190354 0.06461545 -0.62752563 -0.06315563
1.00056088 -6.46651173 1.24382687 0.08628760 -0.97527939 0.51713520
0.63184917 -4.22929716 -0.17189629 0.05449018 -0.63786268 -0.07146784
0.42548755 -4.07898951 0.72913307 0.03669371 -0.61519325 0.30314538
1.01217353 -4.02137423 1.54210174 0.08728906 -0.60650373 0.64114636
0.80734921 -4.05351973 1.49909437 0.06962517 -0.61135191 0.62326556
1.10377514 -3.99918866 1.78860784 0.09518871 -0.60315770 0.74363410
0.89633948 -4.03037500 1.74259055 0.07729962 -0.60786122 0.72450185
0.69407678 -4.11962032 0.28205803 0.05985664 -0.62132120 0.11726884
0.52263850 -4.04098797 1.43204963 0.04507194 -0.60946184 0.59539092
0.32514429 -4.06922102 1.39101315 0.02804019 -0.61372000 0.57832956
0.75056744 -4.09970713 0.42487830 0.06472836 -0.61831790 0.17664799
0.59582412 -4.00525284 1.65675473 0.05138341 -0.60407227 0.68881464
0.39940396 -4.04083204 1.61975741 0.03444429 -0.60943836 0.67343259
1.33485818 -4.07234907 0.09031028 0.11511713 -0.61419177 0.03754753
1.51480305 -3.98011494 1.17489779 0.13063544 -0.60028100 0.48847714
1.21057832 -4.10880947 0.06618617 0.10439934 -0.61969072 0.02751766
1.31875563 -4.03460789 1.13717806 0.11372846 -0.60849965 0.47279474
1.63027322 -3.98567629 1.42333138 0.14059350 -0.60111976 0.59176624
1.28506601 -4.14013004 0.21907687 0.11082309 -0.62441444 0.09108371
1.41620123 -4.01521492 1.37741041 0.12213209 -0.60557479 0.57267410
1.01871777 -4.10831547 0.04412448 0.08785343 -0.61961621 0.01834525
1.03376567 -4.07996559 1.09314978 0.08915115 -0.61534047 0.45448947
0.88787377 -4.09761858 0.01553499 0.07656954 -0.61800289 0.00645885
1.28474522 -6.42616892 1.66075063 0.11079543 -0.96919489 0.69047600
1.09107256 -4.13983631 0.19073346 0.09409325 -0.62437016 0.07929961
1.11793363 -4.02787447 1.31879342 0.09640973 -0.60748410 0.54830337
0.95797390 -4.13726711 0.16176416 0.08261493 -0.62398267 0.06725529
0.91956824 -4.06238222 1.27352178 0.07930285 -0.61268854 0.52948117
0.70648330 -4.14861202 -0.00422325 0.06092657 -0.62569374 -0.00175587
0.64152324 -4.71217012 1.14894438 0.05532447 -0.71068954 0.47768670
0.58164334 -4.12947559 -0.03367740 0.05016047 -0.62280756 -0.01400176
0.36058480 -4.17504978 0.96280074 0.03109655 -0.62968105 0.40029538
0.76783288 -4.13989162 0.13673204 0.06621731 -0.62437850 0.05684790
0.62307578 -3.98475170 1.18955910 0.05373357 -0.60098028 0.49457276
0.64000553 -4.12302065 0.11048712 0.05519358 -0.62183404 0.04593628
0.43543515 -4.08251381 1.16827464 0.03755159 -0.61572480 0.48572350
1.57715797 -4.74509192 -0.21206498 0.13601288 -0.71565485 -0.08816843
1.67071414 -4.40520000 0.78696793 0.14408109 -0.66439235 0.32719088
1.62134135 -5.46184826 -0.25614321 0.13982321 -0.82375604 -0.10649446
1.80841672 -5.55996895 0.95423359 0.15595646 -0.83855462 0.39673349
1.40847743 -4.07325029 -0.05878924 0.12146600 -0.61432767 -0.02444230
1.75691140 -4.31887388 1.02439570 0.15151468 -0.65137261 0.42590418
1.29551756 -4.13242197 -0.08273923 0.11172443 -0.62325191 -0.03439978
1.93278766 -5.53113890 1.26224816 0.16668211 -0.83420646 0.52479404
0.90240520 -4.36490107 0.64676774 0.07782272 -0.65831447 0.26890105
1.10029304 -4.13948536 -0.09940736 0.09488842 -0.62431723 -0.04132974
1.58486485 -5.65205812 1.22118568 0.13667752 -0.85244352 0.50772184
0.97213793 -4.14129066 -0.12808406 0.08383642 -0.62458950 -0.05325241
0.95276070 -4.16177225 0.84042126 0.08216535 -0.62767857 0.34941471
2.08319235 -6.22565556 0.66236222 0.17965288 -0.93895346 0.27538463
1.55395913 -3.99342942 1.66569543 0.13401224 -0.60228908 0.69253182
1.87149763 -6.21811724 0.61711097 0.16139650 -0.93781656 0.25657091
1.34207761 -4.02986193 1.61990201 0.11573973 -0.60778385 0.67349273
0.77425724 -4.15007544 -0.15188359 0.06677134 -0.62591445 -0.06314733
1.03862429 -6.44460201 1.24075985 0.08957015 -0.97197497 0.51586002
0.65990263 -4.23513126 -0.17197591 0.05690949 -0.63874257 -0.07150094
0.45338047 -4.09774446 0.73315829 0.03909918 -0.61802191 0.30481890
1.03837335 -4.01855040 1.54352438 0.08954851 -0.60607785 0.64173782
0.83280212 -4.04836702 1.49909437 0.07182021 -0.61057478 0.62326556
1.13293481 -4.00624752 1.79505110 0.09770342 -0.60422230 0.74631292
0.92244756 -4.02824831 1.74417341 0.07955116 -0.60754049 0.72515994
0.71888989 -4.10930252 0.28145698 0.06199651 -0.61976504 0.11701895
0.55142921 -4.06184673 1.44086075 0.04755483 -0.61260778 0.59905428
0.35131669 -4.07462502 1.39365232 0.03029728 -0.61453497 0.57942683
0.78350616 -4.13187361 0.42997396 0.06756897 -0.62316924 0.17876656
0.62740457 -4.04151249 1.67372811 0.05410688 -0.60954100 0.69587153
0.42773733 -4.06772614 1.63184154 0.03688774 -0.61349452 0.67845672
1.36684871 -4.08278990 0.09137446 0.11787597 -0.61576641 0.03798997
1.54541409 -3.98484159 1.17927003 0.13327532 -0.60099387 0.49029493
1.23750579 -4.10495281 0.06637664 0.10672154 -0.61910903 0.02759684
1.34829152 -4.03906298 1.14090419 0.11627562 -0.60917151 0.47434390
1.72148550 -4.90088415 0.31640083 0.14845957 -0.73915142 0.13154724
1.45218098 -4.03665400 1.38811803 0.12523496 -0.60880822 0.57712591
1.04903221 -4.11923933 0.04489815 0.09046772 -0.62126374 0.01866692
1.06037092 -4.07712460 1.09418511 0.09144557 -0.61491197 0.45491993
0.91573238 -4.10172272 0.01590079 0.07897205 -0.61862189 0.00661094
1.31661260 -6.37622595 1.64973032 0.11354365 -0.96166247 0.68589419
1.10594380 -4.09252596 0.18751547 0.09537573 -0.61723483 0.07796169
1.14269006 -4.01894331 1.31817698 0.09854470 -0.60613710 0.54804707
0.97987354 -4.11367989 0.16049594 0.08450353 -0.62042528 0.06672801
0.94465077 -4.05466413 1.27292228 0.08146595 -0.61152452 0.52923191
0.73432302 -4.15392494 -0.00390573 0.06332745 -0.62649500 -0.00162385
0.66829675 -4.68884468 1.14411438 0.05763339 -0.70717162 0.47567859
0.60588807 -4.11386299 -0.03397718 0.05225132 -0.62045288 -0.01412640
0.58933449 -6.47916651 1.51380396 0.05082375 -0.97718799 0.62938124
0.79460073 -4.13890171 0.13699263 0.06852575 -0.62422919 0.05695625
0.64524686 -3.96377254 1.18432939 0.05564559 -0.59781623 0.49239844
0.66466236 -4.11102867 0.11001135 0.05731997 -0.62002540 0.04573847
0.45881060 -4.05870771 1.16208744 0.03956747 -0.61213434 0.48315108
1.59133232 -4.68970299 -0.21135274 0.13723527 -0.70730108 -0.08787230
1.67250502 -4.32856417 0.77460742 0.14423554 -0.65283412 0.32205185
1.59475887 -5.24852705 -0.25174341 0.13753077 -0.79158294 -0.10466519
1.98850679 -5.99066782 1.03289819 0.17148729 -0.90351260 0.42943919
1.44078481 -4.08314562 -0.05842233 0.12425216 -0.61582011 -0.02428975
1.73273361 -4.18544102 0.99427921 0.14942960 -0.63124830 0.41338292
1.31965280 -4.11847878 -0.08281559 0.11380583 -0.62114900 -0.03443153
1.96880114 -5.52256918 1.26311243 0.16978788 -0.83291394 0.52515340
0.93505961 -4.38430595 0.65069282 0.08063882 -0.66124111 0.27053297
1.12681532 -4.13441753 -0.09938941 0.09717568 -0.62355292 -0.04132228
1.84654427 -6.41943884 1.39436030 0.15924455 -0.96817988 0.57972115
1.00549877 -4.16624308 -0.12801063 0.08671343 -0.62835282 -0.05322188
0.97713035 -4.14806652 0.83881569 0.08426696 -0.62561142 0.34874716
1.58456481 -3.99738455 1.67160094 0.13665164 -0.60288560 0.69498712
1.89780223 -6.16442490 0.61202347 0.16366500 -0.92971867 0.25445572
1.36559701 -4.01604843 1.61772263 0.11776803 -0.60570049 0.67258662
0.80226052 -4.15493822 -0.15191683 0.06918632 -0.62664783 -0.06316115
1.07810462 -6.43214417 1.23960972 0.09297491 -0.97009605 0.51538187
0.68556672 -4.22497463 -0.17192814 0.05912274 -0.63721073 -0.07148108
0.47780505 -4.08309126 0.73096275 0.04120554 -0.61581188 0.30390608
1.06360209 -4.01194668 1.54352438 0.09172422 -0.60508186 0.64173782
0.85898274 -4.04672623 1.50048685 0.07407801 -0.61032730 0.62384450
1.15860212 -4.00080585 1.79585648 0.09991695 -0.60340160 0.74664778
0.94567728 -4.01342392 1.74021626 0.08155447 -0.60530466 0.72351474
1.03067243 -5.63838291 0.43852788 0.08888439 -0.85038102 0.18232296
0.57447278 -4.04154778 1.43476081 0.04954209 -0.60954630 0.59651816
0.37658191 -4.06857538 1.39233279 0.03247613 -0.61362261 0.57887822
0.64823216 -4.01019001 1.66215527 0.05590304 -0.60481691 0.69106001
0.44975752 -4.03181124 1.61824691 0.03878674 -0.60807782 0.67280459
1.39116478 -4.07034779 0.09116162 0.11997297 -0.61388993 0.03790148
1.57113636 -3.97683883 1.17981648 0.13549358 -0.59978688 0.49052215
1.26790988 -4.11239100 0.06713849 0.10934357 -0.62023085 0.02791359
1.38100111 -4.05244493 1.14729166 0.11909647 -0.61118978 0.47699958
1.68620753 -3.97880030 1.42846501 0.14541723 -0.60008270 0.59390062
1.47622454 -4.02387953 1.38685834 0.12730846 -0.60688156 0.57660216
1.07334971 -4.10677433 0.04464026 0.09256484 -0.61938375 0.01855970
1.08799505 -4.07783794 1.09625590 0.09382785 -0.61501956 0.45578086
0.94455421 -4.10953808 0.01641292 0.08145762 -0.61980057 0.00682386
1.32921898 -6.23707199 1.61516678 0.11463081 -0.94067526 0.67152399
1.14625692 -4.13731432 0.19165289 0.09885231 -0.62398982 0.07968187
1.16954124 -4.01715708 1.32002604 0.10086033 -0.60586768 0.54881585
1.00849187 -4.11908245 0.16134143 0.08697156 -0.62124008 0.06707954
0.97054368 -4.05050611 1.27352178 0.08369894 -0.61089736 0.52948117
0.76040822 -4.14922905 -0.00390573 0.06557702 -0.62578678 -0.00162385
0.70568663 -4.73634911 1.15715528 0.06085787 -0.71433622 0.48110047
0.63466483 -4.12975121 -0.03347754 0.05473300 -0.62284917 -0.01391867
0.82337654 -4.14751673 0.13790464 0.07100736 -0.62552851 0.05733543
0.67079687 -3.96341062 1.18549156 0.05784900 -0.59776163 0.49288163
0.69176501 -4.11465311 0.11048712 0.05965728 -0.62057203 0.04593628
0.48495719 -4.06146526 1.16377485 0.04182233 -0.61255026 0.48385265
1.60884690 -4.64564705 -0.21081856 0.13874571 -0.70065653 -0.08765022
1.67194045 -4.24842262 0.76156026 0.14418684 -0.64074719 0.31662735
1.56673467 -5.03958654 -0.24742660 0.13511398 -0.76007050 -0.10287043
2.04554415 -6.03601646 1.04323125 0.17640615 -0.91035211 0.43373528
1.46915567 -4.08152580 -0.05827557 0.12669885 -0.61557579 -0.02422873
1.70541978 -4.04889917 0.96327692 0.14707407 -0.61065501 0.40049335
1.34550369 -4.11010599 -0.08281559 0.11603519 -0.61988622 -0.03443153
1.10035074 -4.06673431 0.64787018 0.09489340 -0.61334491 0.26935941
0.90396607 -4.10580969 0.60812032 0.07795733 -0.61923826 0.25283295
1.15331745 -4.12917948 -0.09937146 0.09946121 -0.62276292 -0.04131481
1.88963282 -6.41708231 1.39645183 0.16296047 -0.96782446 0.58059072
1.02646184 -4.13846540 -0.12806112 0.08852127 -0.62416339 -0.05324287
0.99955696 -4.12659407 0.83560455 0.08620102 -0.62237298 0.34741211
1.69771600 -4.88257122 0.49202743 0.14640971 -0.73638946 0.20456600
1.61105752 -3.99079013 1.67307734 0.13893636 -0.60189104 0.69560099
1.93413484 -6.14479208 0.61109853 0.16679829 -0.92675763 0.25407118
1.39441860 -4.01796865 1.62208140 0.12025358 -0.60599011 0.67439884
0.82634616 -4.14001846 -0.15188359 0.07126345 -0.62439764 -0.06314733
1.12535083 -6.46389866 1.24727726 0.09704939 -0.97488528 0.51856971
0.71565622 -4.24229383 -0.17210330 0.06171764 -0.63982284 -0.07155391
0.50368142 -4.08196115 0.73132867 0.04343709 -0.61564142 0.30405822
1.09427965 -4.02499962 1.55134881 0.09436983 -0.60705048 0.64499092
0.88791823 -4.05775070 1.50675321 0.07657338 -0.61199003 0.62644982
1.81396818 -6.41182804 0.83379638 0.15643521 -0.96703202 0.34666035
1.18688989 -4.00396299 1.80068898 0.10235646 -0.60387778 0.74865693
0.97257018 -4.01455164 1.74338198 0.08387370 -0.60547471 0.72483093
0.60271275 -4.05645657 1.44153857 0.05197748 -0.61179483 0.59933609
0.40249085 -4.06988859 1.39365232 0.03471050 -0.61382067 0.57942683
0.82972252 -4.09453440 0.42621925 0.07155462 -0.61753774 0.17720550
0.67499095 -4.01512814 1.66601288 0.05821070 -0.60556167 0.69266385
0.47341990 -4.01418352 1.61220491 0.04082736 -0.60541922 0.67029256
1.42404532 -4.08223534 0.09233222 0.12280856 -0.61568278 0.03838817
1.60481167 -3.98826528 1.18637478 0.13839771 -0.60151023 0.49324882
1.29549825 -4.11006784 0.06742419 0.11172277 -0.61988050 0.02803237
1.41143322 -4.05827856 1.15155005 0.12172090 -0.61206961 0.47877005
1.71723974 -3.98201418 1.43359852 0.14809342 -0.60056746 0.59603488
1.36163712 -4.11138296 0.21874821 0.11742653 -0.62007886 0.09094706
1.56778741 -4.19441366 1.45047426 0.13520478 -0.63260150 0.60305119
1.10281849 -4.11344194 0.04524201 0.09510621 -0.62038940 0.01880988
1.17791390 -4.30167341 1.16044843 0.10158238 -0.64877844 0.48246965
0.97125745 -4.10741663 0.01655925 0.08376049 -0.61948061 0.00688469
1.36756229 -6.22481251 1.61416495 0.11793751 -0.93882632 0.67110747
1.17610455 -4.14344072 0.19272557 0.10142634 -0.62491381 0.08012785
1.19751942 -4.01883316 1.32310760 0.10327315 -0.60612047 0.55009705
1.03244352 -4.10491610 0.16077776 0.08903713 -0.61910349 0.06684519
0.99955207 -4.05916739 1.27831781 0.08620059 -0.61220366 0.53147519
0.78875637 -4.15614223 -0.00352469 0.06802174 -0.62682945 -0.00146543
0.72165245 -4.64557981 1.13542056 0.06223475 -0.70064640 0.47206402
0.66060013 -4.12568188 -0.03347754 0.05696964 -0.62223542 -0.01391867
0.59386581 -5.70656347 1.33090794 0.05121453 -0.86066401 0.55334014
0.84777850 -4.13444901 0.13738349 0.07311176 -0.62355769 0.05711875
0.69670850 -3.96476722 1.18723476 0.06008360 -0.59796625 0.49360636
0.71827185 -4.11416197 0.11072501 0.06194321 -0.62049794 0.04603518
0.51299697 -4.07929802 1.16996205 0.04424046 -0.61523980 0.48642504
1.63328588 -4.62226725 -0.21061082 0.14085330 -0.69713044 -0.08756385
1.66524756 -4.15568209 0.74610960 0.14360966 -0.62676001 0.31020355
1.56008029 -4.90753269 -0.24477011 0.13454011 -0.74015415 -0.10176596
1.69636822 -4.89241362 0.84123665 0.14629348 -0.73787391 0.34975371
1.49686503 -4.07783604 -0.05816550 0.12908848 -0.61501926 -0.02418297
1.70286655 -3.97369862 0.94733292 0.14685389 -0.59931326 0.39386445
1.38005424 -4.12816525 -0.08245926 0.11901481 -0.62260991 -0.03428337
1.80739486 -4.86856270 1.11488974 0.15586834 -0.73427671 0.46352810
1.11782897 -4.03124142 0.64307725 0.09640070 -0.60799187 0.26736668
0.93017352 -4.10197926 0.60842228 0.08021744 -0.61866057 0.25295851
1.17867970 -4.11993170 -0.09938941 0.10164842 -0.62136817 -0.04132228
1.93219471 -6.41256618 1.39812505 0.16663097 -0.96714330 0.58128643
1.05486619 -4.14163637 -0.12803817 0.09097084 -0.62464166 -0.05323333
1.48538244 -6.00664997 1.23338342 0.12809823 -0.90592301 0.51279318
1.63181198 -3.97029376 1.66864812 0.14072619 -0.59879977 0.69375944
1.97150064 -6.12873220 0.61063600 0.17002068 -0.92433548 0.25387886
1.41656864 -4.00033092 1.61844909 0.12216378 -0.60332996 0.67288864
0.85275537 -4.13670158 -0.15189023 0.07354096 -0.62389737 -0.06315009
1.15920091 -6.42001915 1.23999310 0.09996859 -0.96826738 0.51554126
0.75270522 -4.29883146 -0.17259692 0.06491271 -0.64834982 -0.07175913
0.52834541 -4.07091141 0.72986495 0.04556410 -0.61397493 0.30344966
1.11495328 -4.00186110 1.54494703 0.09615271 -0.60356075 0.64232934
0.91016954 -4.03744364 1.50118315 0.07849231 -0.60892731 0.62413400
1.21148407 -3.99467731 1.79988360 0.10447745 -0.60247731 0.74832213
0.99994946 -4.01728392 1.74733925 0.08623487 -0.60588682 0.72647619
0.81295687 -4.17893648 0.29007185 0.07010877 -0.63026726 0.12060067
0.62789071 -4.05073166 1.44086075 0.05414881 -0.61093140 0.59905428
0.42767808 -4.06352234 1.39233279 0.03688262 -0.61286050 0.57887822
0.69889963 -4.00354385 1.66292679 0.06027256 -0.60381454 0.69138074
0.50082433 -4.02951908 1.61975741 0.04319070 -0.60773212 0.67343259
1.44559550 -4.06193686 0.09169371 0.12466703 -0.61262137 0.03812271
1.63205230 -3.98343372 1.18801439 0.14074692 -0.60078156 0.49393052
1.31948614 -4.09613371 0.06713849 0.11379146 -0.61777896 0.02791359
1.44899023 -4.08390856 1.16166353 0.12495979 -0.61593515 0.48297486
1.75299370 -3.99538088 1.44258213 0.15117681 -0.60258341 0.59976995
1.38870203 -4.10652876 0.21907687 0.11976059 -0.61934674 0.09108371
1.59744906 -4.19336510 1.45362353 0.13776277 -0.63244337 0.60436052
1.13295209 -4.12182474 0.04592972 0.09770491 -0.62165368 0.01909580
1.21022248 -4.31276369 1.16562521 0.10436865 -0.65045106 0.48462197
0.99565744 -4.09539986 0.01633976 0.08586472 -0.61766827 0.00679344
1.44962156 -6.40886259 1.66525888 0.12501425 -0.96658474 0.69235033
1.19532812 -4.11302280 0.19088671 0.10308417 -0.62032616 0.07936332
1.22049224 -4.00396061 1.32064235 0.10525431 -0.60387743 0.54907209
1.05968332 -4.10415030 0.16120051 0.09138627 -0.61898798 0.06702095
1.02595437 -4.05651093 1.27951682 0.08847751 -0.61180305 0.53197366
0.81406546 -4.14718485 -0.00365170 0.07020437 -0.62547851 -0.00151824
0.75878316 -4.68881702 1.14749539 0.06543687 -0.70716745 0.47708428
0.68746608 -4.12737131 -0.03332765 0.05928654 -0.62249023 -0.01385635
0.63032931 -5.70852327 1.33229709 0.05435911 -0.86095959 0.55391771
0.87458426 -4.13294172 0.13764407 0.07542346 -0.62333035 0.05722709
0.72336876 -3.96971631 1.19014013 0.06238276 -0.59871268 0.49481431
0.74479985 -4.11350012 0.11096290 0.06423096 -0.62039816 0.04613409
0.53813362 -4.07218599 1.16883707 0.04640822 -0.61416715 0.48595732
1.65818071 -4.60064316 -0.21043275 0.14300022 -0.69386905 -0.08748981
1.65820932 -4.06501818 0.73100239 0.14300269 -0.61308610 0.30392256
1.57074678 -4.83479548 -0.24340035 0.13545999 -0.72918391 -0.10119647
1.69390285 -4.78671312 0.82423711 0.14608087 -0.72193211 0.34268597
1.52174747 -4.06648111 -0.05820219 0.13123432 -0.61330676 -0.02419822
1.73095179 -3.97005725 0.94910443 0.14927594 -0.59876412 0.39460099
1.40086794 -4.10424757 -0.08266288 0.12080976 -0.61900270 -0.03436803
