19.44997025 -0.13668211 0.57404816 0.80545479 -0.08512186 0.24430758
19.16996574 0.85922301 1.33634305 0.79385930 0.53510052 0.56873053
19.16701508 0.13848940 1.21565807 0.79373711 0.08624739 0.51736856
19.50957680 -0.86107284 0.48248178 0.80792320 -0.53625250 0.20533809
20.74033356 -0.60821599 1.21643591 0.85889083 -0.37878022 0.51769960
23.13863373 1.09274018 0.07006164 0.95820832 0.68052858 0.02981734
19.17769051 1.41242230 2.09964085 0.79417920 0.87961781 0.89358038
19.46043777 -0.01449033 0.57441396 0.80588824 -0.00902418 0.24446325
19.16975784 0.25896543 1.21593988 0.79385072 0.16127656 0.51748848
19.42870331 -0.73531336 0.47975105 0.80457407 -0.45793298 0.20417593
20.30877876 -0.46829534 1.18803298 0.84101939 -0.29164147 0.50561166
19.44015884 0.10769288 0.57368237 0.80504847 0.06706817 0.24415189
19.15179443 0.37910774 1.21481252 0.79310685 0.23609790 0.51700872
20.28737259 -0.34030545 1.18646955 0.84013295 -0.21193290 0.50494629
19.65634918 -1.05896342 1.03467882 0.81400126 -0.65949333 0.44034609
19.43709946 0.22981453 0.57360923 0.80492175 0.14312218 0.24412078
19.16698456 0.49988282 1.21608078 0.79373586 0.31131330 0.51754844
19.40643311 -0.49038741 0.47879845 0.80365181 -0.30539981 0.20377052
20.59843826 -0.21576495 1.20666432 0.85301471 -0.13437249 0.51354092
19.46519852 -0.92584240 1.02290344 0.80608541 -0.57658923 0.43533465
19.38131523 0.35101551 0.57163388 0.80261165 0.21860282 0.24328008
19.15349388 0.61998975 1.21537614 0.79317719 0.38611260 0.51724857
19.55903053 -0.37113276 0.48356137 0.80997115 -0.23113130 0.20579755
19.20436478 -0.08186817 1.11559236 0.79528385 -0.05098525 0.47478187
20.75719643 -0.85796112 1.09962201 0.85958910 -0.53431463 0.46798509
19.38472176 0.47292414 0.57185334 0.80275273 0.29452416 0.24337348
19.15520096 0.74054652 1.21579897 0.79324788 0.46119204 0.51742852
19.48302269 -0.24732502 0.48108464 0.80682355 -0.15402724 0.20474349
19.44999886 -0.95479470 0.34874344 0.80545598 -0.59461993 0.14842077
19.19452095 0.03876651 1.11494088 0.79487622 0.02414272 0.47450462
20.79409981 -0.72867358 1.10152519 0.86111736 -0.45379791 0.46879506
19.36030197 0.56365019 0.57104856 0.80174148 0.35102588 0.24303098
20.88362885 0.90410459 1.33825302 0.86482489 0.56305152 0.56954342
19.44998932 -0.15527529 0.48000506 0.80545557 -0.09670118 0.20428403
19.47625351 -0.86412621 0.34929302 0.80654323 -0.53815407 0.14865465
19.18813896 0.12917115 1.11455011 0.79461193 0.08044425 0.47433832
20.92301750 -0.63461131 1.10901856 0.86645603 -0.39521849 0.47198415
19.23265839 1.35027480 2.02965212 0.79645556 0.84091407 0.86379403
19.36037254 0.68541986 0.57119489 0.80174440 0.42686066 0.24309325
19.43059158 -0.03305206 0.47937000 0.80465227 -0.02058392 0.20401375
19.28950500 -0.73423427 0.34449652 0.79880965 -0.45726094 0.14661333
19.18295670 0.24967425 1.11428952 0.79439729 0.15549026 0.47422740
19.35169029 0.80688798 0.57104856 0.80138487 0.50250769 0.24303098
19.43641090 0.08906755 0.47956052 0.80489326 0.05546882 0.20409484
19.18899155 0.37036112 1.11481059 0.79464722 0.23065074 0.47444916
20.22870636 -0.35851958 1.06726944 0.83770347 -0.22327615 0.45421627
19.33825302 0.92808670 0.57075590 0.80082840 0.57798690 0.24290644
19.45145988 0.21137805 0.48006856 0.80551648 0.13164045 0.20431106
19.30920029 -0.49210188 0.34479630 0.79962528 -0.30646753 0.14674091
19.22020149 0.49182478 1.11702549 0.79593968 0.30629498 0.47539181
19.36197662 1.05116725 0.57185334 0.80181080 0.65463811 0.24337348
20.81450462 1.42593837 1.33543468 0.86196232 0.88803530 0.56834394
19.44375038 0.33348110 0.47987804 0.80519718 0.20768288 0.20422997
19.43184853 -0.37319872 0.34779412 0.80470431 -0.23241791 0.14801674
19.20276833 0.61211848 1.11611354 0.79521775 0.38121060 0.47500369
19.18548965 -0.09785198 1.00494301 0.79450220 -0.06093952 0.42769092
19.44876099 1.17838383 0.57529193 0.80540466 0.73386508 0.24483691
19.45726013 0.45603383 0.48038611 0.80575663 0.28400534 0.20444620
19.43581009 -0.25112617 0.34784409 0.80486840 -0.15639448 0.14803801
19.18059540 0.73205608 1.11494088 0.79429954 0.45590442 0.47450462
19.18772125 0.02269539 1.00506186 0.79459459 0.01413407 0.42774150
19.45094490 1.30121660 0.57565773 0.80549514 0.81036198 0.24499258
19.43802643 0.57778573 0.47987804 0.80496013 0.35982910 0.20422997
19.43300438 -0.12897249 0.34774417 0.80475217 -0.08032052 0.14799549
19.18957329 0.85319138 1.11585295 0.79467130 0.53134418 0.47489280
19.19318962 0.14329253 1.00541878 0.79482108 0.08923866 0.42789340
19.45257187 1.39342511 0.57595038 0.80556250 0.86778688 0.24511714
19.45706177 0.67015839 0.48057660 0.80574846 0.41735625 0.20452727
19.65732574 -0.03806078 0.35334006 0.81404167 -0.02370321 0.15037702
19.20627594 0.23389176 1.00625134 0.79536301 0.14566137 0.42824772
19.25028038 1.45169091 1.90028727 0.79718530 0.90407324 0.80873799
19.47133255 1.51776636 0.57697463 0.80633944 0.94522321 0.24555305
19.44447899 0.79206288 0.48032260 0.80522734 0.49327502 0.20441917
19.43724823 0.08472130 0.34784409 0.80492795 0.05276210 0.14803801
19.17648125 0.35407656 1.00458610 0.79412913 0.22050917 0.42753902
19.44311142 0.91441166 0.48044959 0.80517071 0.56947047 0.20447321
19.65625191 0.20895697 0.35334006 0.81399721 0.13013266 0.15037702
19.16389847 0.47432175 1.00399137 0.79360807 0.29539457 0.42728591
19.42700195 1.03601480 0.48013207 0.80450362 0.64520156 0.20433809
19.43464851 0.32896385 0.34784409 0.80482030 0.20486966 0.14803801
20.81468010 1.41921175 1.22386241 0.86196959 0.88384610 0.52086025
19.17450905 0.59514070 1.00482404 0.79404747 0.37063730 0.42764029
19.42620087 0.45093513 0.34769419 0.80447042 0.28083003 0.14797421
19.15442848 0.71502626 1.00387251 0.79321593 0.44529873 0.42723534
19.40446281 1.24890649 0.47981456 0.80357021 0.77778471 0.20420295
19.65170670 0.54859829 0.35339004 0.81380898 0.34165195 0.15039830
19.16680527 0.80593520 1.00482404 0.79372847 0.50191432 0.42764029
19.17532349 0.92700714 1.00565660 0.79408121 0.57731462 0.42799461
19.45346832 0.78800964 0.34864351 0.80559963 0.49075079 0.14837824
19.42378044 0.85414815 1.66919994 0.80437022 0.53194004 0.71039021
19.41018486 0.90848666 0.34769419 0.80380720 0.56578058 0.14797421
19.48196411 1.03447914 0.34964278 0.80677968 0.64424521 0.14880350
19.42935371 1.30646443 1.02207088 0.80460101 0.81363016 0.43498033
19.17553711 1.17572963 1.64772272 0.79409003 0.73221213 0.70124978
19.19724846 1.45625317 2.32985234 0.79498917 0.90691447 0.99155545
19.38161278 1.24308884 0.34744439 0.80262399 0.77416164 0.14786790
19.34194565 1.58935380 2.34969449 0.80098128 0.98980594 1.00000000
19.43126297 1.36885595 0.34889331 0.80468005 0.85248590 0.14848454
18.97016335 1.60572267 0.99614114 0.78558517 1.00000000 0.42394495
19.42227936 1.49091828 0.34889331 0.80430806 0.92850298 0.14848454
19.52163696 -0.87622088 0.22068581 0.80842263 -0.54568630 0.09392107
19.63412476 -1.07785714 0.90973246 0.81308091 -0.67125982 0.38717052
19.40486336 -0.74896950 0.21844767 0.80358684 -0.46643764 0.09296854
19.46096802 -0.94593275 0.90015483 0.80591023 -0.58910096 0.38309440
19.40319061 -0.62684369 0.21833760 0.80351752 -0.39038104 0.09292170
20.77555466 -0.87765473 0.96996534 0.86034936 -0.54657930 0.41280487
19.40074921 -0.50476855 0.21822752 0.80341643 -0.31435600 0.09287485
20.78864288 -0.74738085 0.97039104 0.86089134 -0.46544829 0.41298604
19.36155128 -0.38207647 0.21745701 0.80179322 -0.23794673 0.09254693
19.35357285 -0.26029357 0.21727355 0.80146277 -0.16210370 0.09246885
19.45702171 -0.93684691 1.46766222 0.80574679 -0.58344257 0.62461829
19.34258652 -0.16899724 0.21705341 0.80100781 -0.10524684 0.09237517
19.34126663 -0.04745884 0.21701671 0.80095315 -0.02955606 0.09235954
19.33749580 -0.94854391 2.11490321 0.80079705 -0.59072709 0.90007585
19.62931061 -0.98370594 0.79889721 0.81288153 -0.61262506 0.34000045
19.34518242 0.07408559 0.21709010 0.80111533 0.04613847 0.09239078
19.35633278 0.19576663 0.21731025 0.80157709 0.12191808 0.09248447
19.19036102 0.00211629 0.88451129 0.79470390 0.00131797 0.37643671
19.44848061 -0.72957599 0.78975499 0.80539310 -0.45435989 0.33610964
19.37071609 0.31766048 0.21760377 0.80217272 0.19783023 0.09260939
23.15244865 -0.46775058 0.15686871 0.95878041 -0.29130223 0.06676132
19.23390388 0.12301952 0.88685250 0.79650712 0.07661318 0.37743312
19.43071747 -0.60665524 0.78870744 0.80465746 -0.37780824 0.33566383
19.19983101 -0.32030988 1.44482028 0.79509610 -0.19948021 0.61489707
19.38233185 0.43969536 0.21786061 0.80265373 0.27383021 0.09271870
23.09094238 -0.32132438 0.15605423 0.95623332 -0.20011200 0.06641469
19.21713448 0.21346109 0.88600117 0.79581267 0.13293770 0.37707078
19.42337608 -0.51480865 0.78823125 0.80435348 -0.32060871 0.33546117
19.35060883 -0.23177715 1.45714509 0.80134004 -0.14434445 0.62014234
19.40027046 -0.92945772 1.35427189 0.80339664 -0.57884073 0.57636082
19.38803864 0.53125471 0.21800737 0.80289006 0.33085084 0.09278116
23.13219452 -0.21291099 0.15656328 0.95794165 -0.13259512 0.06663133
19.19944000 0.33390617 0.88514984 0.79507989 0.20794760 0.37670848
19.40425682 -0.39229143 0.78718370 0.80356169 -0.24430834 0.33501533
19.15834236 -0.10888582 1.44120502 0.79337800 -0.06781110 0.61335850
20.77057838 -0.86290962 1.45924020 0.86014330 -0.53739643 0.62103403
19.38232040 0.65299261 0.21797068 0.80265325 0.40666586 0.09276554
19.68938065 -0.05447832 0.11273442 0.81536913 -0.03392760 0.04797833
19.20295334 0.45468059 0.88546908 0.79522538 0.28316259 0.37684435
19.38636398 -0.27006471 0.78623140 0.80282074 -0.16818888 0.33461004
19.15266991 0.01149371 1.44071198 0.79314309 0.00715797 0.61314863
19.37184143 0.77451569 0.21786061 0.80221933 0.48234710 0.09271870
19.64333725 0.06911974 0.11214902 0.81346244 0.04304587 0.04772919
19.18998528 -0.88625419 2.02182865 0.79468834 -0.55193478 0.86046445
23.78500366 0.71758586 1.12991226 0.98497552 0.44689277 0.48087624
19.39966393 -0.14835630 0.78680277 0.80337149 -0.09239224 0.33485323
19.20204926 0.13212255 1.44482028 0.79518795 0.08228230 0.61489707
20.36317444 -0.59017938 1.42721331 0.84327203 -0.36754751 0.60740376
19.35660553 0.89574379 0.21767716 0.80158836 0.55784464 0.09264062
20.84423637 0.75746518 0.97337073 0.86319357 0.47172853 0.41425416
19.38423157 -0.02642394 0.78604090 0.80273241 -0.01645610 0.33452898
19.15898514 0.25226250 1.44136930 0.79340458 0.15710217 0.61342841
19.36457253 1.01809597 0.21793400 0.80191833 0.63404220 0.09274993
19.57892990 0.31502026 0.11136000 0.81079519 0.19618598 0.04739340
19.38401413 0.09537050 0.78604090 0.80272341 0.05939413 0.33452898
19.17296410 0.37292939 1.44268394 0.79398352 0.23225018 0.61398786
20.21345901 -0.33185157 1.41526079 0.83707207 -0.20666805 0.60231692
19.35779381 1.13974631 0.21793400 0.80163759 0.70980269 0.09274993
19.55457115 0.43756205 0.11108002 0.80978644 0.27250165 0.04727424
23.33210754 -0.32816291 0.07158742 0.96622038 -0.20437086 0.03046669
19.29145813 0.18592538 0.78166026 0.79889053 0.11578922 0.33266464
20.83127785 1.27799428 1.68885016 0.86265695 0.79589975 0.71875310
19.14110374 0.46258479 1.44021904 0.79266411 0.28808510 0.61293888
20.02337456 -0.23454671 1.40054989 0.82920039 -0.14606924 0.59605616
19.44507217 -0.96019548 1.23693597 0.80525196 -0.59798336 0.52642417
19.35619736 1.23121285 0.21800737 0.80157149 0.76676559 0.09278116
19.55628967 0.52980977 0.11113092 0.80985761 0.32995099 0.04729590
19.18803596 0.30561811 0.77680349 0.79460764 0.19033056 0.33059767
20.81488609 1.40830922 1.68815243 0.86197817 0.87705630 0.71845615
19.15176582 0.58325189 1.44136930 0.79310566 0.36323327 0.61342841
19.17695999 -0.10499126 1.33542359 0.79414898 -0.06538567 0.56833923
19.36603165 1.35408044 0.21833760 0.80197871 0.84328413 0.09292170
19.53458595 0.65209252 0.11090185 0.80895883 0.40610531 0.04719841
23.28630638 -0.07149287 0.07115661 0.96432364 -0.04452380 0.03028335
19.15369987 0.70378691 1.44186234 0.79318571 0.43829918 0.61363822
19.50698471 -0.99599224 0.57704777 0.80781585 -0.62027663 0.24558416
19.16727066 0.01548378 1.33465743 0.79374772 0.00964287 0.56801319
20.81125259 -0.76706469 1.33275735 0.86182767 -0.47770682 0.56720454
19.42094040 1.48066437 0.21951170 0.80425262 0.92211711 0.09342138
24.08034134 0.95059782 0.16885674 0.99720591 0.59200621 0.07186327
19.37278938 -0.91620183 1.90974009 0.80225861 -0.57058537 0.81276101
19.15288162 0.82428563 1.44219100 0.79315186 0.51334244 0.61377811
19.47691917 -0.87176126 0.57573086 0.80657077 -0.54290897 0.24502371
19.16679382 0.13591419 1.33465743 0.79372799 0.08464362 0.56801319
20.69801331 -0.63257819 1.32444346 0.85713828 -0.39395234 0.56366622
24.14781189 1.10520017 0.16979848 1.00000000 0.68828833 0.07226407
19.70970345 0.18404986 0.03906143 0.81621075 0.11462120 0.01662405
19.44406700 -0.74786860 0.57434082 0.80521029 -0.46575204 0.24443212
19.16954994 0.25639680 1.33496392 0.79384214 0.15967689 0.56814361
20.45228004 -0.49622053 1.30682921 0.84696203 -0.30903253 0.55616987
19.70615768 0.30785182 0.03904348 0.81606388 0.19172166 0.01661641
19.31484032 1.48562586 2.22541976 0.79985881 0.92520702 0.94711024
20.85104752 0.85482317 0.85679793 0.86347562 0.53236043 0.36464226
19.26054764 0.09755702 0.69065946 0.79761046 0.06075584 0.29393587
19.49232864 -0.62714374 0.57595038 0.80720890 -0.39056790 0.24511714
19.15559769 0.37658891 1.33404446 0.79326433 0.23452924 0.56775230
20.32135201 -0.36517081 1.29738796 0.84154010 -0.22741835 0.55215174
19.69983482 0.43157065 0.03900758 0.81580204 0.26877037 0.01660113
18.93466377 1.58190536 0.87440157 0.78411508 0.98516726 0.37213415
19.34978676 0.18929288 0.69452780 0.80130601 0.11788641 0.29558218
19.41515350 -0.53300405 0.57302392 0.80401295 -0.33194029 0.24387167
19.15959167 0.46700513 1.33450413 0.79342973 0.29083797 0.56794792
20.23707008 -0.26818204 1.29132867 0.83804983 -0.16701642 0.54957300
19.47772789 -0.97079194 1.13500547 0.80660427 -0.60458255 0.48304385
19.38614845 -0.41029516 0.57185334 0.80281180 -0.25552055 0.24337348
19.15827179 0.58744162 1.33465743 0.79337507 0.36584252 0.56801319
19.20097351 -0.13275312 1.21805358 0.79514343 -0.08267500 0.51838809
23.20173836 0.76722330 0.07051039 0.96082157 0.47780561 0.03000833
19.36836052 -0.28816277 0.57112169 0.80207521 -0.17945985 0.24306211
19.15021706 0.70765269 1.33435094 0.79304153 0.44070667 0.56788272
19.18746185 -0.01208443 1.21706712 0.79458386 -0.00752585 0.51796824
20.81070709 -0.77383381 1.22138691 0.86180508 -0.48192245 0.51980668
19.35492134 -0.92064363 1.81229711 0.80151862 -0.57335156 0.77129054
19.38285255 1.53685796 1.46470428 0.80267531 0.95711297 0.62335944
19.45572662 -0.16729169 0.57426763 0.80569315 -0.10418467 0.24440098
19.16730690 0.82893330 1.33603656 0.79374921 0.51623690 0.56860012
19.20710945 0.10856504 1.21847630 0.79539752 0.06761133 0.51856798
19.45028687 -0.88913059 0.48064011 0.80546790 -0.55372614 0.20455430
23.19026566 1.05871665 0.07051039 0.96034646 0.65933967 0.03000833
