7.61819887 -13.41963482 1.21264446 0.94565785 -0.98065561 0.50129598
7.57577848 -13.15241241 1.19049132 0.94039220 -0.96112806 0.49213806
7.66028261 -13.10799122 1.19084013 0.95088178 -0.95788193 0.49228227
7.53476477 -13.17685699 1.71368873 0.93530107 -0.96291435 0.70842302
7.71601391 -13.01507759 1.18630481 0.95779979 -0.95109212 0.49040741
7.57387018 -13.10170364 1.70811582 0.94015527 -0.95742244 0.70611924
7.77212811 -12.97003365 1.18543267 0.96476531 -0.94780052 0.49004686
7.64194727 -13.02990150 1.70472372 0.94860578 -0.95217538 0.70471698
7.62668610 -13.44695950 1.13620698 0.94671142 -0.98265243 0.46969742
7.63394976 -13.68435001 1.68524480 0.94761306 -1.00000000 0.69666457
7.60091829 -13.20686817 1.11796629 0.94351280 -0.96510744 0.46215689
7.64664555 -13.09511375 1.11188602 0.94918901 -0.95694089 0.45964336
7.59500742 -13.22015667 1.63598895 0.94277906 -0.96607852 0.67630267
7.71052837 -13.01591682 1.10892808 0.95711887 -0.95115346 0.45842057
7.58156919 -13.05356026 1.61841416 0.94111097 -0.95390427 0.66903740
7.78199530 -12.99655247 1.11057138 0.96599019 -0.94973838 0.45909992
7.68255472 -13.03821182 1.62280786 0.95364648 -0.95278269 0.67085373
7.44835663 -13.22150326 2.07681346 0.92457509 -0.96617693 0.85853541
7.31796837 -13.09443665 2.39377618 0.90838981 -0.95689136 0.98956484
7.85400820 -12.95424366 1.62465775 0.97492921 -0.94664663 0.67161846
7.51356220 -13.14354134 2.07161117 0.93266916 -0.96047980 0.85638481
7.66326523 -13.32618141 1.04304492 0.95125204 -0.97382641 0.43118510
7.47722530 -13.18376446 2.41901898 0.92815864 -0.96341914 1.00000000
7.89371395 -12.83689404 1.61540794 0.97985798 -0.93807113 0.66779464
7.62563753 -13.59459686 1.61434221 0.94658124 -0.99344116 0.66735411
7.63806677 -13.09189320 1.02649522 0.94812411 -0.95670551 0.42434359
7.56801558 -13.29615116 1.58193111 0.93942857 -0.97163188 0.65395564
7.88435268 -13.39746284 2.13085771 0.97869593 -0.97903538 0.88087678
7.74562407 -13.08651161 1.03032613 0.96147537 -0.95631224 0.42592725
7.55706406 -13.13296413 1.56539023 0.93806911 -0.95970684 0.64711779
7.90988159 -13.29727840 2.12016439 0.98186487 -0.97171426 0.87645626
7.81541491 -13.06354523 1.03155208 0.97013861 -0.95463395 0.42643407
7.63139677 -13.07150269 1.56360209 0.94729614 -0.95521545 0.64637858
7.75398064 -13.09164238 1.57254303 0.96251267 -0.95668721 0.65007472
7.54063463 -13.21704006 2.00592828 0.93602973 -0.96585077 0.82923216
7.82977581 -12.84902954 1.55354345 0.97192121 -0.93895799 0.64222044
7.60579920 -13.57873821 1.50515938 0.94411868 -0.99228227 0.62221891
7.60967207 -13.14538670 2.00201988 0.94459945 -0.96061462 0.82761645
7.74085665 -13.29569817 0.94848555 0.96088356 -0.97159880 0.39209512
7.55172205 -13.28496361 1.47533047 0.93740600 -0.97081435 0.60988790
7.84721613 -13.36221313 2.04529309 0.97408611 -0.97645944 0.84550518
7.80804539 -13.21929359 0.94623095 0.96922380 -0.96601546 0.39116308
7.43335676 -13.28629971 2.29109311 0.92271316 -0.97091198 0.94711661
7.58745527 -13.15449142 1.46524751 0.94184160 -0.96127999 0.60571975
7.91382456 -13.28369904 2.04054689 0.98235428 -0.97072196 0.84354317
7.86946440 -13.13400650 0.94327176 0.97684783 -0.95978302 0.38993979
7.46994495 -13.15674305 2.27660036 0.92725492 -0.96144450 0.94112545
7.63436651 -13.09279728 1.46209657 0.94766480 -0.95677161 0.60441715
7.97457886 -13.16850758 0.94919014 0.98989582 -0.96230423 0.39238641
7.71951056 -13.04971027 1.46272683 0.95823383 -0.95362294 0.60467768
7.76357126 -12.93779755 1.45495450 0.96370316 -0.94544482 0.60146469
7.56311750 -13.28213024 1.92917120 0.93882054 -0.97060734 0.79750144
7.84986687 -12.89726448 1.45600474 0.97441518 -0.94248277 0.60189885
7.58999681 -13.57655907 1.42743337 0.94215709 -0.99212307 0.59008771
7.57188749 -13.10574055 1.90905666 0.93990916 -0.95771742 0.78918630
7.99993134 -13.34878349 2.34272361 0.99304289 -0.97547805 0.96846020
7.61117792 -13.41618347 1.41441095 0.94478637 -0.98040342 0.58470434
7.78567886 -13.28171921 1.94419003 0.96644741 -0.97057730 0.80371010
8.05597782 -13.25260448 2.33457136 1.00000000 -0.96844971 0.96509016
7.58487368 -13.17681122 1.39217257 0.94152117 -0.96291101 0.57551122
7.90958643 -13.30062485 1.95491767 0.98182821 -0.97195882 0.80814481
7.88619137 -13.19342613 0.86530745 0.97892416 -0.96412516 0.35771006
7.62682056 -13.10655022 1.38816559 0.94672811 -0.95777661 0.57385480
7.90690517 -13.08784294 0.86009586 0.98149538 -0.95640951 0.35555565
7.71510410 -13.06864452 1.38936770 0.95768684 -0.95500660 0.57435173
7.74992895 -12.94144249 1.38015175 0.96200973 -0.94571114 0.57054192
7.85904408 -12.93837643 1.38556111 0.97555435 -0.94548708 0.57277811
7.60131168 -13.16693974 1.81064939 0.94356167 -0.96218961 0.74850565
7.64680433 -13.50025272 1.30408728 0.94920874 -0.98654687 0.53909761
7.66888666 -13.09322357 1.80683362 0.95194983 -0.95680273 0.74692827
7.57702637 -13.18239498 1.27520418 0.94054705 -0.96331906 0.52715760
7.89558172 -13.28884888 1.84321082 0.98008978 -0.97109830 0.76196623
7.61011457 -13.09657097 1.26983488 0.94465435 -0.95704734 0.52493793
7.66904497 -13.00900936 1.26557648 0.95196944 -0.95064867 0.52317756
7.70576096 -12.88530540 1.25742996 0.95652705 -0.94160885 0.51980990
