5.06217289 6.72454071 1.87695885 0.96899432 0.94329232 0.75582218
4.99199629 6.71857405 1.86632943 0.95556122 0.94245529 0.75154191
4.96347809 6.76871395 1.87164414 0.95010233 0.94948876 0.75368208
4.92654943 6.80768061 1.87385857 0.94303346 0.95495486 0.75457376
5.18426752 6.90608931 2.41823792 0.99236554 0.96875924 0.97378689
4.99150467 6.62553167 1.41151595 0.95546710 0.92940372 0.56839556
4.92271757 6.87052393 1.88493085 0.94229996 0.96377027 0.75903243
5.05286503 6.81929064 2.37615585 0.96721262 0.95658344 0.95684111
4.93454409 6.63617182 1.40705240 0.94456381 0.93089628 0.56659818
4.92433643 6.96512699 1.90264642 0.94260985 0.97704083 0.76616621
5.00199556 6.84001398 2.37233019 0.95747530 0.95949042 0.95530057
4.93109035 6.71955872 1.41838288 0.94390267 0.94259346 0.57116079
4.97238541 6.89006042 2.37888837 0.95180732 0.96651077 0.95794141
4.90029097 6.76639462 1.42181635 0.93800712 0.94916338 0.57254338
4.85425472 6.79223299 1.42078626 0.92919493 0.95278794 0.57212859
4.82166719 6.83711529 1.42387640 0.92295706 0.95908380 0.57337296
5.04435682 6.72604036 1.82618535 0.96558404 0.94350266 0.73537648
4.83772659 6.92934561 1.43864036 0.92603111 0.97202152 0.57931817
4.99858856 6.73095751 1.82099974 0.95682311 0.94419241 0.73328835
4.96198940 6.77009296 1.82316041 0.94981736 0.94968218 0.73415840
4.92739201 6.81219244 1.82618535 0.94319475 0.95558774 0.73537648
5.04090977 6.80267048 0.89448267 0.96492416 0.95425206 0.36019430
4.65637207 6.96903372 2.34609699 0.89131647 0.97758883 0.94473684
5.02142906 6.72325516 2.28214002 0.96119523 0.94311196 0.91898239
4.93892670 6.61146212 1.36088932 0.94540274 0.92743009 0.54800904
4.94368649 6.92552280 1.84865642 0.94631386 0.97148526 0.74442524
4.97470665 6.80210352 0.88963675 0.95225167 0.95417249 0.35824293
5.04565096 6.84451771 2.31301308 0.96583176 0.96012223 0.93141448
4.91255236 6.66296053 1.36522257 0.94035417 0.93465406 0.54975396
4.93054008 6.99947977 1.86032414 0.94379735 0.98185968 0.74912369
4.92260647 6.82032537 0.88769835 0.94227874 0.95672858 0.35746235
4.98775339 6.85585403 2.30609322 0.95474905 0.96171242 0.92862797
4.91366577 6.75258875 1.37755561 0.94056731 0.94722676 0.55472028
4.89501333 6.84991884 0.88866752 0.93699688 0.96087986 0.35785264
4.98026276 6.91363668 2.31780362 0.95331520 0.96981794 0.93334353
4.87947750 6.77247429 1.37688887 0.93402302 0.95001626 0.55445176
4.85058784 6.82225227 1.38088882 0.92849302 0.95699888 0.55606252
4.85081434 6.91383505 1.39355516 0.92853636 0.96984577 0.56116307
4.99581385 6.80075741 0.84350258 0.95629197 0.95398366 0.33966541
4.91540909 7.09957218 1.42555428 0.94090104 0.99590027 0.57404858
5.05648470 6.72819996 1.76580751 0.96790552 0.94380558 0.71106327
4.95532465 6.83522367 0.84396511 0.94854158 0.95881850 0.33985165
4.86822510 7.12879848 2.34867668 0.93186909 1.00000000 0.94577563
4.99204493 6.72993898 1.75785983 0.95557052 0.94404954 0.70786285
4.93895531 6.90332031 0.84928381 0.94540823 0.96837080 0.34199342
4.94735861 6.75801039 1.75702333 0.94701678 0.94798732 0.70752603
4.67147160 7.00574255 2.29012442 0.89420682 0.98273820 0.92219758
5.22415113 6.90813112 1.36776876 1.00000000 0.96904564 0.55077928
4.90744925 6.77014494 1.75409520 0.93937737 0.94968951 0.70634693
5.04732037 6.80965185 1.09852636 0.96615130 0.95523137 0.44235951
5.13718748 6.83182812 2.25586343 0.98335356 0.95834213 0.90840119
4.94755363 6.62699986 1.30450213 0.94705409 0.92960966 0.52530277
4.87275267 6.81199980 1.75702333 0.93273580 0.95556074 0.70752603
4.96600342 6.78842831 1.08898914 0.95058572 0.95225418 0.43851903
5.03218985 6.78005362 2.22790861 0.96325505 0.95107943 0.89714426
4.90581751 6.65795517 1.30450213 0.93906498 0.93395191 0.52530277
4.90516043 6.94971800 1.78504920 0.93893921 0.97487926 0.71881163
4.91517115 6.80824471 1.08696604 0.94085544 0.95503396 0.43770435
5.00655794 6.83495617 2.23567367 0.95834863 0.95878094 0.90027112
4.86620188 6.69184685 1.30514109 0.93148184 0.93870616 0.52556008
4.87142277 6.99486876 1.78881383 0.93248123 0.98121285 0.72032756
4.88946295 6.86321163 1.09130120 0.93593442 0.96274453 0.43945006
4.96238613 6.86470985 2.23515606 0.94989330 0.96295470 0.90006268
4.86421013 6.77852964 1.31632471 0.93110055 0.95086563 0.53006351
4.96717978 6.85345602 0.81322795 0.95081091 0.96137601 0.32747427
4.86779404 6.92461061 1.09679234 0.93178660 0.97135735 0.44166127
4.82834578 6.81864262 1.31824183 0.92423546 0.95649254 0.53083551
4.81536007 6.86884880 1.32367384 0.92174977 0.96353525 0.53302294
5.04683590 6.73890400 1.69056809 0.96605855 0.94530714 0.68076551
5.02051640 6.79157305 1.05140221 0.96102053 0.95269531 0.42338336
4.86615276 6.98276377 2.24602747 0.93147242 0.97951484 0.90444040
4.86388159 7.03233671 1.34987521 0.93103766 0.98646873 0.54357380
4.98686886 6.74688911 1.68454731 0.95457977 0.94642723 0.67834109
4.96486282 6.80541611 1.04833126 0.95036739 0.95463717 0.42214674
4.77855396 6.94942188 2.22532010 0.91470438 0.97483778 0.89610189
4.92815924 6.75596762 1.67892778 0.94334161 0.94770074 0.67607814
4.94290352 6.86535597 1.05335653 0.94616395 0.96304530 0.42417032
4.74344063 6.99211931 2.22946167 0.90798306 0.98082715 0.89776963
4.89135599 6.79473543 1.68093479 0.93629682 0.95313895 0.67688638
4.91348076 6.91561747 1.05670679 0.94053191 0.97009581 0.42551944
5.09784937 6.79343176 2.16267323 0.97582346 0.95295608 0.87087494
4.92661858 6.63620996 1.22829008 0.94304669 0.93090159 0.49461335
4.84856749 6.82533455 1.68093479 0.92810631 0.95743126 0.67688638
4.61702585 6.99304295 2.21082497 0.88378489 0.98095673 0.89026493
5.03541040 6.79892397 2.15415764 0.96387148 0.95372647 0.86744589
4.89420414 6.67976904 1.23070550 0.93684196 0.93701190 0.49558601
4.81912947 6.87488365 1.68575144 0.92247128 0.96438181 0.67882597
4.64192820 7.10380697 2.23929763 0.88855165 0.99649429 0.90173042
5.00676203 6.82725286 2.15566039 0.95838767 0.95770037 0.86805099
4.86966181 6.71234322 1.23251712 0.93214411 0.94158131 0.49631551
4.82703352 6.95536757 1.70020151 0.92398429 0.97567177 0.68464476
5.07084656 6.81724596 1.01061118 0.97065467 0.95629662 0.40695745
4.84240389 6.76366901 1.23644221 0.92692643 0.94878107 0.49789611
5.01972961 6.83776903 1.00873387 0.96086991 0.95917553 0.40620148
4.83071899 6.83748388 1.24459445 0.92468977 0.95913553 0.50117886
4.96276045 6.84988070 1.00551546 0.94996494 0.96087450 0.40490547
4.84808969 6.87932968 2.14263654 0.92801481 0.96500552 0.86280650
4.84439230 6.94865704 1.25969100 0.92730707 0.97473043 0.50725800
4.93340921 6.90030718 1.00873387 0.94434655 0.96794814 0.40620148
4.83915758 6.95885229 2.15816498 0.92630506 0.97616059 0.86905956
4.79313993 6.98593235 2.15716314 0.91749644 0.97995931 0.86865610
4.97527027 6.69529819 1.59499669 0.95235956 0.93919027 0.64228040
5.08372402 6.77062559 0.94675273 0.97311962 0.94975692 0.38124263
4.76125813 7.01004076 2.15766406 0.91139364 0.98334116 0.86885786
4.96318626 6.76765442 1.60496438 0.95004648 0.94934011 0.64629424
5.01619864 6.76902342 0.94141060 0.96019399 0.94953215 0.37909144
5.16562796 6.79837513 2.09030104 0.98879755 0.95364952 0.84173179
4.90221405 6.77321815 1.59883046 0.93837523 0.95012057 0.64382422
4.96769428 6.79241562 0.94013870 0.95090938 0.95281351 0.37857926
5.07638073 6.76848030 2.07098126 0.97171396 0.94945598 0.83395201
4.84932756 6.78948498 1.59538007 0.92825180 0.95240241 0.64243478
4.92608356 6.82509995 0.94039309 0.94294429 0.95739836 0.37868172
5.01418734 6.77367640 2.06277037 0.95980901 0.95018488 0.83064562
4.81446075 6.83107042 1.59806371 0.92157763 0.95823586 0.64351547
4.96810484 6.80033779 2.06132126 0.95098794 0.95392483 0.83006209
4.83063459 6.94674158 1.61838245 0.92467362 0.97446179 0.65169752
4.98184061 6.91027069 2.08547091 0.95361722 0.96934575 0.83978677
4.93686008 6.91626453 2.08015800 0.94500715 0.97018659 0.83764738
5.22391033 6.82267761 2.48333383 0.99995393 0.95705855 1.00000000
4.91335535 6.97575569 2.08885193 0.94050789 0.97853178 0.84114826
5.13798904 6.79881334 2.46252227 0.98350698 0.95371097 0.99161953
5.02663136 6.70702314 1.52576137 0.96219105 0.94083500 0.61440045
4.86942863 7.00648928 2.08885193 0.93209952 0.98284292 0.84114826
5.07790184 6.80792618 2.45408535 0.97200513 0.95498931 0.98822212
4.96796703 6.71638298 1.52063835 0.95096159 0.94214797 0.61233747
4.83515358 7.05137539 2.09319901 0.92553860 0.98913938 0.84289879
4.97110176 6.75329399 2.42258692 0.95156163 0.94732571 0.97553813
4.93613768 6.76173210 1.52393174 0.94486886 0.94850934 0.61366367
5.12208700 6.76168823 1.98424041 0.98046303 0.94850320 0.79902285
4.98289776 6.85879755 2.44958544 0.95381957 0.96212530 0.98641002
4.89586163 6.79579830 1.52466357 0.93715924 0.95328802 0.61395836
5.03625536 6.73618507 1.96710837 0.96403325 0.94492573 0.79212403
4.95316935 6.90865564 2.45633507 0.94812906 0.96911925 0.98912799
4.87180281 6.82997990 1.52722514 0.93255395 0.95808291 0.61498988
5.03116941 6.79574537 1.97775805 0.96305972 0.95328063 0.79641247
4.87762451 6.92947626 1.54296005 0.93366832 0.97203988 0.62132609
4.99758482 6.83976841 1.98146224 0.95663100 0.95945597 0.79790407
5.01616573 6.95610714 2.00646567 0.96018773 0.97577554 0.80797261
4.99273396 7.01597357 2.01480031 0.95570242 0.98417336 0.81132883
