-5.73133945 7.64886808 2.13604927 -0.87131917 0.95357752 0.99504846
-5.80766773 7.64992762 2.14667869 -0.88292313 0.95370960 1.00000000
-5.85561848 7.61328650 2.14667869 -0.89021295 0.94914162 1.00000000
-5.88008738 7.65027618 1.64739525 -0.89393288 0.95375305 0.76741588
-5.94139051 7.63025236 1.65117204 -0.90325266 0.95125675 0.76917523
-5.98676825 7.58968258 1.65048540 -0.91015130 0.94619894 0.76885533
-6.26370907 7.83773851 1.71434784 -0.95225382 0.97712386 0.79860479
-5.83439779 7.66612101 2.09756660 -0.88698685 0.95572841 0.97712183
-5.81784058 7.84540415 1.05318713 -0.88446969 0.97807950 0.49061239
-6.00463057 7.83652592 0.72597265 -0.91286683 0.97697264 0.33818412
-5.86215210 7.62768650 2.09454179 -0.89120626 0.95093685 0.97571278
-6.04272556 7.78450108 0.72440273 -0.91865832 0.97048676 0.33745280
-5.96858501 7.66632700 2.11571646 -0.90738696 0.95575410 0.98557669
-5.96178579 7.83160973 1.06239450 -0.90635329 0.97635978 0.49490151
-6.09645653 7.75263453 0.72510046 -0.92682689 0.96651399 0.33777782
-5.94158316 7.70453167 1.04858351 -0.90328193 0.96051705 0.48846784
-6.11144304 7.67216969 0.72039074 -0.92910522 0.95648253 0.33558387
-5.87430143 7.68922377 1.60154951 -0.89305329 0.95860863 0.74605924
-5.98864937 7.66548586 1.04834127 -0.91043729 0.95564926 0.48835501
-6.16579914 7.64135885 0.72126293 -0.93736887 0.95264137 0.33599016
-5.88638639 7.60530186 1.59154987 -0.89489055 0.94814616 0.74140108
-6.03916502 7.63081551 1.04882586 -0.91811705 0.95132691 0.48858073
-5.80155754 7.84308100 0.99681991 -0.88199425 0.97778988 0.46435452
-5.94619036 7.58371115 1.59488308 -0.90398234 0.94545448 0.74295378
-6.09369564 7.62549686 1.05246031 -0.92640716 0.95066386 0.49027380
-5.83015347 7.80449677 0.99520117 -0.88634157 0.97297961 0.46360043
-6.00261545 7.58193445 1.60054958 -0.91256052 0.94523299 0.74559343
-6.14774895 7.59476089 1.05367184 -0.93462473 0.94683206 0.49083817
-5.97113514 7.88987446 1.01300728 -0.90777463 0.98362356 0.47189516
-5.95339727 7.65151310 0.66096234 -0.90507799 0.95390731 0.30789998
-6.16884613 7.52379990 1.04858351 -0.93783206 0.93798542 0.48846784
-5.96272516 7.77640963 1.00190735 -0.90649611 0.96947801 0.46672443
-6.07149887 7.70333242 0.67032921 -0.92303264 0.96036756 0.31226340
-5.97986650 7.69793558 0.99589491 -0.90910202 0.95969474 0.46392360
-6.15327168 7.70715904 0.67476618 -0.93546432 0.96084464 0.31433031
-5.86536169 7.71278000 2.03811836 -0.89169419 0.96154535 0.94942868
-6.01708841 7.64613771 0.99381369 -0.91476077 0.95323712 0.46295410
-5.86822510 7.61699772 2.02222323 -0.89212954 0.94960427 0.94202417
-6.08106756 7.62840843 0.99681991 -0.92448735 0.95102686 0.46435452
-5.96785069 7.64616299 2.04021001 -0.90727532 0.95324028 0.95040309
-6.11570549 7.59811735 0.99658865 -0.92975324 0.94725049 0.46424678
-5.78371954 7.83210039 0.95628411 -0.87928236 0.97642094 0.44547147
-5.98676968 7.86624098 1.30429900 -0.91015148 0.98067719 0.60758930
-6.13452625 7.52406788 0.99126995 -0.93261451 0.93801880 0.46176913
-5.75878859 7.69709778 0.94242555 -0.87549222 0.95959026 0.43901566
-5.93672276 7.70016050 1.28060043 -0.90254301 0.95997208 0.59654963
-5.98570871 7.72292185 0.61259854 -0.90999019 0.96280974 0.28537038
-5.98525476 7.81751204 1.55948615 -0.90992123 0.97460222 0.72646463
-5.99605656 7.90902805 0.97751898 -0.91156340 0.98601145 0.45536342
-5.98865080 7.66737843 1.28146744 -0.91043746 0.95588517 0.59695351
-6.03164530 7.68202829 0.61229205 -0.91697383 0.95771158 0.28522763
-5.90686417 7.61620998 1.52593565 -0.89800370 0.94950604 0.71083564
-5.95580626 7.75474310 0.96097815 -0.90544420 0.96677685 0.44765812
-6.01331520 7.60016108 1.27597630 -0.91418713 0.94750530 0.59439558
-5.94726372 7.56964636 1.52401841 -0.90414554 0.94370103 0.70994246
-5.99462318 7.70464039 0.95918995 -0.91134548 0.96053064 0.44682512
-6.07584047 7.58072805 1.27944446 -0.92369270 0.94508255 0.59601116
-6.02922344 7.57531023 1.53296530 -0.91660565 0.94440717 0.71411026
-6.49883938 7.83129168 2.14227414 -0.98799998 0.97632009 0.99794823
-6.03674650 7.65903139 0.95807230 -0.91774935 0.95484459 0.44630447
-6.09583902 7.50865936 1.27308631 -0.92673302 0.93609786 0.59304929
-6.07401228 7.63205147 0.95829582 -0.92341477 0.95148104 0.44640860
-5.72275305 7.73370028 0.87749225 -0.87001383 0.96415347 0.40876740
-6.13241243 7.48137808 1.27337527 -0.93229318 0.93269670 0.59318393
-5.97473049 7.84085035 1.25045955 -0.90832120 0.97751176 0.58250898
-5.92349911 7.73301125 0.54984063 -0.90053266 0.96406758 0.25613549
-5.80306149 7.61391544 1.92698765 -0.88222289 0.94922000 0.89766002
-6.11934471 7.59064770 0.95784879 -0.93030649 0.94631922 0.44620034
-5.71055555 7.61630392 0.86677909 -0.86815947 0.94951779 0.40377682
-5.89473391 7.63515091 1.22058702 -0.89615959 0.95186740 0.56859326
-5.94513416 7.66090965 0.54674047 -0.90382177 0.95507872 0.25469133
-5.88780499 7.62545729 1.93943071 -0.89510620 0.95065892 0.90345645
-6.14927292 7.53053427 0.95471942 -0.93485641 0.93882495 0.44474259
-5.96105099 7.84836769 0.90227968 -0.90624160 0.97844899 0.42031425
-5.98761177 7.65577602 1.23091686 -0.91027951 0.95443875 0.57340527
-6.02635336 7.66582060 0.55054516 -0.91616929 0.95569098 0.25646371
-5.96208620 7.62232065 1.94826138 -0.90639895 0.95026791 0.90757012
-5.96669769 7.75392199 0.89471740 -0.90710002 0.96667451 0.41679150
-6.02946329 7.61022949 1.22952092 -0.91664207 0.94876051 0.57275498
-5.93494081 7.82237673 1.46560919 -0.90227211 0.97520870 0.68273336
-6.00432301 7.70213890 0.89282686 -0.91282010 0.96021873 0.41591081
-6.10188675 7.60313749 1.23510456 -0.92765242 0.94787633 0.57535607
-5.95152855 7.74254227 1.45745695 -0.90479392 0.96525580 0.67893577
-6.04276276 7.65175343 0.89114636 -0.91866398 0.95393723 0.41512796
-6.10966492 7.51539040 1.22617066 -0.92883492 0.93693697 0.57119429
-5.90556335 7.58312607 1.43390620 -0.89780593 0.94538152 0.66796499
-6.08493710 7.63098097 0.89219666 -0.92507565 0.95134753 0.41561723
-6.15127897 7.49418306 1.22756660 -0.93516141 0.93429309 0.57184458
-5.90880299 7.79157591 1.18413186 -0.89829844 0.97136879 0.55161113
-5.94488907 7.55988264 1.43481207 -0.90378451 0.94248378 0.66838700
-6.56780195 8.00311184 2.08674145 -0.99848419 0.99774081 0.97207910
-6.12528467 7.58329868 0.89093626 -0.93120956 0.94540304 0.41503009
-5.73300314 7.68558168 0.82679749 -0.87157208 0.95815456 0.38515195
-5.95885229 7.75586557 1.18440008 -0.90590733 0.96691680 0.55173606
-5.97882032 7.74545908 0.50062889 -0.90894300 0.96561944 0.23321091
-6.02052879 7.55800819 1.44175649 -0.91528380 0.94225013 0.67162192
-6.48051405 7.79567528 2.04258823 -0.98521405 0.97187984 0.95151091
-6.17281055 7.54466295 0.89093626 -0.93843478 0.94058639 0.41503009
-5.83772898 7.72390366 0.83621371 -0.88749325 0.96293217 0.38953838
-5.97695112 7.67923498 1.17769527 -0.90865880 0.95736337 0.54861271
-5.97929430 7.64652681 0.49554762 -0.90901506 0.95328563 0.23084387
-5.99168539 7.82430601 0.85364377 -0.91089880 0.97544920 0.39765793
-6.03492594 7.65395927 1.17984080 -0.91747254 0.95421225 0.54961222
-6.01504517 7.75354052 0.84943652 -0.91445017 0.96662694 0.39569804
-6.09777927 7.63444233 1.18305910 -0.92702800 0.95177907 0.55111140
-5.86259842 7.72270679 1.85952413 -0.89127409 0.96278292 0.86623311
-6.02936888 7.69695759 0.84583032 -0.91662776 0.95957279 0.39401814
-6.13244057 7.60408258 1.18279088 -0.93229747 0.94799417 0.55098647
-5.85580873 7.61426020 1.84188902 -0.89024192 0.94926298 0.85801804
-6.07265043 7.65269756 0.84502894 -0.92320770 0.95405495 0.39364481
-6.13861465 7.51483583 1.17394054 -0.93323606 0.93686783 0.54686368
-5.95917225 7.83964825 1.12380576 -0.90595597 0.97736192 0.52350909
-5.92530870 7.60514307 1.84878969 -0.90080780 0.94812638 0.86123264
-6.10936403 7.60045576 0.84322584 -0.92878920 0.94754201 0.39280486
-5.92260647 7.69028187 1.10574436 -0.90039694 0.95874053 0.51509541
-6.16329622 7.56962204 0.84422755 -0.93698835 0.94369799 0.39327151
-6.00098801 7.92605209 0.78585696 -0.91231310 0.98813379 0.36608037
-5.96837473 7.64978409 1.10523558 -0.90735495 0.95369172 0.51485842
-5.98660421 7.80431366 0.77604407 -0.91012633 0.97295678 0.36150917
-6.02000237 7.61680984 1.10599875 -0.91520381 0.94958085 0.51521391
-6.26453686 7.73423433 1.90974605 -0.95237964 0.96422005 0.88962829
-6.00871038 7.73189592 0.77197081 -0.91348708 0.96392852 0.35961172
-6.08876276 7.60520506 1.11032331 -0.92565721 0.94813412 0.51722848
-6.34949827 7.76378822 1.92469764 -0.96529609 0.96790451 0.89659327
-6.02913952 7.68309546 0.76956391 -0.91659290 0.95784461 0.35849050
-6.09219313 7.53624916 1.10370922 -0.92617875 0.93953741 0.51414740
-6.42576981 7.75694036 1.93313181 -0.97689146 0.96705079 0.90052217
-6.06864309 7.63413191 0.76826787 -0.92259848 0.95174038 0.35788676
-6.13942385 7.49782228 1.10370922 -0.93335909 0.93474680 0.51414740
-6.49208689 7.73742962 1.93849909 -0.98697346 0.96461844 0.90302247
-6.09780359 7.57254601 0.76549065 -0.92703170 0.94406253 0.35659301
-5.73727322 7.53287745 1.72812033 -0.87222129 0.93911707 0.80502051
-5.87672138 7.61674500 1.75629687 -0.89342117 0.94957280 0.81814611
-5.96431303 7.63087702 1.76837254 -0.90673751 0.95133460 0.82377142
-6.17879438 7.82994986 1.82216418 -0.93934447 0.97615284 0.84882951
-6.24746227 7.81558657 1.82801902 -0.94978386 0.97436219 0.85155690
-6.32976961 7.81750536 1.83789921 -0.96229678 0.97460139 0.85615945
-6.57777262 8.02123356 1.89644790 -1.00000000 1.00000000 0.88343352
