-7.21971178 5.18879128 1.98458099 -0.96705610 0.95960814 0.89223260
-7.08650684 5.04312658 1.94073498 -0.94921374 0.93266910 0.87252021
-7.15162706 5.02196026 1.95003557 -0.95793641 0.92875463 0.87670159
-7.16725206 5.22345114 1.51142991 -0.96002930 0.96601808 0.67951220
-7.37733126 5.11087751 2.00362539 -0.98816872 0.94519889 0.90079463
-7.08457184 5.09574795 1.48670888 -0.94895458 0.94240087 0.66839808
-7.17599583 5.09319115 1.49941278 -0.96120054 0.94192797 0.67410952
-7.19169092 5.03673744 1.49597931 -0.96330279 0.93148750 0.67256594
-7.21534586 5.00279140 1.49597931 -0.96647131 0.92520958 0.67256594
-7.24989414 4.95957518 1.49666595 -0.97109896 0.91721725 0.67287463
-7.16781187 5.34502983 0.95239162 -0.96010429 0.98850268 0.42817849
-7.25963116 5.23802471 0.64538401 -0.97240317 0.96871334 0.29015326
-7.31689835 4.93809080 1.50421953 -0.98007393 0.91324395 0.67627054
-7.09875202 5.22480869 0.93688464 -0.95085394 0.96626920 0.42120680
-7.25338411 5.16466188 0.64119756 -0.97156644 0.95514572 0.28827110
-7.04279327 4.99443913 1.87631309 -0.94335848 0.92366493 0.84355724
-7.10408831 5.16033173 0.93276560 -0.95156872 0.95434487 0.41935498
-7.27915955 5.11441898 0.64049983 -0.97501892 0.94585383 0.28795743
-7.18904114 5.03096962 1.90742695 -0.96294791 0.93042082 0.85754550
-7.13152266 5.11213493 0.93203872 -0.95524347 0.94543141 0.41902816
-7.35378981 5.09799862 0.64503509 -0.98501539 0.94281709 0.28999639
-7.20671797 5.21120262 1.46921980 -0.96531564 0.96375287 0.66053534
-7.25259590 5.00796604 1.91606963 -0.97146082 0.92616659 0.86143112
-7.14904737 5.07389069 0.93106949 -0.95759088 0.93835860 0.41859242
-7.18156958 5.14148283 1.45888674 -0.96194708 0.95085901 0.65588975
-7.17427111 5.02433205 0.93010032 -0.96096951 0.92919332 0.41815668
-7.20569277 5.09055042 1.45722008 -0.96517831 0.94143963 0.65514046
-7.21551323 4.98590469 0.93155414 -0.96649373 0.92208660 0.41881031
-7.07203436 5.23045063 0.88512719 -0.94727522 0.96731257 0.39793757
-7.27341175 5.23124981 0.60032433 -0.97424906 0.96746039 0.26989523
-7.22138357 5.03386116 1.45388687 -0.96728003 0.93095559 0.65364188
-7.28284216 4.96498919 0.93688464 -0.97551221 0.91821849 0.42120680
-7.07111835 5.16123915 0.88027102 -0.94715250 0.95451272 0.39575431
-7.26232052 5.15419865 0.59588736 -0.97276342 0.95321065 0.26790044
-7.27720308 5.00520802 1.45888674 -0.97475690 0.92565650 0.65588975
-7.34689188 4.94121504 0.94173056 -0.98409146 0.91382176 0.42338544
-7.11145401 5.12253237 0.88142723 -0.95255536 0.94735432 0.39627412
-7.29945183 5.11190796 0.59638035 -0.97773701 0.94538945 0.26812208
-7.34109259 4.98160648 1.46555316 -0.98331469 0.92129171 0.65888685
-7.13864946 5.07428503 0.88073349 -0.95619810 0.93843150 0.39596224
-7.17870188 5.05205965 0.88304597 -0.96156299 0.93432117 0.39700189
-7.24663258 5.40487814 1.18089318 -0.97066206 0.99957097 0.53090876
-7.19238234 4.99434948 0.88050222 -0.96339542 0.92364836 0.39585826
-7.19903278 5.29959011 1.16615391 -0.96428621 0.98009914 0.52428222
-7.08598948 5.03422260 1.82478726 -0.94914448 0.93102241 0.82039219
-7.27270794 4.98285866 0.88743967 -0.97415477 0.92152327 0.39897722
-7.16483259 5.20555162 1.15401554 -0.95970523 0.96270782 0.51882505
-7.18164349 5.03435755 1.84151912 -0.96195698 0.93104738 0.82791454
-7.42711830 5.02078772 0.90478325 -0.99483752 0.92853779 0.40677458
-7.08651686 5.23763180 0.85234487 -0.94921511 0.96864069 0.38319921
-7.16517925 5.13744211 1.14823544 -0.95975167 0.95011169 0.51622641
-7.31249189 5.21455240 0.55191612 -0.97948372 0.96437240 0.24813175
-7.05019474 5.09172153 1.37352037 -0.94434988 0.94165623 0.61751056
-7.23729944 5.00576735 1.84779358 -0.96941191 0.92575997 0.83073539
-7.10320187 5.18132782 0.85010964 -0.95144999 0.95822787 0.38219431
-7.16657162 5.07067394 1.14274430 -0.95993817 0.93776369 0.51375771
-7.31897640 5.15020227 0.54946434 -0.98035228 0.95247155 0.24702948
-7.18511629 5.12041712 1.39397013 -0.96242219 0.94696313 0.62670439
-7.12915373 5.13196564 0.84921551 -0.95492619 0.94909889 0.38179231
-7.21129227 5.03457832 1.14505637 -0.96592838 0.93108821 0.51479715
-7.19773579 5.06158781 1.39013588 -0.96411252 0.93608332 0.62498057
-7.15325832 5.09831333 0.84921551 -0.95815492 0.94287527 0.38179231
-7.26591825 5.02184772 1.15054750 -0.97324532 0.92873383 0.51726586
-7.22142601 5.37511158 1.12985265 -0.96728575 0.99406600 0.50796181
-7.22475386 5.02986193 1.39077485 -0.96773148 0.93021595 0.62526786
-7.19329214 5.05896521 0.85033315 -0.96351731 0.93559831 0.38229477
-7.36447001 5.02165413 1.16239679 -0.98644596 0.92869806 0.52259308
-7.14989185 5.25201130 1.11142659 -0.95770395 0.97130001 0.49967778
-7.26110458 4.98771048 1.39173353 -0.97260052 0.92242056 0.62569886
-7.22166538 5.01141024 0.84988612 -0.96731782 0.92680353 0.38209382
-7.14433193 5.17899895 1.10472620 -0.95695925 0.95779717 0.49666542
-7.33158541 4.96848154 1.39940214 -0.98204124 0.91886437 0.62914652
-7.27436304 4.98048401 0.85279191 -0.97437644 0.92108411 0.38340020
-7.13000298 5.25457907 0.79682821 -0.95503992 0.97177488 0.35823992
-7.14617825 5.11204433 1.09942174 -0.95720655 0.94541466 0.49428061
-7.31917381 5.23592758 1.80937994 -0.98037875 0.96832550 0.81346530
-7.44572115 5.02891636 0.87179160 -0.99732929 0.93004113 0.39194211
-7.06010628 5.13456774 0.78338420 -0.94567752 0.94958013 0.35219571
-7.17008066 5.06131411 1.09802580 -0.96040821 0.93603271 0.49365303
-7.18689442 5.30253458 1.33004141 -0.96266031 0.98064369 0.59796315
-7.29919004 5.15242958 1.79613400 -0.97770196 0.95288348 0.80751014
-7.14868832 5.13082790 0.79073638 -0.95754278 0.94888848 0.35550112
-7.22283173 5.03092670 1.10165513 -0.96747404 0.93041289 0.49528471
-7.02859545 5.11718416 1.29380941 -0.94145674 0.94636524 0.58167386
-7.24152803 5.04355097 1.77365613 -0.96997833 0.93274760 0.79740453
-7.17116833 5.09592772 0.79052633 -0.96055388 0.94243407 0.35540670
-7.28389835 5.02277851 1.10807633 -0.97565371 0.92890596 0.49817157
-7.22405291 5.40719795 1.08195043 -0.96763760 1.00000000 0.48642582
-7.14709616 5.15243864 1.31162345 -0.95732951 0.95288515 0.58968276
-7.25394154 5.00155878 1.77084637 -0.97164106 0.92498165 0.79614127
-7.23393631 5.07253742 0.79451752 -0.96896142 0.93810833 0.35720107
-7.14770699 5.28069210 1.06344509 -0.95741129 0.97660416 0.47810614
-7.06246424 5.07828140 2.21577096 -0.94599336 0.93917060 0.99617153
-7.16002846 5.09363317 1.30800033 -0.95906174 0.94200975 0.58805388
-7.36854458 5.09851646 0.80775148 -0.98699176 0.94291288 0.36315081
-7.15989161 5.22054577 1.05995858 -0.95904338 0.96548080 0.47653869
-7.12103271 5.05291748 2.22428656 -0.95383841 0.93447983 1.00000000
-7.19512224 5.05082464 1.30860412 -0.96376240 0.93409282 0.58832532
-7.15065527 5.14545488 1.05298555 -0.95780623 0.95159358 0.47340372
-7.23320580 5.01003504 1.30981183 -0.96886361 0.92654920 0.58886832
-7.17798805 5.09699345 1.05218101 -0.96146739 0.94263119 0.47304201
-7.28409863 4.97792006 1.31343508 -0.97568053 0.92060989 0.59049726
-7.20174265 5.04612494 1.05084002 -0.96464920 0.93322366 0.47243914
-7.24827051 5.18130207 0.75847965 -0.97088146 0.95822310 0.34099907
-7.24175310 5.02339029 1.05352199 -0.97000849 0.92901909 0.47364491
-7.13575554 5.32421589 1.00271773 -0.95581049 0.98465341 0.45080420
-7.31651449 5.16081047 0.76288724 -0.98002249 0.95443344 0.34298065
-7.37637520 5.04807329 1.07041812 -0.98804063 0.93358397 0.48124111
-7.11325359 5.23797750 0.99381423 -0.95279640 0.96870458 0.44680133
-7.19729424 5.17326260 1.69697392 -0.96405333 0.95673633 0.76292956
-7.35370350 5.11813688 0.76348829 -0.98500383 0.94654143 0.34325087
-7.42110825 5.01046944 1.07256365 -0.99403250 0.92662954 0.48220569
-7.11718702 5.17212248 0.98923528 -0.95332325 0.95652544 0.44474274
-7.29861403 5.17661238 1.71345901 -0.97762483 0.95735580 0.77034092
-7.41036081 5.08867311 0.76649350 -0.99259293 0.94109243 0.34460196
-7.46565962 4.97250175 1.07470918 -1.00000000 0.91960788 0.48317030
-7.12218428 5.10758495 0.98491073 -0.95399261 0.94458997 0.44279850
-6.95385742 5.11321640 2.11348462 -0.93144584 0.94563144 0.95018542
-7.24240446 5.06895018 1.69237351 -0.97009569 0.93744493 0.76086128
-7.15090179 5.06043530 0.98440194 -0.95783925 0.93587017 0.44256976
-7.01889038 5.09328318 2.12362766 -0.94015676 0.94194502 0.95474553
-7.24660873 5.00444651 1.68585610 -0.97065890 0.92551571 0.75793117
-7.18417978 5.01654482 0.98465633 -0.96229672 0.92775315 0.44268411
-7.05391455 5.05133438 2.12459350 -0.94484812 0.93418705 0.95517975
-7.31068563 4.99784374 1.69544041 -0.97924173 0.92429459 0.76224011
-7.21129036 5.14100504 0.68495107 -0.96592808 0.95077062 0.30794191
-7.23706532 5.00300741 0.98923528 -0.96938056 0.92524952 0.44474274
-7.28085041 5.12203312 0.68920952 -0.97524542 0.94726199 0.30985644
-7.27326584 4.96080208 0.98999846 -0.97422951 0.91744417 0.44508585
-7.33902216 5.09441423 0.69217187 -0.98303735 0.94215417 0.31118825
-7.35852003 4.95167685 0.99839318 -0.98564899 0.91575652 0.44885996
-7.13630247 5.17662334 1.60663176 -0.95588374 0.95735782 0.72231328
-7.27541161 5.22578716 1.63297868 -0.97451693 0.96645015 0.73415840
-7.22001648 5.11723518 1.61285257 -0.96709692 0.94637465 0.72511005
-7.22146130 5.05028915 1.60589993 -0.96729046 0.93399376 0.72198427
-6.97175121 5.06092834 2.01572633 -0.93384266 0.93596137 0.90623498
-7.26920795 5.01602030 1.60955918 -0.97368598 0.92765611 0.72362942
-7.06973028 5.06476974 2.03517342 -0.94696659 0.93667179 0.91497809
-7.31518602 4.98024035 1.61285257 -0.97984457 0.92103904 0.72511005
-7.17120314 5.06983185 2.05554676 -0.96055853 0.93760794 0.92413759
-7.40365553 5.16540003 2.11388826 -0.99169475 0.95528221 0.95036685
