-10.23604488 4.44170952 1.91039896 -0.97737044 0.96680439 0.80218983
-10.27463341 4.38192511 1.91245902 -0.98105496 0.95379144 0.80305481
-10.10097313 4.15911961 1.86954069 -0.96447337 0.90529448 0.78503311
-9.93697166 4.44264650 1.18960035 -0.94881397 0.96700835 0.49952146
-10.19229031 4.36556101 0.83237761 -0.97319263 0.95022953 0.34952116
-9.91557789 4.35864544 1.18305838 -0.94677120 0.94872427 0.49677444
-10.14049530 4.26834440 0.82487690 -0.96824706 0.92906892 0.34637156
-9.97559834 4.31037092 1.18741965 -0.95250219 0.93821663 0.49860576
-10.16895580 4.20530415 0.82505137 -0.97096455 0.91534722 0.34644482
-10.09223747 4.16194773 2.38147998 -0.96363926 0.90591007 1.00000000
-9.98602581 4.24065447 1.18523908 -0.95349783 0.92304176 0.49769014
-10.22473431 4.15327072 0.82784230 -0.97629046 0.90402138 0.34761673
-10.24761009 4.41276884 1.85187614 -0.97847474 0.96050501 0.77761567
-10.10914516 4.09477234 2.37931919 -0.96525365 0.89128834 0.99909270
-10.05281162 4.19457054 1.19056952 -0.95987475 0.91301090 0.49992841
-10.25517273 4.33980370 1.84820962 -0.97919685 0.94462305 0.77607608
-10.18926907 4.17629576 1.20510733 -0.97290415 0.90903312 0.50603294
-10.04480362 4.51076221 1.14296854 -0.95911008 0.98183477 0.47994044
-10.09664726 4.19771862 1.81421053 -0.96406031 0.91369617 0.76179963
-9.83549881 4.36068296 1.11360002 -0.93912500 0.94916779 0.46760839
-10.18608093 4.35517168 0.77500796 -0.97259974 0.94796813 0.32543123
-10.11266994 4.14858913 1.81354380 -0.96559018 0.90300238 0.76151967
-9.97187996 4.34663105 1.12747490 -0.95214713 0.94610918 0.47343454
-10.07369137 4.23215055 0.76251882 -0.96186841 0.92119074 0.32018694
-9.96250153 4.26817560 1.12284994 -0.95125163 0.92903215 0.47149250
-10.19029522 4.20620394 0.77057099 -0.97300214 0.91554308 0.32356811
-10.22760773 4.50068378 2.35560536 -0.97656482 0.97964102 0.98913509
-10.00558853 4.21246386 1.12493122 -0.95536572 0.91690564 0.47236645
-10.22575188 4.14585495 0.77139264 -0.97638762 0.90240723 0.32391313
-10.29700184 4.45411682 2.36522627 -0.98319077 0.96950501 0.99317497
-10.10523033 4.18002462 1.13418114 -0.96487987 0.90984476 0.47625056
-9.97762203 4.44338512 1.45573843 -0.95269537 0.96716911 0.61127466
-10.31037426 4.38323641 2.36187983 -0.98446763 0.95407689 0.99176973
-10.27106476 4.17354250 1.15175593 -0.98071426 0.90843385 0.48363033
-10.05432987 4.40194607 1.46354163 -0.96001971 0.95814931 0.61455131
-10.04951000 4.34357262 1.45949543 -0.95955950 0.94544345 0.61285228
-10.02330494 4.42961264 1.09375215 -0.95705736 0.96417135 0.45927414
-10.09300900 4.28727722 1.46209657 -0.96371293 0.93318993 0.61394453
-10.13293457 4.27385092 0.70684010 -0.96752512 0.93026745 0.29680708
-10.21024323 4.37782335 1.76398468 -0.97490680 0.95289862 0.74070942
-10.10337448 4.09118605 2.29704380 -0.96470267 0.89050776 0.96454465
-9.97431660 4.33342838 1.08436406 -0.95237976 0.94323540 0.45533201
-10.14533520 4.23440123 1.46614265 -0.96870917 0.92168063 0.61564350
-10.19646072 4.22529984 0.70990485 -0.97359079 0.91969961 0.29809397
-10.16653728 4.28381729 1.75152302 -0.97073364 0.93243682 0.73547667
-10.11614990 4.02258968 2.29411578 -0.96592247 0.87557673 0.96331519
-10.09829807 4.31185770 1.09621084 -0.96421790 0.93854022 0.46030656
-10.22835255 4.16339588 0.71036458 -0.97663593 0.90622526 0.29828703
-10.08006763 4.17324209 1.73171222 -0.96247721 0.90836847 0.72715801
-10.47304535 4.08777189 2.37024570 -1.00000000 0.88976461 0.99528265
-10.04632378 4.21540451 1.08659923 -0.95925528 0.91754574 0.45627058
-10.30980778 4.15146685 1.48377204 -0.98441356 0.90362877 0.62304622
-10.12073135 4.11574793 1.73426843 -0.96635991 0.89585400 0.72823137
-10.32111359 4.59421730 2.28021193 -0.98549306 1.00000000 0.95747685
-10.11385727 4.18769503 1.09241092 -0.96570355 0.91151434 0.45871094
-9.99655628 4.39319324 1.40010154 -0.95450330 0.95624411 0.58791238
-10.27095699 4.51386690 2.26415634 -0.98070395 0.98251051 0.95073497
-10.28552055 4.18294811 1.11006939 -0.98209453 0.91048110 0.46612585
-9.94040012 4.29401350 1.38725924 -0.94914132 0.93465614 0.58251983
-10.02547169 4.25634623 1.39619303 -0.95726424 0.92645729 0.58627117
-10.04658985 4.35882807 1.01802421 -0.95928067 0.94876403 0.42747545
-10.15611839 4.23692560 1.41210651 -0.96973878 0.92223012 0.59295332
-10.03173256 4.27759647 1.01319277 -0.95786202 0.93108273 0.42544669
-10.03693867 4.11254120 2.18789196 -0.95835912 0.89515603 0.91871107
-10.10790253 4.23532629 1.01886439 -0.96513498 0.92188203 0.42782825
-10.42701912 4.19737005 1.44532919 -0.99560529 0.91362029 0.60690379
-10.00804710 4.47722912 1.34451103 -0.95560050 0.97453576 0.56456953
-10.05015755 4.29172659 1.63499343 -0.95962131 0.93415838 0.68654513
-10.15339470 4.08613968 2.20796156 -0.96947873 0.88940930 0.92713839
-10.27467632 4.24871874 1.03566945 -0.98105907 0.92479706 0.43488479
-9.91472626 4.37977886 1.32761490 -0.94668990 0.95332426 0.55747473
-10.05388641 4.23737764 1.63227594 -0.95997739 0.92232853 0.68540400
-9.93477154 4.31425238 1.32654214 -0.94860387 0.93906146 0.55702424
-10.09673882 4.18096209 1.63499343 -0.96406907 0.91004884 0.68654513
-9.95620918 4.24942207 1.32573760 -0.95065081 0.92495018 0.55668646
-10.08697319 4.23027897 1.34102452 -0.96313661 0.92078340 0.56310552
-10.23459816 4.57178450 2.15510488 -0.97723228 0.99511719 0.90494353
-10.08931541 4.32507706 0.96663868 -0.96336025 0.94141763 0.40589830
-10.23439121 4.21642303 1.35872531 -0.97721255 0.91776747 0.57053822
-10.21455765 4.48616552 2.14475393 -0.97531879 0.97648090 0.90059710
-10.11812592 4.26236820 0.96683902 -0.96611112 0.92776811 0.40598243
-10.44821644 4.22752190 1.38608098 -0.99762928 0.92018324 0.58202505
-10.02417374 4.47616625 1.26880610 -0.95714033 0.97430444 0.53278053
-10.19510555 4.23821545 0.97304970 -0.97346139 0.92251086 0.40859035
-9.93996239 4.38226652 1.25405169 -0.94909954 0.95386577 0.52658504
-10.32662106 4.21676207 0.98446941 -0.98601896 0.91784126 0.41338554
-9.92728901 4.30229616 1.24845517 -0.94788945 0.93645900 0.52423501
-9.95959663 4.24217939 1.24921834 -0.95097429 0.92337370 0.52455544
-10.09033108 4.15133619 2.09683228 -0.96345723 0.90360034 0.88047445
-10.00433922 4.18721151 1.25176215 -0.95524645 0.91140914 0.52562362
-10.09268284 4.32175016 0.88231927 -0.96368176 0.94069344 0.37049198
-10.21194649 4.19929504 1.27694643 -0.97506946 0.91403925 0.53619868
-10.13431072 4.26445723 0.88380045 -0.96765655 0.92822278 0.37111396
-10.43479824 4.21490240 1.30416584 -0.99634802 0.91743642 0.54762828
-10.13775444 4.20974922 0.88213414 -0.96798533 0.91631478 0.37041426
-10.18979931 4.15654659 0.88472623 -0.97295475 0.90473443 0.37150270
-10.22058964 4.49603415 2.04391742 -0.97589469 0.97862899 0.85825515
-10.32437611 4.46464300 2.05928636 -0.98580456 0.97179621 0.86470866
-10.07688999 4.20747232 1.99817622 -0.96217382 0.91581917 0.83904809
-10.08207321 4.15392017 1.99524879 -0.96266872 0.90416276 0.83781886
