-4.68214607 -6.80117035 1.84064186 -0.96361905 -0.93428630 0.74102610
-4.78996181 -6.72494602 2.31057286 -0.98580831 -0.92381525 0.93021613
-4.50502300 -6.63167715 1.78616631 -0.92716587 -0.91100276 0.71909475
-4.83249712 -6.87631702 2.35265517 -0.99456233 -0.94460928 0.94715810
-4.55629063 -6.79942179 1.82425487 -0.93771708 -0.93404609 0.73442882
-4.79356670 -6.91287899 2.35484123 -0.98655021 -0.94963187 0.94803822
-4.49847841 -6.80509996 1.81805444 -0.92581892 -0.93482608 0.73193258
-4.36436939 -6.69250250 1.77996588 -0.89821833 -0.91935843 0.71659851
-4.29701185 -6.68036032 1.76933658 -0.88435566 -0.91769046 0.71231925
-4.58271694 -6.83407450 1.39984214 -0.94315583 -0.93880635 0.56356406
-4.43238592 -6.96420574 1.84019887 -0.91221660 -0.95668268 0.74084777
-4.46279573 -6.74586821 1.37546456 -0.91847515 -0.92668933 0.55374986
-4.37408257 -6.96875477 1.83399844 -0.90021735 -0.95730758 0.73835152
-4.41603184 -6.76716471 1.37409115 -0.90885085 -0.92961484 0.55319691
-4.32918835 -6.99443960 1.83355558 -0.89097780 -0.96083593 0.73817325
-4.42441130 -6.87443161 1.39057171 -0.91057539 -0.94435030 0.55983186
-4.27706051 -7.00816393 1.83001244 -0.88024956 -0.96272129 0.73674679
-4.78938293 -6.76094866 2.25286388 -0.98568916 -0.92876095 0.90698302
-4.38849354 -6.91375828 1.39297521 -0.90318328 -0.94975263 0.56079948
-4.24696255 -7.05832958 1.83621287 -0.87405515 -0.96961260 0.73924303
-4.50893259 -6.66649008 1.74667239 -0.92797047 -0.91578507 0.70319486
-4.84323645 -6.92814159 2.29917336 -0.99677259 -0.95172846 0.92562681
-4.35433817 -6.95624924 1.39606535 -0.89615381 -0.95558965 0.56204355
-4.54202509 -6.80658007 1.77648973 -0.93478113 -0.93502939 0.71519905
-4.78191090 -6.90973997 2.28533387 -0.98415136 -0.94920063 0.92005515
-4.34734392 -7.01863050 1.40464902 -0.89471436 -0.96415907 0.56549925
-4.46020651 -6.75307894 1.75661147 -0.91794229 -0.92767990 0.70719624
-4.35241508 -6.68132734 1.73025119 -0.89575803 -0.91782326 0.69658381
-4.16772223 -6.94620371 2.26630449 -0.85774696 -0.95420969 0.91239411
-4.48186207 -6.65300035 1.32189035 -0.92239916 -0.91393197 0.53218132
-4.33790302 -6.75118685 1.74148679 -0.89277136 -0.92741996 0.70110714
-4.11619377 -6.95898628 2.26193237 -0.84714204 -0.95596570 0.91063392
-4.37453222 -6.58505106 2.14800215 -0.90030992 -0.90459764 0.86476666
-4.51118946 -6.78760624 1.34355652 -0.92843497 -0.93242294 0.54090393
-4.42028141 -6.97427845 1.79291093 -0.90972543 -0.95806640 0.72181004
-4.07817745 -6.99469805 2.26521158 -0.83931798 -0.96087146 0.91195410
-4.31291580 -6.58182096 2.13788867 -0.88762879 -0.90415394 0.86069506
-4.44023418 -6.77300739 1.33489001 -0.91383183 -0.93041748 0.53741491
-4.37013960 -6.99199390 1.79031813 -0.89940590 -0.96049994 0.72076625
-4.46459055 -6.96168089 0.87049526 -0.91884458 -0.95633584 0.35045367
-4.06182480 -7.06862783 2.28106070 -0.83595252 -0.97102726 0.91833484
-4.27988148 -6.62172127 2.14214706 -0.88083011 -0.90963513 0.86240941
-4.44918871 -6.88013029 1.35088956 -0.91567475 -0.94513309 0.54385614
-4.33023596 -7.02595329 1.79204667 -0.89119345 -0.96516502 0.72146213
-4.34888077 -6.87532473 0.85401911 -0.89503068 -0.94447297 0.34382051
-4.27356815 -6.70366287 2.16024494 -0.87953079 -0.92089152 0.86969548
-4.41971159 -6.92952919 1.35522282 -0.90960813 -0.95191908 0.54560071
-4.28702354 -7.05468845 1.79247880 -0.88230002 -0.96911240 0.72163606
-4.33112144 -6.91933775 0.85741127 -0.89137566 -0.95051908 0.34518617
-4.39229155 -6.95860481 1.35688949 -0.90396494 -0.95591325 0.54627168
-4.28652191 -6.94472218 0.85716897 -0.88219678 -0.95400620 0.34508863
-4.36731529 -7.01615381 1.36288929 -0.89882463 -0.96381885 0.54868716
-4.62566376 -6.82204247 1.72857916 -0.95199460 -0.93715352 0.69591063
-4.76712894 -6.77145243 2.18442321 -0.98110914 -0.93020386 0.87942940
-4.54154015 -6.78909683 1.71268392 -0.93468136 -0.93262774 0.68951136
-4.45669079 -6.91877699 0.81922156 -0.91721874 -0.95044208 0.32981133
-4.18558502 -6.91942596 2.19803786 -0.86142325 -0.95053118 0.88491058
-4.78269482 -6.88550472 2.21186042 -0.98431271 -0.94587141 0.89047539
-4.48269653 -6.79297209 1.70640945 -0.92257088 -0.93316007 0.68698531
-4.17673254 -7.00345325 2.21666813 -0.85960132 -0.96207416 0.89241093
-4.73063231 -6.90264988 2.20771885 -0.97359782 -0.94822663 0.88880807
-4.36659145 -6.70772076 1.67754698 -0.89867562 -0.92144895 0.67536557
-4.25609875 -6.79438066 0.79447806 -0.87593544 -0.93335354 0.31984982
-4.55560207 -6.83853626 1.06066644 -0.93757540 -0.93941927 0.42701492
-4.14540195 -7.05113173 2.22358775 -0.85315329 -0.96862382 0.89519674
-4.58093309 -6.82616377 1.29651392 -0.94278866 -0.93771964 0.52196503
-4.32120228 -6.73007917 1.67629206 -0.88933426 -0.92452037 0.67486036
-4.28288603 -6.90876865 0.80742794 -0.88144845 -0.94906718 0.32506335
-4.50921679 -6.83841467 1.05690944 -0.92802894 -0.93940258 0.42550239
-4.12478161 -7.09222126 2.23050761 -0.84890944 -0.97426832 0.89798260
-4.39964485 -6.57153273 2.08451056 -0.90547830 -0.90274066 0.83920550
-4.42464256 -6.65988970 1.26008761 -0.91062295 -0.91487837 0.50730008
-4.39704561 -6.92066383 1.71937656 -0.90494335 -0.95070124 0.69220579
-4.42853975 -6.80845404 1.04679418 -0.91142505 -0.93528682 0.42143005
-4.38690090 -6.64264488 2.09848809 -0.90285546 -0.91250938 0.84483272
-4.43876505 -6.77356911 1.27670312 -0.91352952 -0.93049467 0.51398939
-4.37519550 -6.98301220 1.72816086 -0.90044641 -0.95926613 0.69574225
-4.42505789 -6.89787436 1.05748737 -0.91070843 -0.94757062 0.42573506
-4.33457470 -6.65386343 2.09331131 -0.89208639 -0.91405052 0.84274858
-4.39291573 -6.79634237 1.27574444 -0.90409338 -0.93362308 0.51360339
-4.33021021 -7.00869799 1.72774255 -0.89118814 -0.96279466 0.69557387
-4.39954710 -6.95401716 1.06240058 -0.90545815 -0.95528305 0.42771307
-4.28540087 -6.66957140 2.08968735 -0.88196605 -0.91620833 0.84128964
-4.38712549 -6.88217068 1.28692794 -0.90290171 -0.94541341 0.51810580
-4.28811455 -7.03911209 1.72857916 -0.88252455 -0.96697265 0.69591063
-4.40584993 -7.06224012 1.07627285 -0.90675533 -0.97014982 0.43329790
-4.26503754 -6.73068857 2.10055876 -0.87777513 -0.92460412 0.84566635
-4.36786890 -6.94810343 1.29427719 -0.89893854 -0.95447069 0.52106452
-4.49212646 -6.67404175 1.61390233 -0.92451167 -0.91682243 0.64974278
-4.37478924 -6.88595390 0.77880508 -0.90036279 -0.94593310 0.31354001
-4.39857101 -7.15055609 1.08667707 -0.90525728 -0.98228186 0.43748656
-4.74458933 -6.75564957 2.10105991 -0.97647029 -0.92803299 0.84586811
-4.32619905 -6.97877169 1.29491627 -0.89036262 -0.95868361 0.52132183
-4.50885153 -6.79012823 1.63557756 -0.92795378 -0.93276942 0.65846902
-4.36231089 -6.93851185 0.78305209 -0.89779466 -0.95315307 0.31524983
-4.44209194 -6.75814342 1.00087011 -0.91421419 -0.92837560 0.40294144
-4.74708843 -6.82713032 2.11658859 -0.97698462 -0.93785244 0.85211980
-4.41199017 -6.71322298 1.61149406 -0.90801901 -0.92220479 0.64877325
-4.29985428 -6.93533182 0.77902859 -0.88494068 -0.95271623 0.31363001
-4.43847752 -6.84564543 1.01092076 -0.91347033 -0.94039589 0.40698776
-4.25426388 -6.97848606 2.15543294 -0.87555784 -0.95864439 0.86775821
-4.70080137 -6.85204029 2.11508584 -0.96745843 -0.94127434 0.85151482
-4.36116362 -6.72768068 1.60828292 -0.89755857 -0.92419088 0.64748043
-4.26342058 -6.97409964 0.78059328 -0.87744236 -0.95804179 0.31425995
-4.39644861 -6.87506342 1.01119995 -0.90482044 -0.94443709 0.40710014
-4.13104820 -6.87241840 2.11401844 -0.85019916 -0.94407374 0.85108507
-4.57347298 -6.83206415 1.22164750 -0.94125336 -0.93853021 0.49182445
-4.40569353 -6.89009094 1.64119697 -0.90672314 -0.94650143 0.66073138
-4.39770985 -6.97279549 1.02292562 -0.90508002 -0.95786268 0.41182080
-4.16623640 -7.03139400 2.15543294 -0.85744113 -0.96591240 0.86775821
-4.40389252 -6.59707975 2.01740623 -0.90635246 -0.90625006 0.81218988
-4.43203735 -6.71242428 1.19447362 -0.91214490 -0.92209512 0.48088449
-4.38434887 -6.95238543 1.64962626 -0.90233028 -0.95505887 0.66412491
-4.38006401 -7.04226685 1.02990520 -0.90144837 -0.96740603 0.41463071
-4.13361645 -7.07747936 2.16164517 -0.85072774 -0.97224325 0.87025917
-4.36235523 -6.62461996 2.01740623 -0.89780378 -0.91003329 0.81218988
-4.41577053 -6.77983427 1.20172000 -0.90879703 -0.93135530 0.48380181
-4.35720015 -7.00637579 1.65604842 -0.89674282 -0.96247566 0.66671044
-4.35454893 -6.88091040 0.72141576 -0.89619720 -0.94524026 0.29043558
-4.42096901 -7.20787382 1.05279815 -0.90986693 -0.99015570 0.42384720
-4.28993845 -6.60488701 2.00287962 -0.88289994 -0.90732259 0.80634159
-4.40312195 -6.85394573 1.21017408 -0.90619391 -0.94153613 0.48720536
-4.33160257 -7.06363392 1.66327345 -0.89147466 -0.97034127 0.66961914
-4.31359625 -6.88788986 0.71973521 -0.88776886 -0.94619906 0.28975901
-4.27768803 -6.65429831 2.01189613 -0.88037866 -0.91411024 0.80997157
-4.38674879 -6.89960527 1.21470308 -0.90282416 -0.94780844 0.48902869
-4.29016972 -6.94696045 0.72372645 -0.88294750 -0.95431364 0.29136586
-4.49609756 -6.88717747 0.97386879 -0.92532891 -0.94610119 0.39207095
-4.26181793 -6.72185993 2.02441907 -0.87711251 -0.92339128 0.81501317
-4.36861706 -6.96716976 1.22194946 -0.89909256 -0.95708984 0.49194601
-4.43884039 -6.89359379 0.97038227 -0.91354501 -0.94698262 0.39066732
-4.38425779 -7.09018517 1.23915958 -0.90231150 -0.97398865 0.49887466
-4.59933090 -6.79360533 1.56816053 -0.94657511 -0.93324703 0.63132751
-4.42189789 -6.96324015 0.97708708 -0.91005808 -0.95655000 0.39336661
-4.04621410 -6.92154789 2.48390961 -0.83273971 -0.95082271 1.00000000
-4.50985050 -6.75206327 1.55167556 -0.92815936 -0.92754036 0.62469083
-4.37072515 -6.97910976 0.97520971 -0.89952642 -0.95873004 0.39261079
-4.18385553 -6.88193989 2.04896426 -0.86106730 -0.94538170 0.82489485
-4.63595438 -6.69131756 1.99128711 -0.95411247 -0.91919565 0.80167454
-4.45119905 -6.75563908 1.54592490 -0.91608852 -0.92803156 0.62237567
-4.21850300 -7.03743649 2.08803606 -0.86819798 -0.96674246 0.84062481
-4.67566299 -6.84068632 2.02751160 -0.96228480 -0.93971461 0.81625819
-4.35751963 -6.70434332 1.52752304 -0.89680862 -0.92098498 0.61496723
-4.18409443 -7.08044815 2.09304523 -0.86111647 -0.97265106 0.84264147
-4.62718391 -6.86187029 2.02509665 -0.95230746 -0.94262469 0.81528598
-4.40943956 -6.85543299 1.55780947 -0.90749407 -0.94174039 0.62716031
-4.16638327 -7.12679291 2.10105991 -0.85747135 -0.97901750 0.84586811
-4.56795883 -6.84317732 2.01302195 -0.94011849 -0.94005680 0.81042480
-4.85891819 -6.77785683 2.40908742 -1.00000000 -0.93108368 0.96987724
-4.37465763 -6.89628410 1.56087649 -0.90033573 -0.94735217 0.62839502
-4.45546103 -6.94875717 0.91953337 -0.91696566 -0.95456046 0.37019598
-4.37068701 -6.63632441 1.94298756 -0.89951855 -0.91164118 0.78222960
-4.84515381 -6.84892035 2.42371178 -0.99716717 -0.94084573 0.97576487
-4.37582684 -6.99530268 1.57736146 -0.90057635 -0.96095449 0.63503176
-4.35742998 -6.89123821 0.90655965 -0.89679015 -0.94665903 0.36497289
-4.30784130 -6.63105011 1.93332767 -0.88658446 -0.91091663 0.77834058
-4.72155142 -6.76453686 2.38265133 -0.97172892 -0.92925388 0.95923430
-4.34718370 -7.04775667 1.58311212 -0.89468139 -0.96816015 0.63734692
-4.30456066 -6.90335417 0.90427017 -0.88590926 -0.94832343 0.36405116
-4.26192141 -6.65143871 1.93139577 -0.87713379 -0.91371745 0.77756280
-4.84719896 -7.03708220 2.46927214 -0.99758810 -0.96669382 0.99410707
-4.25102186 -6.72738600 1.94588554 -0.87489063 -0.92415041 0.78339630
-4.61272573 -6.84692049 1.50234187 -0.94933182 -0.94057101 0.60482955
-4.53113747 -6.79508877 1.48587513 -0.93254042 -0.93345082 0.59820014
-4.27722263 -6.93752527 1.99370205 -0.88028288 -0.95301753 0.80264676
-4.72850227 -6.82588434 1.94164181 -0.97315949 -0.93768126 0.78168780
-4.14209604 -7.03843737 2.44468045 -0.85247290 -0.96687996 0.98420668
-4.42110586 -6.72174311 1.46318746 -0.90989512 -0.92337525 0.58906633
-4.24860859 -6.98917675 2.00094700 -0.87439394 -0.96011299 0.80556351
-4.61059809 -6.74641275 1.91015589 -0.94889396 -0.92676413 0.76901186
-4.02799463 -6.94330645 2.40226221 -0.82898998 -0.95381171 0.96712947
-4.42927790 -6.82678843 1.48038614 -0.91157699 -0.93780547 0.59599036
-4.20262384 -7.01239872 1.99998093 -0.86492997 -0.96330303 0.80517459
-4.60741997 -6.83322716 1.92682493 -0.94823986 -0.93868995 0.77572262
-4.02306223 -7.03669119 2.42608619 -0.82797486 -0.96664011 0.97672081
-4.40757561 -6.88755369 1.48770475 -0.90711045 -0.94615287 0.59893674
-4.17126036 -7.06042051 2.00625992 -0.85847509 -0.96989983 0.80770248
-4.55466080 -6.84748507 1.92265773 -0.93738168 -0.94064862 0.77404499
-3.93575072 -6.98502588 2.39935660 -0.81000555 -0.95954275 0.96595973
-4.36315966 -6.91345119 1.48733878 -0.89796937 -0.94971043 0.59878939
-4.38940907 -6.69081926 1.86987245 -0.90337169 -0.91912717 0.75279409
-3.87144184 -6.97275591 2.38657308 -0.79677033 -0.95785725 0.96081316
-4.34884167 -6.98739815 1.49758482 -0.89502263 -0.95986867 0.60291439
-4.33667135 -6.70195818 1.86524224 -0.89251786 -0.92065734 0.75093001
-3.86412072 -7.06419420 2.40981603 -0.79526359 -0.97041821 0.97017056
-4.29872036 -6.71250486 1.86246407 -0.88470727 -0.92210615 0.74981153
-3.93681598 -7.27953577 2.47780180 -0.81022477 -1.00000000 0.99754107
-4.30182123 -6.90614939 1.90182137 -0.88534546 -0.94870740 0.76565641
-4.20509672 -7.06140709 2.37365174 -0.86543888 -0.97003537 0.95561117
-4.29412985 -6.99097967 1.91802740 -0.88376254 -0.96036065 0.77218086
-4.09917545 -6.98356485 2.33821607 -0.84363955 -0.95934206 0.94134510
-4.25113153 -7.01948404 1.91849041 -0.87491316 -0.96427631 0.77236724
-4.04170179 -6.98595905 2.33034158 -0.83181101 -0.95967096 0.93817484
-4.21695900 -7.06273699 1.92312074 -0.86788023 -0.97021806 0.77423137
-3.99295378 -7.00289106 2.32752919 -0.82177836 -0.96199691 0.93704265
