0.82940316 -8.35194302 2.34937620 0.57479048 -0.99608737 0.88448381
0.99290746 -8.15191841 1.83045530 0.68810171 -0.97223163 0.68912256
0.87669379 -8.29874897 2.33571315 0.60756367 -0.98974323 0.87933999
1.04031610 -8.11651039 1.82381201 0.72095674 -0.96800870 0.68662149
0.92663080 -8.27396297 2.33024788 0.64217085 -0.98678714 0.87728244
1.08493507 -8.06343937 1.81318259 0.75187844 -0.96167922 0.68261981
0.97882980 -8.26988697 2.33079433 0.67834568 -0.98630100 0.87748820
1.13668561 -8.06418514 1.81495416 0.78774244 -0.96176815 0.68328673
1.00427461 -8.26608944 1.41700947 0.69597936 -0.98584813 0.53347009
1.17467439 -8.05873966 1.81495416 0.81406927 -0.96111870 0.68328673
1.03301513 -8.08182240 1.38576496 0.71589702 -0.96387166 0.52170730
1.22558367 -8.05312729 1.81539714 0.84935027 -0.96044940 0.68345350
1.07736695 -8.02832127 1.37752461 0.74663359 -0.95749092 0.51860499
1.28422773 -8.09533024 1.82691228 0.88999164 -0.96548265 0.68778867
1.11941218 -7.96288109 1.36722422 0.77577162 -0.94968623 0.51472712
1.33732367 -8.10056591 1.83001244 0.92678797 -0.96610707 0.68895584
1.17262816 -7.97712517 1.37100101 0.81265122 -0.95138502 0.51614898
1.25053501 -8.06189919 2.28270030 0.86664200 -0.96149552 0.85938191
0.85380244 -8.38474941 2.29225373 0.59169960 -1.00000000 0.86297858
1.22424495 -7.97933388 1.37271774 0.84842253 -0.95164847 0.51679534
1.01418293 -8.19653130 1.79334307 0.70284599 -0.97755235 0.67515069
1.28851175 -8.05591679 2.28270030 0.89296049 -0.96078205 0.85938191
0.88851202 -8.33461285 2.27947855 0.61575389 -0.99402052 0.85816902
1.04205418 -8.10641479 1.77432907 0.72216123 -0.96680468 0.66799235
1.33846188 -8.04386806 2.28160715 0.92757678 -0.95934510 0.85897040
0.93853271 -8.30778790 2.27362347 0.65041912 -0.99082124 0.85596472
1.09399259 -8.10745049 1.77605760 0.75815541 -0.96692818 0.66864312
1.39495993 -8.06940842 2.29144454 0.96673089 -0.96239114 0.86267394
0.99304652 -8.33160973 1.38422203 0.68819809 -0.99366236 0.52112639
1.14007866 -8.06560040 1.76827919 0.79009384 -0.96193695 0.66571474
1.02200353 -8.13535213 1.35188961 0.70826578 -0.97025585 0.50895405
1.19129479 -8.06214333 1.76914346 0.82558751 -0.96152467 0.66604012
1.06372893 -8.05640984 1.33955657 0.73718220 -0.96084088 0.50431097
1.24456167 -8.07187557 1.77303267 0.86250234 -0.96268535 0.66750431
1.10609627 -7.98899078 1.32922351 0.76654351 -0.95280015 0.50042081
1.30714452 -8.13912010 1.78988600 0.90587336 -0.97070521 0.67384917
1.15710378 -7.98774052 1.33022356 0.80189258 -0.95265108 0.50079727
1.21693909 -8.12541866 2.23370147 0.84335947 -0.96907115 0.84093505
0.89742547 -8.26029682 2.65621161 0.62193108 -0.98515725 1.00000000
1.19875002 -8.00951385 1.33489001 0.83075410 -0.95524788 0.50255412
1.26591861 -8.10427380 2.22997546 0.87730306 -0.96654934 0.83953232
1.26850247 -8.12852097 1.35655618 0.87909377 -0.96944112 0.51071090
1.31681395 -8.09615993 2.22997546 0.91257441 -0.96558160 0.83953232
1.00440907 -8.19081783 1.73067057 0.69607252 -0.97687089 0.65155596
1.37272501 -8.11815262 2.23849201 0.95132172 -0.96820456 0.84273857
0.87305176 -8.32633877 2.20875430 0.60503972 -0.99303371 0.83154303
1.04820275 -8.12617302 1.71812177 0.72642231 -0.96916109 0.64683163
0.98094839 -8.29774857 1.08089697 0.67981386 -0.98962390 0.40693179
0.92251366 -8.29573536 2.20202446 0.63931763 -0.98938382 0.82900941
1.09576643 -8.09424019 1.71268392 0.75938475 -0.96535265 0.64478445
1.01709950 -8.16577435 1.06240058 0.70486724 -0.97388411 0.39996836
0.97553974 -8.29744720 2.20409513 0.67606562 -0.98958796 0.82978898
0.72687101 -8.36947060 2.60440874 0.50373393 -0.99817777 0.98049748
1.14436722 -8.07170963 1.70933747 0.79306591 -0.96266556 0.64352459
1.05919027 -8.18835926 1.06644666 0.73403686 -0.97657770 0.40149161
0.76325303 -8.33174324 2.59361792 0.52894729 -0.99367827 0.97643495
1.04011321 -8.26020527 1.31344891 0.72081614 -0.98514634 0.49448204
1.18008351 -8.05075169 1.70599115 0.81781793 -0.96016604 0.64226478
1.11143112 -8.18742371 1.06731367 0.77024060 -0.97646612 0.40181801
0.81377369 -8.30778885 2.58762288 0.56395900 -0.99082136 0.97417796
1.07194865 -8.10480404 1.28916466 0.74287862 -0.96661258 0.48533958
1.23485303 -8.07023430 1.71184731 0.85577410 -0.96248960 0.64446950
0.86711651 -8.31390095 2.59121990 0.60092646 -0.99155033 0.97553217
1.10711753 -7.98647833 1.27095151 0.76725125 -0.95250052 0.47848278
1.29210329 -8.10285854 1.72063148 0.89544952 -0.96638054 0.64777648
1.33742523 -8.12343788 2.63155866 0.92685837 -0.96883488 0.99071878
0.92118394 -8.32536125 2.59661531 0.63839608 -0.99291712 0.97756344
1.15842915 -7.98717737 1.27222967 0.80281109 -0.95258391 0.47896397
0.91856086 -8.10676575 1.63718307 0.63657826 -0.96684653 0.61636019
0.97649825 -8.16379070 1.01985455 0.67672986 -0.97364753 0.38395080
1.19770503 -8.09844208 2.15905690 0.83002990 -0.96585381 0.81283319
1.38681197 -8.10550117 2.62847710 0.96108425 -0.96669573 0.98955864
1.20798969 -7.97583818 1.27159059 0.83715737 -0.95123154 0.47872338
0.96514726 -8.06385994 1.62955666 0.66886342 -0.96172941 0.61348903
1.02777326 -8.15749454 1.01985455 0.71226430 -0.97289664 0.38395080
1.25006187 -8.10029888 2.16164517 0.86631411 -0.96607524 0.81380761
1.43973637 -8.10786247 2.63217497 0.99776173 -0.96697730 0.99095076
1.28122818 -8.11234474 1.29523575 0.88791287 -0.96751189 0.48762521
1.01171124 -8.02458000 1.62273300 0.70113307 -0.95704472 0.61092007
1.06897449 -8.17416763 1.02292562 0.74081749 -0.97488517 0.38510698
1.28821969 -8.09431839 2.16164517 0.89275813 -0.96536201 0.81380761
0.86843401 -8.32241154 2.13011336 0.60183948 -0.99256533 0.80193663
1.04502642 -7.98474264 1.61550796 0.72422105 -0.95229352 0.60820001
1.11978424 -8.16336441 1.02236724 0.77602947 -0.97359669 0.38489676
1.34545887 -8.12416649 2.17199898 0.93242586 -0.96892178 0.81770557
0.91862410 -8.29754066 2.12510419 0.63662207 -0.98959911 0.80005080
1.10380661 -8.04209709 1.62875390 0.76495671 -0.95913386 0.61318678
0.97029966 -8.28775787 2.12410235 0.67243415 -0.98843241 0.79967362
1.15842080 -8.06410408 1.63477468 0.80280530 -0.96175849 0.61545348
1.02700460 -8.31994247 2.13412070 0.71173161 -0.99227083 0.80344528
1.05008757 -8.16217995 1.22285521 0.72772849 -0.97345543 0.46037567
1.21335495 -8.08574200 1.64079559 0.84087557 -0.96433914 0.61772019
1.10005224 -8.14562130 1.22134566 0.76235485 -0.97148061 0.45980737
1.27307832 -8.13605309 1.65283740 0.88226491 -0.97033942 0.62225366
1.00716877 -8.19889164 0.97869623 0.69798505 -0.97783381 0.36845568
1.14250469 -8.07588387 1.21168375 0.79177517 -0.96316344 0.45616987
1.04553807 -8.19208908 0.97842801 0.72457564 -0.97702253 0.36835468
1.14456153 -8.11299896 2.08503056 0.79320055 -0.96758991 0.78496403
1.34102082 -8.12118530 2.55105352 0.92935020 -0.96856624 0.96041048
0.83564210 -8.23358154 2.47780180 0.57911414 -0.98197109 0.93283296
1.18420529 -8.09585094 1.21560884 0.82067436 -0.96554476 0.45764759
0.84984106 -8.15205002 1.56662703 0.58895427 -0.97224730 0.58979750
1.09538090 -8.17357635 0.97681886 0.75911754 -0.97481465 0.36774889
1.19134760 -8.07690430 2.07751679 0.82562411 -0.96328509 0.78213525
1.38661444 -8.08061695 2.54086185 0.96094733 -0.96372789 0.95657361
0.88106233 -8.17110252 2.46036959 0.61059117 -0.97451961 0.92627019
1.26000321 -8.25443840 1.24127316 0.87320364 -0.98445857 0.46730959
0.89574963 -8.09973812 1.55742610 0.62076968 -0.96600837 0.58633357
1.14951932 -8.18615246 0.97950083 0.79663640 -0.97631449 0.36875859
1.24497044 -8.08840370 2.08252597 0.86278564 -0.96465659 0.78402108
1.44296610 -8.10369301 2.55105352 1.00000000 -0.96648008 0.96041048
0.93682146 -8.20342255 2.47199106 0.64923316 -0.97837418 0.93064541
0.94639087 -8.09200096 1.55704272 0.65586495 -0.96508563 0.58618927
1.29697371 -8.08807182 2.08452964 0.89882481 -0.96461701 0.78477544
0.98961657 -8.02552128 1.54515815 0.68582106 -0.95715696 0.58171499
0.88626981 -8.34966183 2.05504227 0.61420000 -0.99581534 0.77367413
1.03770626 -8.00163078 1.54170787 0.71914804 -0.95430768 0.58041608
1.02205038 -8.19095612 0.91953337 0.70829827 -0.97688740 0.34618229
0.93029183 -8.27066040 2.03668857 0.64470804 -0.98639327 0.76676440
1.08337843 -7.96189976 1.53519046 0.75079966 -0.94956923 0.57796240
1.07248259 -8.17650318 0.91851586 0.74324864 -0.97516370 0.34579921
0.98621309 -8.29740524 2.04489946 0.68346238 -0.98958296 0.76985562
1.12032831 -7.95281982 1.53442371 0.77640653 -0.94848627 0.57767373
1.11493754 -8.20085335 0.92233163 0.77267063 -0.97806782 0.34723574
1.02093160 -8.25800610 2.03620553 0.70752293 -0.98488408 0.76658255
1.17027497 -7.94562387 1.53442371 0.81102043 -0.94762808 0.57767373
1.08019054 -8.30722427 2.05021238 0.74859035 -0.99075401 0.77185583
1.24169767 -8.07580853 1.56164324 0.86051756 -0.96315444 0.58792126
0.85421228 -8.33236504 2.41977453 0.59198362 -0.99375242 0.91098708
1.32402349 -8.08202553 2.45165348 0.91757077 -0.96389592 0.92298877
0.90289319 -8.29248047 2.40965009 0.62572032 -0.98899561 0.90717548
0.94614309 -8.38343143 1.53600740 0.65569323 -0.99984282 0.57826996
1.20484185 -8.07623482 1.99756598 0.83497584 -0.96320528 0.75203574
1.36434805 -8.01320267 2.43305898 0.94551635 -0.95568782 0.91598839
0.95476311 -8.28473663 2.40908742 0.66166705 -0.98807204 0.90696365
0.97735995 -8.19374180 1.50161004 0.67732704 -0.97721964 0.56532019
1.25283349 -8.05125237 1.99321902 0.86823487 -0.96022576 0.75039917
1.41196704 -7.98940277 2.42841053 0.97851712 -0.95284933 0.91423833
1.00979197 -8.13829708 1.49209595 0.69980299 -0.97060710 0.56173837
1.29794133 -8.08931637 2.00432801 0.89949536 -0.96476543 0.75458145
1.05217254 -8.06352901 1.47928834 0.72917342 -0.96168995 0.55691659
0.93485761 -8.31160545 1.95599568 0.64787221 -0.99127656 0.73638546
1.09182131 -7.97491264 1.46391928 0.75665069 -0.95112115 0.55113053
0.99043584 -8.33455753 1.96294105 0.68638885 -0.99401391 0.73900026
1.14190722 -7.96789503 1.46391928 0.79136109 -0.95028424 0.55113053
1.19566941 -7.98585176 1.46867645 0.82861918 -0.95242584 0.55292147
1.06817830 -8.11305237 1.91293406 0.74026567 -0.96759629 0.72017384
1.26611769 -8.11033630 1.49355960 0.87744105 -0.96727234 0.56228936
1.11521316 -8.07726002 1.90598869 0.77286166 -0.96332753 0.71755904
1.16430128 -8.05853558 1.90321052 0.80688053 -0.96109438 0.71651316
1.31166887 -7.94995689 2.32640409 0.90900880 -0.94814485 0.87583536
1.20113325 -8.04525852 1.90135837 0.83240575 -0.95951092 0.71581584
1.36842895 -8.05916023 2.36071491 0.94834447 -0.96116889 0.88875258
1.25195360 -8.03947639 1.90182137 0.86762512 -0.95882130 0.71599019
1.43119216 -8.12036800 2.38152647 0.99184048 -0.96846879 0.89658761
