0.11492962 -8.84332752 1.97395170 0.23019320 -0.93596095 0.73711318
0.17423654 -9.01597118 2.01336884 0.34897935 -0.95423323 0.75183237
0.23158807 -9.04004288 2.01912642 0.46384907 -0.95678091 0.75398237
0.05970938 -9.22710800 1.57391906 0.11959226 -0.97657955 0.58773297
0.27513832 -9.06809139 2.02576971 0.55107611 -0.95974952 0.75646311
0.12661737 -8.86154556 2.48272777 0.25360265 -0.93788910 0.92710042
0.11432371 -9.00196075 1.53477752 0.22897960 -0.95275038 0.57311672
0.33839756 -9.22793961 2.06252956 0.67777842 -0.97666752 0.77018994
0.18660392 -9.04906559 2.53628707 0.37375006 -0.95773584 0.94710052
0.17301637 -9.10152721 1.55228817 0.34653547 -0.96328831 0.57965559
0.39733946 -9.24706364 2.06740141 0.79583353 -0.97869158 0.77200919
0.24401753 -9.06694508 2.54175234 0.48874411 -0.95962816 0.94914138
0.22965690 -9.08056545 1.54885471 0.45998114 -0.96106976 0.57837343
0.28630728 -9.06712818 1.54679465 0.57344651 -0.95964760 0.57760417
0.36363029 -9.19964027 2.58055544 0.72831720 -0.97367239 0.96363121
0.34129742 -9.01593208 1.53821099 0.68358654 -0.95422906 0.57439888
0.40796056 -9.21896362 2.58656716 0.81710654 -0.97571754 0.96587610
0.38060316 -8.94336319 1.52585042 0.76231229 -0.94654852 0.56978321
0.11736329 -9.07648182 1.97440791 0.23506761 -0.96063757 0.73728359
0.46678886 -9.23351002 2.59148598 0.93493408 -0.97725713 0.96771288
0.43829727 -8.97031116 1.53100061 0.87786812 -0.94940066 0.57170635
0.17419097 -9.06385040 1.97181511 0.34888810 -0.95930064 0.73631537
0.23122782 -9.06648064 1.97267938 0.46312752 -0.95957905 0.73663807
0.09144097 -9.09018993 1.50255215 0.18314764 -0.96208841 0.56108314
0.28899670 -9.09217548 1.97872937 0.57883316 -0.96229851 0.73889726
0.19213873 -9.30262089 0.99673200 0.38483578 -0.98457170 0.37219974
0.14786118 -8.95319271 2.43756962 0.29615203 -0.94758886 0.91023743
0.14894354 -9.11704159 1.50721872 0.29831988 -0.96493030 0.56282574
0.35066432 -9.21702862 2.00681806 0.70234758 -0.97551274 0.74938613
0.24815689 -9.21788406 0.98655552 0.49703488 -0.97560328 0.36839965
0.20688216 -9.08700943 2.47483015 0.41436547 -0.96175176 0.92415130
0.20586246 -9.09818172 1.50421882 0.41232312 -0.96293420 0.56170553
0.41119960 -9.27707577 2.02064657 0.82359403 -0.98186803 0.75454998
0.30649090 -9.22804642 0.98800927 0.61387241 -0.97667885 0.36894250
0.26202437 -9.05925369 1.49788570 0.52481014 -0.95881414 0.55934060
0.35180473 -9.27212429 0.99358213 0.70463175 -0.98134398 0.37102351
0.30489767 -9.06383133 1.49888563 0.61068130 -0.95929861 0.55971402
0.37092349 -9.26894760 2.52646255 0.74292481 -0.98100775 0.94343185
0.35775656 -8.95335197 1.48055279 0.71655267 -0.94760573 0.55286813
0.16830871 -9.30512428 0.94455791 0.33710647 -0.98483664 0.35271689
0.42847458 -9.25102615 2.52220416 0.85819417 -0.97911096 0.94184166
0.41469786 -8.96668816 1.48321939 0.83060074 -0.94901717 0.55386388
0.22610982 -9.27409172 0.94108915 0.45287666 -0.98155218 0.35142159
0.49057135 -9.32709312 2.54402804 0.98256820 -0.98716176 0.94999117
0.28437582 -9.27248764 0.94108915 0.56957799 -0.98138243 0.35142159
0.17706959 -8.81952095 1.85239482 0.35465372 -0.93344128 0.69172144
0.34338978 -9.29235744 0.94363290 0.68777740 -0.98348540 0.35237148
0.23903835 -9.04696465 1.90133548 0.47877130 -0.95751351 0.70999682
0.28219044 -9.06137562 1.90468192 0.56520087 -0.95903873 0.71124649
0.12288380 -9.06661320 2.39511967 0.24612468 -0.95959306 0.89438576
0.15577234 -9.11579800 1.44157994 0.31199732 -0.96479869 0.53831488
0.34059212 -9.09655380 1.91262949 0.68217391 -0.96276194 0.71421427
0.24960838 -9.30606270 1.22019804 0.49994206 -0.98493594 0.45564646
0.18023206 -9.08304405 2.39977884 0.36098784 -0.96133208 0.89612561
0.21253976 -9.09490204 1.43838465 0.42569712 -0.96258712 0.53712171
0.39881819 -9.11767864 1.91764915 0.79879528 -0.96499771 0.71608871
0.30339739 -9.17179966 1.20083463 0.60767639 -0.97072577 0.44841576
0.26867315 -9.06181431 1.43327224 0.53812701 -0.95908517 0.53521264
0.35838753 -9.10643864 1.19158649 0.71781647 -0.96380812 0.44496232
0.32485119 -9.04021931 1.43007696 0.65064633 -0.95679957 0.53401947
0.03853749 -9.33806038 1.87882066 0.07718696 -0.98832250 0.70158935
0.28955317 -9.27255630 0.90464979 0.57994771 -0.98138970 0.33781439
0.41465092 -9.08423996 1.18869638 0.83050674 -0.96145862 0.44388309
0.36270466 -9.35405540 2.47380733 0.72646326 -0.99001539 0.92376935
0.37848750 -8.96699429 1.41857386 0.75807482 -0.94904959 0.52972394
0.09598330 -9.18873119 1.84831488 0.19224550 -0.97251779 0.69019789
0.40290228 -9.26732922 2.45102930 0.80697531 -0.98083645 0.91526353
0.42054507 -8.96116734 1.41793489 0.84231216 -0.94843286 0.52948534
0.13730475 -9.03536415 1.81700635 0.27500847 -0.95628572 0.67850667
0.19971585 -9.34868717 1.17898881 0.40001205 -0.98944724 0.44025809
0.46252596 -9.29162407 2.45827699 0.92639589 -0.98340780 0.91797000
0.47902930 -8.99777412 1.42432547 0.95945054 -0.95230728 0.53187174
0.19422321 -9.04215813 1.81861198 0.38901079 -0.95700479 0.67910624
0.25537473 -9.22648144 1.16195869 0.51149154 -0.97651321 0.43389872
0.25093260 -9.03684235 1.81780922 0.50259435 -0.95644218 0.67880648
0.31390682 -9.24250889 1.16447127 0.62872577 -0.97820956 0.43483695
0.07235091 -9.08759594 2.31645608 0.14491206 -0.96181387 0.86501122
0.30708459 -9.01550388 1.81379521 0.61506152 -0.95418376 0.67730755
0.37182203 -9.23639679 1.16391289 0.74472451 -0.97756267 0.43462846
0.12893672 -9.04436684 2.30543566 0.25824812 -0.95723855 0.86089599
0.17779496 -9.21033955 1.37291586 0.35610655 -0.97480482 0.51267433
0.36573809 -9.06625938 1.82463288 0.73253894 -0.95955563 0.68135458
0.18597370 -9.05499458 2.30844116 0.37248781 -0.95836335 0.86201829
0.23251882 -9.07463646 1.35238433 0.46571329 -0.96044225 0.50500745
0.28912106 -9.05916309 1.35027087 0.57908225 -0.95880455 0.50421828
0.49927461 -9.44839382 1.90410829 1.00000000 -1.00000000 0.71103227
0.17723489 -9.39846134 1.13290703 0.35498479 -0.99471521 0.42305022
0.33017734 -9.01027775 1.34302449 0.66131407 -0.95363063 0.50151229
0.23249592 -9.25847816 1.11413360 0.46566743 -0.97989970 0.41603985
0.35010898 -9.26715279 2.36454439 0.70123529 -0.98081779 0.88296837
0.38581941 -8.98431969 1.33940125 0.77275991 -0.95088327 0.50015932
0.29212782 -9.30041218 1.12003374 0.58510447 -0.98433793 0.41824308
0.40743780 -9.24348927 2.35903430 0.81605953 -0.97831327 0.88091075
0.44402415 -9.01924133 1.34513795 0.88933849 -0.95457929 0.50230151
0.07518160 -9.06548405 1.73646140 0.15058167 -0.95947355 0.64842957
0.34968895 -9.27660942 1.11708367 0.70039403 -0.98181868 0.41714147
0.46718493 -9.27555943 2.36805081 0.93572742 -0.98170751 0.88427770
0.13230492 -9.07464600 1.73837829 0.26499429 -0.96044326 0.64914536
0.18918359 -9.06774807 1.73722816 0.37891692 -0.95971316 0.64871585
0.14451094 -9.34442043 1.05944598 0.28944179 -0.98899567 0.39561841
0.22956464 -8.98238277 1.72074306 0.45979634 -0.95067829 0.64256001
0.18886507 -9.36148643 1.06173539 0.37827894 -0.99080187 0.39647332
0.07713339 -9.04058170 2.21539664 0.15449090 -0.95683795 0.82727361
0.28486010 -8.94741344 1.71422577 0.57054794 -0.94697720 0.64012635
0.24445373 -9.22724247 1.04469156 0.48961779 -0.97659373 0.39010879
0.13367021 -9.02439499 2.21153259 0.26772884 -0.95512480 0.82583070
0.34170631 -8.96113777 1.71729279 0.68440551 -0.94842976 0.64127159
0.30278873 -9.23742104 1.04621792 0.60645729 -0.97767103 0.39067879
0.19077691 -9.04083920 2.21587968 0.38210818 -0.95686519 0.82745397
0.40139160 -9.03136253 1.73147750 0.80394953 -0.95586222 0.64656848
0.36133441 -9.24921322 1.04799855 0.72371876 -0.97891909 0.39134371
0.46373874 -9.13451099 1.75217974 0.92882502 -0.96677923 0.65429908
0.31328934 -9.28599072 2.27770281 0.62748903 -0.98281157 0.85053998
0.03511424 -9.30762768 1.69811416 0.07033051 -0.98510158 0.63410991
0.37072778 -9.26250935 2.27238989 0.74253279 -0.98032635 0.84855604
0.07716634 -9.02029324 1.64468849 0.15455692 -0.95469064 0.61415970
0.41355297 -9.24321175 2.26804304 0.82830763 -0.97828394 0.84693283
0.09729118 -8.92057896 2.57951641 0.19486506 -0.94413710 0.96324325
0.13500343 -9.11203671 1.66188717 0.27039915 -0.96440059 0.62058204
0.47430414 -9.29082012 2.28060079 0.94998652 -0.98332268 0.85162210
0.15559904 -9.07139778 2.62395167 0.31165022 -0.96009946 0.97983623
0.19110312 -9.05006599 1.65054333 0.38276154 -0.95784175 0.61634600
0.21251154 -9.06640339 2.62282681 0.42564058 -0.95957088 0.97941619
0.24791276 -9.04672146 1.65017736 0.49654591 -0.95748776 0.61620939
0.08701999 -8.92394066 2.08934784 0.17429285 -0.94449288 0.78020442
0.30221617 -8.96440887 1.63517427 0.60531050 -0.94877595 0.61060691
0.14464088 -9.03605556 2.11620331 0.28970206 -0.95635891 0.79023284
0.33277202 -9.25099850 2.67794919 0.66651100 -0.97910804 1.00000000
0.35801589 -8.94857883 1.63261282 0.71707213 -0.94710052 0.60965043
0.20176373 -9.05247498 2.12037063 0.40411374 -0.95809668 0.79178900
0.38858587 -9.19119358 2.66107488 0.77830088 -0.97277844 0.99369878
0.40343350 -9.02340698 1.64688408 0.80803931 -0.95502019 0.61497957
0.24668325 -9.14284229 2.14213300 0.49408332 -0.96766102 0.79991549
0.43223733 -9.19692898 2.66332483 0.86573064 -0.97338545 0.99453896
0.30804837 -9.26751900 2.17222977 0.61699188 -0.98085654 0.81115419
0.49040610 -9.20169926 2.66557479 0.98223722 -0.97389030 0.99537915
0.36583591 -9.25373459 2.16945148 0.73273486 -0.97939765 0.81011677
0.42549771 -9.28624249 2.17778611 0.85223180 -0.98283821 0.81322908
