-1.97403157 7.28453732 2.52126265 -0.70127654 0.94652718 0.99267322
-2.02994585 7.55612469 1.74232030 -0.72114009 0.98181629 0.68598753
-1.99263442 7.17532873 2.48725319 -0.70788521 0.93233699 0.97928303
-2.10038209 7.62589693 1.76180744 -0.74616265 0.99088222 0.69366002
-2.06593680 7.26097679 2.52190423 -0.73392594 0.94346583 0.99292582
-2.13489223 7.56565762 1.75073516 -0.75842243 0.98305494 0.68930066
-2.10385346 7.26388693 2.52639627 -0.74739587 0.94384396 0.99469447
-2.14782214 7.24508095 2.52447104 -0.76301575 0.94140035 0.99393642
-2.20661378 7.27491236 2.53987169 -0.78390157 0.94527656 1.00000000
-2.19386888 7.29250622 1.69493103 -0.77937394 0.94756263 0.66732937
-2.25171351 7.25909662 2.53922987 -0.79992330 0.94322151 0.99974728
-2.14388347 7.60692072 1.34318984 -0.76161653 0.98841655 0.52884161
-2.22749567 7.23946428 1.68563032 -0.79131985 0.94067055 0.66366750
-2.15690780 7.47412825 1.32155907 -0.76624346 0.97116196 0.52032512
-2.26644540 7.20487833 1.68075860 -0.80515677 0.93617654 0.66174942
-2.12642908 7.15848970 2.08649850 -0.75541586 0.93014902 0.82149762
-2.18411684 7.39434433 1.30954194 -0.77590948 0.96079510 0.51559377
-2.31648540 7.20533657 1.68430173 -0.82293355 0.93623608 0.66314441
-2.18877697 7.24223518 2.11437106 -0.77756500 0.94103056 0.83247161
-2.20520902 7.33871889 1.30130160 -0.78340250 0.95356733 0.51234937
-2.34919262 7.19063568 1.68341589 -0.83455282 0.93432593 0.66279566
-2.24168777 7.25221491 2.12147593 -0.79636163 0.94232732 0.83526891
-1.98736882 7.15095186 2.42738771 -0.70601457 0.92916954 0.95571274
-2.24251795 7.29649115 1.29615140 -0.79665655 0.94808042 0.51032162
-2.40552711 7.20900488 1.69138789 -0.85456568 0.93671274 0.66593438
-2.10180354 7.61499691 1.71383011 -0.74666762 0.98946595 0.67477036
-2.27317953 7.19399691 2.10835934 -0.80754912 0.93476266 0.83010465
-2.07652950 7.29545450 2.48155570 -0.73768902 0.94794571 0.97703981
-2.27223563 7.23154831 1.28688097 -0.80721378 0.93964195 0.50667167
-2.32131624 7.18871832 2.11109209 -0.82464969 0.93407679 0.83118063
-2.11759090 7.26584911 2.47588682 -0.75227612 0.94409889 0.97480786
-2.31641269 7.21338034 1.28619432 -0.82290775 0.93728131 0.50640130
-2.47884274 7.51169300 2.21219873 -0.88061112 0.97604299 0.87098837
-2.16911602 7.27242565 2.48281550 -0.77058047 0.94495344 0.97753578
-2.35983205 7.19307184 1.28516424 -0.83833247 0.93464249 0.50599575
-2.18279791 7.36230373 1.66499865 -0.77544093 0.95663190 0.65554440
-2.52908611 7.50507784 2.21493149 -0.89846015 0.97518343 0.87206435
-2.40308762 7.17250299 1.28413427 -0.85369909 0.93196982 0.50559020
-2.12670040 7.60379601 1.30055761 -0.75551224 0.98801053 0.51205641
-2.21608996 7.30542946 1.65505958 -0.78726798 0.94924182 0.65163118
-2.43558097 7.15737200 1.28344750 -0.86524236 0.93000376 0.50531983
-2.12397242 7.45703363 1.27655828 -0.75454313 0.96894073 0.50260741
-2.64124703 7.19254065 1.70556045 -0.93830544 0.93457347 0.67151439
-2.24021912 7.26129055 1.64728117 -0.79583991 0.94350660 0.64856863
-2.16531277 7.42459488 1.27322507 -0.76922935 0.96472573 0.50129503
-2.68776393 7.17945242 1.70644617 -0.95483059 0.93287283 0.67186314
-2.28812814 7.25452709 1.64900970 -0.81285959 0.94262773 0.64924920
-2.18182182 7.30533600 2.07028747 -0.77509421 0.94922966 0.81511497
-2.20129824 7.37491179 1.26689184 -0.78201318 0.95827013 0.49880150
-2.73142028 7.15878248 1.70556045 -0.97033954 0.93018705 0.67151439
-2.32712913 7.21954489 1.64425623 -0.82671475 0.93808228 0.64737767
-2.22209549 7.27303076 2.06496453 -0.78940147 0.94503206 0.81301922
-2.23731589 7.32695913 1.26089203 -0.79480851 0.95203930 0.49643928
-2.37729096 7.21963215 1.64771330 -0.84453475 0.93809360 0.64873880
-2.26831913 7.26076746 2.06549692 -0.80582243 0.94343859 0.81322885
-2.27048755 7.27130985 1.25355887 -0.80659276 0.94480842 0.49355206
-2.44112897 7.26012993 1.66067731 -0.86721331 0.94335574 0.65384299
-2.30807948 7.22799110 2.06017399 -0.81994736 0.93917978 0.81113309
-2.31018353 7.23809814 1.25022566 -0.82069480 0.94049305 0.49223968
-2.05656743 7.44529963 1.61773062 -0.73059744 0.96741605 0.63693398
-2.38369441 7.30690002 2.08732080 -0.84680963 0.94943291 0.82182133
-2.04526782 7.26347208 2.40906644 -0.72658324 0.94379002 0.94849926
-2.35197783 7.21218109 1.24822569 -0.83554226 0.93712544 0.49145228
-2.50594783 7.56299448 2.16503572 -0.89024025 0.98270893 0.85241932
-2.08317828 7.26654673 2.41338086 -0.74005097 0.94418955 0.95019794
-2.38655329 7.20289087 1.24855900 -0.84782523 0.93591833 0.49158350
-2.13744545 7.28250170 2.42324185 -0.75932944 0.94626266 0.95408040
-2.44242167 7.21953869 1.25422549 -0.86767250 0.93808150 0.49381450
-2.57316566 7.09402657 1.63561344 -0.91411942 0.92177290 0.64397484
-2.19159770 7.43114853 1.62275016 -0.77856708 0.96557730 0.63891029
-2.65736175 7.18588543 1.66110945 -0.94403017 0.93370867 0.65401316
-2.21031880 7.32555819 1.60225368 -0.78521776 0.95185727 0.63084042
-2.12150955 7.40564108 1.21279728 -0.75366819 0.96226299 0.47750336
-2.24874115 7.28725147 1.59681582 -0.79886734 0.94687986 0.62869942
-2.18089294 7.43570471 1.22014642 -0.77476418 0.96616936 0.48039687
-2.27727532 7.21893454 1.58468521 -0.80900413 0.93800300 0.62392330
-2.19882226 7.36863375 1.21056056 -0.78113359 0.95745438 0.47662273
-2.31728983 7.22673082 1.58886814 -0.82321930 0.93901598 0.62557024
-2.27150941 7.35161495 0.98436880 -0.80695581 0.95524299 0.38756636
-2.17202020 7.20761442 1.98252726 -0.77161217 0.93653208 0.78056198
-2.22763467 7.29806995 1.20097470 -0.79136926 0.94828558 0.47284856
-2.36387849 7.21574211 1.58970475 -0.83977002 0.93758816 0.62589961
-2.30863953 7.30891466 0.98003370 -0.82014632 0.94969469 0.38585952
-2.23735380 7.25838566 2.00064611 -0.79482198 0.94312912 0.78769577
-2.26098728 7.24438524 1.19426465 -0.80321777 0.94130993 0.47020668
-2.41980290 7.23224878 1.59681582 -0.85963720 0.93973297 0.62869942
-2.10967469 7.57650852 1.57697439 -0.74946386 0.98446488 0.62088740
-2.35942030 7.30931854 0.98234570 -0.83818620 0.94974715 0.38676980
-2.27647376 7.22393465 1.99495161 -0.80871940 0.93865269 0.78545368
-2.30222464 7.21688080 1.19202793 -0.81786740 0.93773615 0.46932605
-2.40904760 7.30561686 0.98407978 -0.85581636 0.94926620 0.38745254
-2.32480359 7.21867466 1.99754012 -0.82588857 0.93796921 0.78647286
-2.10972023 7.29096174 2.34962177 -0.74948001 0.94736195 0.92509466
-2.34382272 7.19102049 1.19011068 -0.83264518 0.93437594 0.46857119
-2.18076181 7.46658516 1.55931318 -0.77471763 0.97018182 0.61393386
-2.37498283 7.21859264 2.00168157 -0.84371483 0.93795854 0.78810340
-2.15978456 7.29220915 2.35441780 -0.76726544 0.94752401 0.92698294
-2.38644409 7.16866541 1.18883264 -0.84778643 0.93147117 0.46806800
-2.49097848 7.00494385 1.55582273 -0.88492239 0.91019779 0.61255956
-2.18647361 7.31371164 1.52961016 -0.77674675 0.95031798 0.60223913
-2.23495030 7.35107374 0.94391686 -0.79396814 0.95517266 0.37163958
-2.42593598 7.17415714 1.19170845 -0.86181599 0.93218476 0.46920025
-2.58216238 7.15301561 1.59221458 -0.91731554 0.92943770 0.62688780
-2.21413374 7.28081417 1.52479351 -0.78657305 0.94604337 0.60034275
-2.27643037 7.32174492 0.94168341 -0.80870396 0.95136178 0.37076023
-2.15203929 7.47094822 1.15341079 -0.76451391 0.97074872 0.45412168
-2.63726258 7.16415358 1.59848893 -0.93688995 0.93088496 0.62935811
-2.25176096 7.24054384 1.51917398 -0.79994011 0.94081080 0.59813023
-2.31227684 7.27518463 0.93693727 -0.82143843 0.94531190 0.36889157
-2.18840766 7.42122078 1.14767408 -0.77743381 0.96428734 0.45186302
-2.29956412 7.23372793 1.52077961 -0.81692225 0.93992519 0.59876239
-2.36886263 7.29444647 0.94196260 -0.84154063 0.94781476 0.37087014
-2.22367048 7.36943817 1.14163542 -0.78996098 0.95755887 0.44948548
-2.34977174 7.23405743 1.52399075 -0.83475858 0.93996799 0.60002667
-2.41774058 7.28882504 0.94335848 -0.85890454 0.94708431 0.37141973
-2.18128204 7.19619608 1.91071010 -0.77490246 0.93504840 0.75228608
-2.25952554 7.32128859 1.13620055 -0.80269849 0.95130253 0.44734564
-2.40374613 7.24520874 1.52961016 -0.85393298 0.94141698 0.60223913
-2.24066114 7.22862291 1.92323315 -0.79599690 0.93926185 0.75721663
-2.29899287 7.28619003 1.13287938 -0.81671929 0.94674194 0.44603804
-2.27585435 7.22168016 1.92423499 -0.80849934 0.93835974 0.75761110
-2.32731462 7.25643301 1.12986004 -0.82678062 0.94287539 0.44484925
-2.45733452 7.14230919 1.51315320 -0.87297034 0.92804652 0.59575969
-2.06946182 7.51609898 1.48841894 -0.73517817 0.97661549 0.58602130
-2.26639986 7.37925529 0.90547961 -0.80514061 0.95883447 0.35650605
-2.32471585 7.21830606 1.92724049 -0.82585740 0.93792135 0.75879443
-2.61421156 7.51062870 2.46352673 -0.92870104 0.97590470 0.96994144
-2.50795889 7.14338207 1.51676571 -0.89095467 0.92818594 0.59718204
-2.12363815 7.52748919 1.49340284 -0.75442439 0.97809547 0.58798355
-2.30613375 7.34408712 0.90252948 -0.81925613 0.95426488 0.35534450
-2.38382816 7.24589729 1.93876171 -0.84685713 0.94150645 0.76333058
-2.70128775 7.60743284 2.50129509 -0.95963496 0.98848307 0.98481160
-2.55803776 7.14225388 1.51997685 -0.90874523 0.92803937 0.59844631
-2.15165210 7.44804478 1.47998476 -0.76437634 0.96777278 0.58270061
-2.34551525 7.30871153 0.89957941 -0.83324641 0.94966829 0.35418302
-2.14562678 7.33107328 2.28430390 -0.76223588 0.95257390 0.89937770
-2.17313647 7.34973955 1.46273291 -0.77200872 0.95499933 0.57590818
-2.39388061 7.30135679 0.90065217 -0.85042828 0.94871265 0.35460538
-2.18444514 7.29363394 2.27674985 -0.77602613 0.94770914 0.89640349
-2.20149875 7.27774382 1.45084834 -0.78208447 0.94564444 0.57122898
-2.23111200 7.25229216 1.44778144 -0.79260457 0.94233733 0.57002151
-2.27010155 7.21755075 1.44356430 -0.80645567 0.93782318 0.56836110
-2.31782842 7.21061325 1.44509780 -0.82341063 0.93692172 0.56896490
-2.31604862 7.31743956 0.84525251 -0.82277840 0.95080239 0.33279338
-2.23883486 7.39351225 1.88792622 -0.79534811 0.96068698 0.74331558
-2.37049723 7.21826696 1.44969821 -0.84212130 0.93791622 0.57077616
-2.38074923 7.36130524 0.85313851 -0.84576333 0.95650214 0.33589828
-2.24066114 7.23666334 1.85073566 -0.79599690 0.94030660 0.72867292
-2.41265821 7.19393349 1.44778144 -0.85709906 0.93475443 0.57002151
-2.04111290 7.33815289 1.38341486 -0.72510719 0.95349377 0.54467905
-2.28549528 7.22059298 1.85025263 -0.81192428 0.93821847 0.72848272
-2.44050956 7.12853765 1.43743026 -0.86699325 0.92625713 0.56594604
-2.13041282 7.47846842 1.41305518 -0.75683111 0.97172588 0.55634904
-2.32660246 7.19317579 1.84687161 -0.82652766 0.93465596 0.72715151
-2.03115940 7.64144278 1.84718406 -0.72157121 0.99290222 0.72727454
-2.64571714 7.63528299 2.41853213 -0.93989342 0.99210185 0.95222610
-2.48186922 7.13918543 1.44203079 -0.88168633 0.92764068 0.56775731
-2.13958287 7.37763214 1.39549053 -0.76008874 0.95862359 0.54943347
-2.37391400 7.22265911 1.85749757 -0.84333509 0.93848693 0.73133522
-2.05253482 7.57728720 1.83375633 -0.72916484 0.98456609 0.72198778
-2.68166804 7.62273073 2.41853213 -0.95266503 0.99047083 0.95222610
-2.08775473 7.13447905 2.14360070 -0.74167675 0.92702913 0.84397990
-2.16704154 7.29990482 1.38304889 -0.76984346 0.94852400 0.54453492
-2.12021351 7.63740873 1.85181439 -0.75320780 0.99237806 0.72909760
-2.71193409 7.55714130 2.40284324 -0.96341705 0.98194838 0.94604903
-2.16745639 7.23898745 2.17959905 -0.76999086 0.94060856 0.85815322
-2.20550227 7.26166725 1.37829185 -0.78350669 0.94355553 0.54266202
-2.80108476 7.65306854 2.43945098 -0.99508792 0.99441284 0.96046227
-2.24530315 7.22887325 1.37463260 -0.79764599 0.93929440 0.54122126
-2.29362869 7.22400093 1.37646222 -0.81481367 0.93866128 0.54194164
-2.19217181 7.35350418 1.79162073 -0.77877104 0.95548850 0.70539814
-2.34378695 7.22442245 1.37938964 -0.83263248 0.93871605 0.54309422
-2.20963812 7.24459553 1.76800632 -0.78497595 0.94133729 0.69610065
-2.35582447 7.14601231 1.36621618 -0.83690882 0.92852771 0.53790754
-2.23803878 7.21550369 1.76337612 -0.79506534 0.93755716 0.69427764
-2.52176070 7.59402227 2.31009245 -0.89585781 0.98674059 0.90953118
-2.39818835 7.12360859 1.36475241 -0.85195857 0.92561668 0.53733122
-2.28449678 7.20501184 1.76430213 -0.81156957 0.93619394 0.69464225
-2.52416158 7.44340706 2.26846957 -0.89671069 0.96717018 0.89314336
-2.33626366 7.21089363 1.76939547 -0.82995981 0.93695819 0.69664758
-2.66309690 7.69606781 2.35171533 -0.94606763 1.00000000 0.92591894
-2.38334370 7.20161867 1.77078450 -0.84668505 0.93575299 0.69719446
-2.71330333 7.68461752 2.35340285 -0.96390349 0.99851221 0.92658335
-2.73182416 7.58428001 2.32752919 -0.97048301 0.98547471 0.91639638
-2.81491184 7.66434145 2.35790253 -1.00000000 0.99587756 0.92835498
-2.69304180 7.24958181 1.80597460 -0.95670557 0.94198519 0.71104956
