3.98706675 7.86375999 1.96775126 0.96723628 0.97931510 0.91269112
3.93497801 7.88341475 1.96642256 0.95459992 0.98176283 0.91207480
3.78057122 7.33282280 1.40361893 0.91714185 0.91319472 0.65103275
3.80010128 7.48660421 1.42902660 0.92187971 0.93234593 0.66281742
3.75764585 7.63997173 1.44962740 0.91158026 0.95144558 0.67237258
3.62561655 7.45888805 1.41117263 0.87955081 0.92889428 0.65453631
3.62181807 7.57227612 1.42868328 0.87862933 0.94301510 0.66265821
3.35623455 7.46936941 1.82514071 0.81420052 0.93019956 0.84654486
3.56832623 7.58238983 1.42627990 0.86565256 0.94427460 0.66154349
3.37272000 7.63497114 1.86101472 0.81819981 0.95082283 0.86318409
3.98912406 7.86794186 1.91779816 0.96773541 0.97983593 0.88952166
3.52720189 7.61898041 1.42902660 0.85567611 0.94883144 0.66281742
3.33472443 7.67929268 1.86677229 0.80898231 0.95634246 0.86585456
3.93698144 7.88761520 1.91650176 0.95508593 0.98228592 0.88892031
3.49144340 7.66791868 1.43417680 0.84700131 0.95492595 0.66520625
3.72746730 7.30304337 1.35188961 0.90425915 0.90948611 0.62703943
3.75398993 7.54257393 0.88939446 0.91069341 0.93931615 0.41252288
3.66963458 7.67343807 0.60631067 0.89022934 0.95561332 0.28122169
3.77315855 7.50758553 1.38622200 0.91534358 0.93495882 0.64296365
3.70096707 7.52450943 0.88454849 0.89783037 0.93706650 0.41027519
3.61988521 7.66178989 0.60351974 0.87816048 0.95416272 0.27992719
3.78622127 7.62230492 1.40455484 0.91851252 0.94924545 0.65146685
3.66566586 7.57266045 0.88794065 0.88926655 0.94306296 0.41184857
3.57083821 7.68257427 0.60334533 0.86626196 0.95675111 0.27984631
3.72519827 7.61940050 1.39955497 0.90370870 0.94888377 0.64914781
3.56395388 7.70944357 1.84519935 0.86459190 0.96009725 0.85584855
3.62310982 7.60630941 0.88939446 0.87894273 0.94725347 0.41252288
3.52167296 7.70304489 0.60317087 0.85433483 0.95930040 0.27976540
3.66092467 7.60893154 1.39322186 0.88811636 0.94757998 0.64621031
3.48375607 7.66243219 1.82834601 0.84513640 0.95424271 0.84803152
3.58949471 7.65951824 0.89351350 0.87078792 0.95387983 0.41443339
3.60795569 7.62110138 1.39122188 0.87526643 0.94909555 0.64528269
3.43474197 7.68238926 1.82791388 0.83324593 0.95672804 0.84783113
3.56114101 7.72523832 0.89932859 0.86390948 0.96206427 0.41713056
3.79555178 7.58562803 0.84859002 0.92077601 0.94467789 0.39359677
3.56334758 7.65076303 1.39255512 0.86444479 0.95278949 0.64590108
3.38482428 7.70024729 1.82704961 0.82113624 0.95895201 0.84743023
3.53781056 7.80357313 0.90683985 0.85824966 0.97181970 0.42061448
3.70635986 7.52566481 0.83772141 0.89913863 0.93721038 0.38855565
3.64629436 7.65923595 0.56104922 0.88456714 0.95384467 0.26022834
3.52594018 7.69628191 1.39688838 0.85536999 0.95845819 0.64791095
3.55828762 7.94894457 0.92404288 0.86321729 0.98992360 0.42859367
3.66736031 7.53591013 0.83679640 0.88967758 0.93848628 0.38812661
3.60930800 7.67453194 0.56088489 0.87559450 0.95574957 0.26015210
3.52477360 7.78998518 1.41122139 0.85508698 0.97012752 0.65455896
3.87251830 7.74257660 1.81725800 0.93944758 0.96422350 0.84288865
3.63287497 7.58564854 0.84026510 0.88131171 0.94468045 0.38973549
3.55512762 7.68440914 0.55973458 0.86245072 0.95697963 0.25961858
3.87709785 7.87566853 1.84319234 0.94055855 0.98079813 0.85491765
3.60727119 7.65499496 0.84627759 0.87510037 0.95331651 0.39252421
3.82427835 7.56228495 1.09823740 0.92774493 0.94177085 0.50938934
3.80141401 7.45346546 1.32015896 0.92219818 0.92821896 0.61232197
3.57757926 7.71711588 0.85136503 0.86789733 0.96105278 0.39488390
3.74684548 7.52585745 1.08841109 0.90896016 0.93723434 0.50483167
3.67956758 7.32704878 1.29299903 0.89263898 0.91247565 0.59972453
3.56216168 7.81166458 0.86061496 0.86415708 0.97282737 0.39917424
3.74974585 7.65244484 1.10517347 0.90966380 0.95299894 0.51260644
3.78406000 7.65658379 1.34827757 0.91798818 0.95351440 0.62536407
3.55386758 7.92442894 0.87217730 0.86214501 0.98687053 0.40453714
3.68961525 7.65086937 1.10112739 0.89507651 0.95280272 0.51072979
3.68763232 7.69684362 0.51759076 0.89459544 0.95852816 0.24007124
3.70064330 7.60733271 1.33517683 0.89775187 0.94738090 0.61928761
3.49124908 7.56351566 1.74740243 0.84695417 0.94192410 0.81048793
3.73755860 7.56105852 0.80987507 0.90670723 0.94161814 0.37563986
3.65690827 7.67532539 1.10228348 0.88714200 0.95584840 0.51126599
3.62840247 7.66541576 0.51345330 0.88022667 0.95461428 0.23815219
3.65283966 7.59974623 1.33070350 0.88615501 0.94643611 0.61721277
3.49026632 7.65648985 1.76538920 0.84671575 0.95350266 0.81883061
3.68824720 7.58081436 0.80942804 0.89474463 0.94407839 0.37543249
3.61362505 7.70891428 1.10401750 0.87664181 0.96003139 0.51207030
3.58100557 7.68987179 0.51360655 0.86872852 0.95765990 0.23822327
3.60417747 7.62076044 1.33038390 0.87434989 0.94905311 0.61706454
3.44129491 7.67648220 1.76497090 0.83483559 0.95599240 0.81863660
3.64908218 7.62178564 0.81166327 0.88524348 0.94918078 0.37646925
3.56182003 7.72427082 1.10286140 0.86407423 0.96194381 0.51153404
3.78836417 7.51521444 1.04721451 0.91903234 0.93590891 0.48572367
3.54087925 7.73036957 0.51513898 0.85899413 0.96270329 0.23893404
3.55788112 7.64683962 1.33102298 0.86311865 0.95230091 0.61736095
3.38985658 7.69078684 1.76329768 0.82235700 0.95777386 0.81786054
3.62050223 7.68596268 0.81680435 0.87831014 0.95717311 0.37885380
3.53435707 7.79340839 1.11037564 0.85741186 0.97055387 0.51501936
3.74726248 7.55127192 1.04916883 0.90906137 0.94039935 0.48663014
3.51875448 7.68881273 1.33453774 0.85362679 0.95752800 0.61899120
3.90580320 7.86967325 1.76562834 0.94752228 0.98005152 0.81894153
3.59458399 7.75730085 0.82283956 0.87202257 0.96605718 0.38165310
3.71371818 7.60310555 1.05363572 0.90092373 0.94685447 0.48870197
3.50825524 7.79547882 1.34955561 0.85107976 0.97081172 0.62595683
3.81221199 7.80437613 1.74515736 0.92481768 0.97191972 0.80944663
3.56873155 7.83042574 0.82909828 0.86575091 0.97516382 0.38455603
3.51043797 8.00775433 1.13754225 0.85160929 0.99724746 0.52761990
3.67363381 7.64233494 1.05614841 0.89119953 0.95173991 0.48986742
3.78576303 7.47136211 1.24519825 0.91840130 0.93044776 0.57755339
3.75712967 7.81582737 1.74234760 0.91145504 0.97334582 0.80814338
3.57317400 7.93968487 0.84049803 0.86682862 0.98877043 0.38984352
3.44920993 7.96966648 1.12887204 0.83675575 0.99250418 0.52359843
3.63501787 7.65420103 1.05531085 0.88183153 0.95321763 0.48947895
3.76919460 7.52619743 1.25153887 0.91438192 0.93727666 0.58049428
3.65859485 7.70439053 1.71304607 0.88755119 0.95946801 0.79455262
3.69311643 7.62158632 0.75586599 0.89592588 0.94915599 0.35058910
3.40445971 8.00394154 1.13089502 0.82589966 0.99677265 0.52453673
3.58685374 7.67688942 1.05531085 0.87014723 0.95604312 0.48947895
3.74115849 7.58869743 1.25818133 0.90758055 0.94506013 0.58357525
3.56760311 7.63679552 1.69257510 0.86547714 0.95105004 0.78505766
3.65720081 7.66974545 0.75880688 0.88721299 0.95515347 0.35195318
3.33816624 7.98679161 1.12482595 0.80981725 0.99463689 0.52172178
3.55683756 7.73881912 1.06145287 0.86286551 0.96375555 0.49232778
3.69080186 7.60672379 1.25727558 0.89536434 0.94730502 0.58315516
3.51954961 7.65906048 1.69257510 0.85381967 0.95382279 0.78505766
3.62082553 7.71775341 0.76174778 0.87838858 0.96113217 0.35331723
3.53356433 7.81689692 1.07010746 0.85721958 0.97347903 0.49634197
3.75441551 7.50901508 0.99693334 0.91079664 0.93513685 0.46240205
3.64122248 7.62619925 1.25667179 0.88333672 0.94973046 0.58287507
3.46000004 7.65605402 1.68695557 0.83937335 0.95344841 0.78245121
3.60158348 7.80348778 0.76909995 0.87372059 0.97180909 0.35672733
3.54907489 7.98356724 1.09244215 0.86098236 0.99423534 0.50670135
3.71848249 7.55560112 1.00041986 0.90207952 0.94093847 0.46401918
3.60252833 7.66858912 1.25999296 0.87394977 0.95500946 0.58441550
3.41982770 7.69552803 1.69096947 0.82962781 0.95836431 0.78431296
3.59297538 7.91460991 0.77939302 0.87163228 0.98564774 0.36150151
3.48289680 7.96945238 1.08685851 0.84492797 0.99247754 0.50411153
3.67351508 7.58417273 1.00122440 0.89117074 0.94449663 0.46439233
3.55844283 7.70003653 1.26150262 0.86325496 0.95892578 0.58511573
3.45319057 8.00394249 1.08965027 0.83772141 0.99677277 0.50540644
3.66071820 7.64972496 1.00846565 0.88806629 0.95266020 0.46775100
3.53284597 7.74007559 1.26542783 0.85704529 0.96391207 0.58693635
3.61594152 7.67975521 1.00953841 0.87720376 0.95640004 0.46824858
3.70274234 7.70613813 0.72221714 0.89826107 0.95968562 0.33498195
3.57673264 7.72212744 1.01248848 0.86769193 0.96167690 0.46961689
3.82959795 7.79289198 1.66170359 0.92903537 0.97048956 0.77073872
3.63055515 7.67882204 0.71660745 0.88074893 0.95628381 0.33238003
3.53795099 7.76611471 1.01570678 0.85828376 0.96715486 0.47110963
3.72028351 7.47508478 0.93174392 0.90251642 0.93091136 0.43216559
3.78310990 7.82210732 1.66285372 0.91775769 0.97412789 0.77127218
3.59643006 7.73218918 0.72001332 0.87247038 0.96292990 0.33395976
3.56243062 7.95296001 1.04011238 0.86422235 0.99042368 0.48242953
3.69253802 7.53745794 0.93734044 0.89578557 0.93867904 0.43476140
3.32318878 7.68572569 2.13161612 0.80618387 0.95714355 0.98869562
3.66841698 7.70731974 1.63295066 0.88993394 0.95983279 0.75740242
3.51954222 7.99152756 1.04252613 0.85381788 0.99522668 0.48354909
3.64770365 7.56586456 0.93810362 0.88490903 0.94221663 0.43511537
3.25883913 7.66907024 2.12109685 0.79057306 0.95506936 0.98381650
3.91715837 7.88254213 2.15598822 0.95027697 0.98165417 1.00000000
3.60961938 7.67650604 1.62259960 0.87567002 0.95599538 0.75260133
3.49127650 8.02985668 1.04574442 0.84696084 1.00000000 0.48504180
3.62830114 7.61695862 0.94293696 0.88020211 0.94857967 0.43735719
3.19705486 7.62369442 2.10406542 0.77558458 0.94941849 0.97591692
3.86975169 7.87998533 2.15019226 0.93877643 0.98133576 0.99731171
3.51950526 7.60807514 1.60304749 0.85380894 0.94747335 0.74353260
3.57275558 7.62345743 0.94064748 0.86672711 0.94938898 0.43629527
3.15576863 7.65972757 2.10857391 0.76556879 0.95390588 0.97800809
3.21272421 7.91035366 1.26995671 0.77938586 0.98511767 0.58903694
3.47567606 7.63898182 1.60496438 0.84317625 0.95132232 0.74442166
3.66648579 7.65946674 0.65106893 0.88946545 0.95387340 0.30198166
3.56068540 7.72313452 0.95158607 0.86379898 0.96180230 0.44136885
3.43398929 7.67501831 1.60803139 0.83306330 0.95581013 0.74584424
3.60208392 7.64816093 0.64755112 0.87384200 0.95246542 0.30035004
3.53185487 7.78866768 0.95769137 0.85680485 0.96996349 0.44420066
3.54890919 7.65981340 0.64644021 0.86094213 0.95391655 0.29983476
3.53726506 7.93196630 0.97473526 0.85811734 0.98780918 0.45210603
3.50486231 7.69101095 0.64736599 0.85025668 0.95780176 0.30026415
4.12212276 7.94164085 2.09490418 1.00000000 0.98901403 0.97166771
3.75097466 7.64245176 1.55027866 0.90996188 0.95175445 0.71905714
4.04093885 7.87625313 2.07221580 0.98030531 0.98087096 0.96114433
3.68913102 7.63757372 1.54442382 0.89495903 0.95114696 0.71634150
3.98872757 7.89628315 2.07082653 0.96763921 0.98336542 0.96049994
3.61053085 7.59674454 1.53125036 0.87589115 0.94606227 0.71023130
3.30245996 7.64168406 2.03717160 0.80115515 0.95165884 0.94488996
3.55184507 7.59615135 1.52649331 0.86165434 0.94598842 0.70802486
3.26494193 7.68731785 2.04393339 0.79205352 0.95734185 0.94802624
3.49578762 7.60047483 1.52283394 0.84805518 0.94652683 0.70632756
3.20988894 7.69154406 2.03958654 0.77869803 0.95786816 0.94601005
3.46262908 7.65450001 1.52942073 0.84001112 0.95325488 0.70938271
3.19882131 7.80323505 2.06421924 0.77601314 0.97177762 0.95743531
3.08823347 7.63452339 2.01495385 0.74918520 0.95076710 0.93458480
3.45879292 7.76681566 1.98887062 0.83908051 0.96724212 0.92248678
3.36127925 7.67800617 1.96016288 0.81542432 0.95618224 0.90917140
3.35998940 7.77404642 1.98099923 0.81511146 0.96814263 0.91883582
