-7.55145216 -8.54885006 1.95366073 -0.95837176 -0.94906521 0.77934474
-7.48907137 -8.55909252 1.94782376 -0.95045483 -0.95020229 0.77701628
-7.45442677 -8.62837791 1.95297396 -0.94605803 -0.95789409 0.77907073
-7.49066448 -8.78163624 1.97735167 -0.95065707 -0.97490835 0.78879541
-7.69834232 -8.49808693 1.26059341 -0.97701389 -0.94342965 0.50286973
-7.63686991 -8.53739738 1.25913954 -0.96921229 -0.94779372 0.50228977
-7.48638296 -8.65297508 2.49772453 -0.95011365 -0.96062481 0.99637997
-7.58963537 -8.59266376 1.26035106 -0.96321768 -0.95392925 0.50277305
-7.45855808 -8.73097515 2.50679922 -0.94658238 -0.96928412 1.00000000
-7.55372810 -8.66115952 1.26374328 -0.95866060 -0.96153343 0.50412625
-7.39884663 -8.39597034 1.85754263 -0.93900424 -0.93209296 0.74100178
-7.52760077 -8.74159622 1.26907372 -0.95534474 -0.97046322 0.50625265
-7.47566605 -8.59082603 1.89087510 -0.94875354 -0.95372522 0.75429857
-7.54567575 -8.87506104 1.28288472 -0.95763862 -0.98528004 0.51176208
-7.51426506 -8.74515533 1.91487443 -0.95365226 -0.97085834 0.76387227
-7.69070148 -8.53911972 1.19893050 -0.97604418 -0.94798493 0.47827145
-7.49730587 -8.80895805 1.92120767 -0.95149994 -0.97794151 0.76639873
-7.80357552 -8.49860477 2.43340850 -0.99036926 -0.94348711 0.97072333
-7.63821983 -8.58875465 1.19916177 -0.96938360 -0.95349526 0.47836369
-7.59592581 -8.64999104 1.20124304 -0.96401602 -0.96029353 0.47919396
-7.57142067 -8.73201561 1.20656168 -0.96090597 -0.96939963 0.48131564
-7.58124208 -8.57520580 2.41374850 -0.96215248 -0.95199108 0.96288067
-7.56948662 -8.84119415 1.21604288 -0.96066052 -0.98152024 0.48509783
-7.54432297 -8.35183048 1.50429153 -0.95746696 -0.92719269 0.60008454
-7.53234768 -8.62857246 2.41542172 -0.95594716 -0.95791572 0.96354812
-7.65997362 -8.58841133 1.54128432 -0.97214442 -0.95345712 0.61484158
-7.49454975 -8.69501686 2.42085958 -0.95115012 -0.96529216 0.96571738
-7.60764790 -8.61104393 1.53868330 -0.96550369 -0.95596975 0.61380398
-7.60412216 -8.54817104 1.81766546 -0.96505624 -0.94898981 0.72509414
-7.56118298 -8.66763496 1.54041731 -0.95960671 -0.96225232 0.61449569
-7.51385498 -8.55418205 1.80871868 -0.95360023 -0.94965714 0.72152513
-7.64407301 -8.61973667 1.15700972 -0.97012645 -0.95693481 0.46154863
-7.50657368 -8.71497250 1.54041731 -0.95267612 -0.96750754 0.61449569
-7.45479584 -8.59524822 1.80744052 -0.94610488 -0.95421618 0.72101527
-7.87946033 -8.50670910 2.34122348 -1.00000000 -0.94438684 0.93394935
-7.59629631 -8.67508316 1.15812731 -0.96406299 -0.96307915 0.46199444
-7.56425810 -8.89482784 1.56584990 -0.95999700 -0.98747450 0.62464112
-7.64232254 -8.35537624 1.45705485 -0.96990430 -0.92758638 0.58124113
-7.40064335 -8.64191818 1.80744052 -0.93923229 -0.95939732 0.72101527
-7.78080893 -8.50697231 2.32757616 -0.98747993 -0.94441605 0.92850524
-7.56239510 -8.74673271 1.16170371 -0.95976055 -0.97103345 0.46342114
-7.54758930 -8.98923206 1.57480907 -0.95788151 -0.99795496 0.62821507
-7.56041288 -8.37094879 1.45091283 -0.95950896 -0.92931515 0.57879102
-7.44796276 -8.80903912 1.83300292 -0.94523770 -0.97795051 0.73121250
-7.73378420 -8.56295013 2.32958317 -0.98151189 -0.95063055 0.92930585
-7.66352272 -8.59241199 1.48385644 -0.97259486 -0.95390129 0.59193271
-7.48084450 -8.96191216 1.85536993 -0.94941080 -0.99492198 0.74013501
-7.59535646 -8.59731197 1.47799361 -0.96394372 -0.95444524 0.58959395
-7.63916397 -8.64746857 2.32958317 -0.96950346 -0.96001351 0.92930585
-7.54118824 -8.64486408 1.47799361 -0.95706916 -0.95972437 0.58959395
-7.56145000 -8.66875935 2.32235813 -0.95964062 -0.96237713 0.92642367
-7.50873947 -8.71754646 1.48273969 -0.95295095 -0.96779329 0.59148723
-7.67900562 -8.54662609 1.72074223 -0.97455984 -0.94881827 0.68643004
-7.54783392 -8.76353264 2.33520269 -0.95791256 -0.97289854 0.93154758
-7.58403730 -8.66641617 1.07768202 -0.96250719 -0.96211696 0.42990360
-7.60295582 -8.93929005 1.51512492 -0.96490818 -0.99241054 0.60440618
-7.53480005 -8.20832157 1.36864841 -0.95625842 -0.91126084 0.54597449
-7.57256603 -8.53564072 1.70866501 -0.96105134 -0.94759870 0.68161225
-7.50467730 -8.68534660 1.07369077 -0.95243543 -0.96421856 0.42831144
-7.55940056 -9.00202751 1.51791680 -0.95938051 -0.99937546 0.60551989
-7.50566006 -8.28050709 1.37320769 -0.95256019 -0.91927463 0.54779327
-7.51095343 -8.57414341 1.70685339 -0.95323199 -0.95187318 0.68088955
-7.65266943 -8.55086136 1.41370475 -0.97121745 -0.94928849 0.56394815
-7.46730089 -8.63311005 1.70926881 -0.94769192 -0.95841944 0.68185312
-7.63721991 -8.61505127 1.41880047 -0.96925670 -0.95641464 0.56598091
-7.42653561 -8.66820335 1.70926881 -0.94251829 -0.96231538 0.68185312
-7.57772827 -8.65689278 1.41772771 -0.96170652 -0.96105975 0.56555295
-7.50883818 -8.87596130 1.74157560 -0.95296353 -0.98537999 0.69474077
-7.67113924 -8.36601543 2.18270779 -0.97356153 -0.92876750 0.87071502
-7.53353310 -8.71634769 1.41987324 -0.95609760 -0.96766019 0.56640881
-7.47705221 -8.95175362 1.74731231 -0.94892949 -0.99379420 0.69702923
-7.67233276 -8.47380447 2.19842601 -0.97371298 -0.94073385 0.87698525
-7.63332462 -8.69238758 1.02614129 -0.96876234 -0.96500027 0.40934324
-7.52098703 -8.81333542 1.42872357 -0.95450532 -0.97842747 0.56993937
-7.62416220 -8.52770615 2.19995952 -0.96759951 -0.94671786 0.87759703
-7.52001333 -8.67241859 1.01712573 -0.95438176 -0.96278334 0.40574679
-7.58907795 -9.00765324 1.45473826 -0.96314692 -1.00000000 0.58031702
-7.67568254 -8.47793770 1.32756937 -0.97413808 -0.94119275 0.52958745
-7.56005907 -8.56365108 2.19689250 -0.95946407 -0.95070833 0.87637353
-7.49249649 -8.75128841 1.02133298 -0.95088953 -0.97153920 0.40742514
-7.62358761 -8.52747440 1.32782376 -0.96752661 -0.94669211 0.52968889
-7.58538437 -8.67465878 2.21644449 -0.96267813 -0.96303207 0.88417310
-7.58200026 -8.56182194 1.32756937 -0.96224868 -0.95050526 0.52958745
-7.51792860 -8.70726681 2.21261096 -0.95411718 -0.96665210 0.88264388
-7.54899120 -8.63314819 1.33163953 -0.95805943 -0.95842367 0.53121108
-7.51018763 -8.69840050 1.33469224 -0.95313478 -0.96566778 0.53242886
-7.60532141 -8.66428089 0.93342024 -0.96520841 -0.96187991 0.37235540
-7.50181293 -8.79968166 1.34385014 -0.95207191 -0.97691166 0.53608209
-7.51805925 -8.67433167 0.92879152 -0.95413375 -0.96299571 0.37050894
-7.47249079 -8.73197269 0.93008757 -0.94835061 -0.96939486 0.37102595
-7.50915909 -8.38806152 2.06111622 -0.95300424 -0.93121499 0.82221031
-7.51894283 -8.50567722 2.07868075 -0.95424592 -0.94427228 0.82921708
-7.46664762 -8.55423069 2.07904673 -0.94760901 -0.94966251 0.82936311
-7.49250412 -8.69317627 2.10173416 -0.95089054 -0.96508783 0.83841342
-7.46072102 -8.76699448 2.10832095 -0.94685686 -0.97328287 0.84104103
