-7.24853277 12.86419773 1.15438342 -0.95636141 0.99885589 0.61220992
-7.19637918 12.58681488 1.13100922 -0.94948035 0.97731817 0.59981382
-7.25126982 12.50002289 1.12682271 -0.95672256 0.97057909 0.59759355
-7.20998907 12.65056419 0.63783330 -0.95127600 0.98226804 0.33826533
-7.28610849 12.38044262 1.11932206 -0.96131909 0.96129411 0.59361565
-7.17807817 12.50948238 1.62137353 -0.94706577 0.97131360 0.85987115
-7.23853874 12.56284618 0.63453430 -0.95504284 0.97545707 0.33651575
-7.36274767 12.37676525 1.12246192 -0.97143078 0.96100861 0.59528083
-7.23450708 12.42642117 1.61604297 -0.95451093 0.96486419 0.85704416
-7.29005098 12.47060299 0.63166106 -0.96183926 0.96829474 0.33499196
-7.46306658 12.36775684 1.12629950 -0.98466671 0.96030915 0.59731609
-7.44096899 12.59762955 1.64681470 -0.98175120 0.97815788 0.87336349
-7.36724043 12.42283630 0.63155460 -0.97202355 0.96458584 0.33493552
-7.17269564 12.73735237 1.06685948 -0.94635558 0.98900682 0.56579292
-7.45134115 12.38656139 0.63219315 -0.98311967 0.96176922 0.33527416
-7.19339371 12.58811378 1.05699956 -0.94908643 0.97741902 0.56056386
-7.43230486 12.23022079 1.60780489 -0.98060805 0.94962996 0.85267520
-7.23344707 12.47536373 1.05059063 -0.95437104 0.96866441 0.55716503
-7.28850031 12.39012146 1.04681110 -0.96163470 0.96204567 0.55516058
-7.23658705 12.54856110 1.54742098 -0.95478535 0.97434789 0.82065153
-7.22904062 12.56921482 0.55319995 -0.95378965 0.97595155 0.29338130
-7.35391998 12.36764050 1.04796135 -0.97026604 0.96030009 0.55577058
-7.27025127 12.42562199 1.53701484 -0.95922697 0.96480215 0.81513280
-7.28979254 12.49246216 0.55148578 -0.96180516 0.96999204 0.29247221
-7.47667265 12.39635468 1.05519199 -0.98646188 0.96252966 0.55960524
-7.47462797 12.59341431 1.56592083 -0.98619211 0.97783059 0.83046263
-7.38946104 12.48254395 0.55348563 -0.97495532 0.96922189 0.29353282
-7.14531326 12.70314312 0.98174959 -0.94274276 0.98635060 0.52065617
-7.22994280 12.66664982 0.98251575 -0.95390868 0.98351705 0.52106249
-7.24927902 12.51751995 0.97332150 -0.95645988 0.97193766 0.51618648
-7.29841995 12.42190552 0.96887755 -0.96294349 0.96451354 0.51382971
-7.36095810 12.39422703 0.96949053 -0.97119468 0.96236444 0.51415479
-7.22067738 12.45969009 1.48089767 -0.95268625 0.96744740 0.78537190
-7.39908171 12.69634819 0.49423179 -0.97622466 0.98582298 0.26210842
-7.43765593 12.34602642 0.96933728 -0.98131406 0.95862186 0.51407349
-7.31800556 12.44660091 1.48514473 -0.96552759 0.96643108 0.78762424
-7.42060900 12.55164719 0.48933184 -0.97906494 0.97458750 0.25950980
-7.54217672 12.34325409 0.97332150 -0.99510443 0.95840657 0.51618648
-7.18031979 12.78890324 0.89775664 -0.94736153 0.99300951 0.47611177
-7.24772501 12.72098351 0.89592475 -0.95625484 0.98773581 0.47514027
-7.43774128 12.29419327 1.47732127 -0.98132533 0.95459718 0.78347522
-7.15780354 12.45266342 1.88560057 -0.94439071 0.96690178 1.00000000
-7.23786211 12.51962280 0.88324249 -0.95495355 0.97210091 0.46841443
-7.30530548 12.45495415 0.88169247 -0.96385193 0.96707964 0.46759239
-7.35782671 12.41008568 0.88084698 -0.97078151 0.96359581 0.46714398
-7.36872339 12.65691948 0.39816847 -0.97221923 0.98276150 0.21116269
-7.42334604 12.34307671 0.87915599 -0.97942603 0.95839280 0.46624720
-7.30563736 12.43712330 1.38479352 -0.96389574 0.96569514 0.73440450
-7.39942932 12.52769947 0.39465672 -0.97627050 0.97272807 0.20930028
-7.52977610 12.34392071 0.88310158 -0.99346828 0.95845836 0.46833968
-7.38160610 12.38755512 1.38437343 -0.97391891 0.96184641 0.73418170
-7.03940296 12.45586205 1.79695213 -0.92876911 0.96715015 0.95298666
-7.19883680 12.67010975 0.81319189 -0.94980460 0.98378569 0.43126413
-7.09083891 12.36500359 1.78971100 -0.93555552 0.96009535 0.94914639
-7.18337822 12.46050549 0.80081445 -0.94776505 0.96751070 0.42469993
-7.28475857 12.45471573 0.80381107 -0.96114099 0.96706116 0.42628914
-7.37845945 12.54403400 1.83020806 -0.97350377 0.97399640 0.97062343
-7.34540510 12.42368126 0.80407166 -0.96914262 0.96465147 0.42642736
-7.32519579 12.68107319 1.33587539 -0.96647626 0.98463696 0.70846146
-7.57928181 12.70149231 1.86239123 -1.00000000 0.98622239 0.98769128
-7.41303062 12.36018372 0.80276877 -0.97806507 0.95972109 0.42573640
-7.32404423 12.49756336 1.31984782 -0.96632433 0.97038811 0.69996148
-7.42567825 12.62053299 0.32727468 -0.97973377 0.97993624 0.17356522
-7.38101864 12.41540909 1.31564057 -0.97384143 0.96400917 0.69773024
-7.19048405 12.66052628 0.72935063 -0.94870257 0.98304158 0.38680017
-7.09344053 12.37431717 1.69007015 -0.93589878 0.96081853 0.89630336
-7.16945219 12.44024849 0.71733737 -0.94592762 0.96593785 0.38042912
-7.21605873 12.87893295 1.23410118 -0.95207685 1.00000000 0.65448707
-7.19433928 12.41461754 1.70100880 -0.94921124 0.96394765 0.90210450
-7.26308584 12.46675205 0.72150040 -0.95828152 0.96799570 0.38263693
-7.16231394 12.59598637 1.20873582 -0.94498581 0.97803026 0.64103490
-7.39757395 12.58310890 1.73280716 -0.97602570 0.97703040 0.91896832
-7.34228659 12.42259121 0.72161931 -0.96873116 0.96456683 0.38270000
-7.23237991 12.53520012 1.20706952 -0.95423025 0.97331047 0.64015120
-7.51805210 12.60629368 1.74323690 -0.99192142 0.97883058 0.92449957
-7.40995264 12.35907555 0.72042990 -0.97765893 0.95963508 0.38206920
-7.23673010 12.36222839 1.19336855 -0.95480418 0.95987988 0.63288510
-7.34266424 12.36449814 1.19855273 -0.96878099 0.96005613 0.63563448
-7.46326351 12.38982487 1.20632899 -0.98469269 0.96202260 0.63975853
