-4.41050386 8.07277679 2.05455756 -0.92914534 1.00000000 0.95146191
-4.32249689 7.79618645 1.98989570 -0.91060525 0.96573788 0.92151713
-4.34450817 7.72134209 1.97749484 -0.91524225 0.95646667 0.91577429
-4.44925117 7.79199886 2.00318241 -0.93730813 0.96521914 0.92767018
-4.47260141 7.72007036 1.99166727 -0.94222724 0.95630914 0.92233753
-4.23968649 7.62551498 1.48636556 -0.89315987 0.94459629 0.68833321
-4.52101946 7.69181633 1.99166727 -0.95242727 0.95280921 0.92233753
-4.35946035 7.72554207 1.51177323 -0.91839218 0.95698696 0.70009947
-4.38993597 7.69465780 1.50971317 -0.92481238 0.95316124 0.69914544
-4.48873758 7.75377321 1.52722383 -0.94562656 0.96048403 0.70725459
-4.56140804 7.76613712 1.53546417 -0.96093583 0.96201557 0.71107072
-4.33861017 7.79717302 1.94026923 -0.91399974 0.96586013 0.89853519
-4.41503525 7.85165739 0.65026814 -0.93009996 0.97260922 0.30113801
-4.39420938 7.78167677 1.94329417 -0.92571265 0.96394056 0.89993602
-4.26182270 7.77886772 0.94366896 -0.89782321 0.96359259 0.43701139
-4.43517971 7.80135822 0.64730275 -0.93434370 0.96637851 0.29976472
-4.43565273 7.76937342 1.94545484 -0.93444335 0.96241647 0.90093660
-4.26605034 7.67222595 0.93252331 -0.89871383 0.95038253 0.43184987
-4.48710775 7.77850819 0.64782608 -0.94528323 0.96354800 0.30000708
-4.30493546 7.81813002 1.47455299 -0.90690565 0.96845609 0.68286282
-4.46585655 7.70920324 1.93724430 -0.94080633 0.95496303 0.89713436
-4.32494783 7.66426420 0.93518859 -0.91112155 0.94939625 0.43308416
-4.34055948 7.76679659 1.46988642 -0.91441041 0.96209729 0.68070173
-4.52701902 7.70290661 1.94286203 -0.95369118 0.95418304 0.89973593
-4.41560936 7.71092129 0.94560736 -0.93022090 0.95517582 0.43790907
-4.39121151 7.74280596 1.47055304 -0.92508107 0.95912546 0.68101048
-4.48900270 7.72588205 0.95166475 -0.94568241 0.95702904 0.44071424
-4.46034765 7.75100327 1.47755289 -0.93964577 0.96014088 0.68425208
-4.54858923 7.71631193 0.95433003 -0.95823532 0.95584357 0.44194850
-4.23760796 7.74882603 0.88928968 -0.89272195 0.95987123 0.41182846
-4.40683699 7.80968666 0.60098165 -0.92837286 0.96741021 0.27831352
-4.52678776 7.75352001 1.48355269 -0.95364249 0.96045268 0.68703055
-4.61040258 7.73737097 0.96038747 -0.97125733 0.95845222 0.44475371
-4.25109959 7.68699455 0.88373971 -0.89556420 0.95221198 0.40925828
-4.44457388 7.79056692 0.60114598 -0.93632275 0.96504176 0.27838963
-4.66201878 7.71334028 0.96111435 -0.98213112 0.95547551 0.44509032
-4.31383848 7.68615198 0.88720846 -0.90878117 0.95210761 0.41086465
-4.52228069 7.81257963 0.60591155 -0.95269299 0.96776855 0.28059655
-4.74683952 7.74305344 0.96959472 -1.00000000 0.95915616 0.44901755
-4.38358831 7.69692278 0.89229590 -0.92347515 0.95344180 0.41322061
-4.35778618 7.84472036 1.88502192 -0.91803950 0.97174996 0.87295026
-4.45562315 7.71056414 0.89784580 -0.93865049 0.95513159 0.41579077
-4.38288164 7.77464724 1.87456453 -0.92332625 0.96306974 0.86810744
-4.51699257 7.70472527 0.90085208 -0.95157897 0.95440829 0.41718298
-4.42189455 7.73000145 1.87038159 -0.93154496 0.95753938 0.86617035
-4.58048677 7.70183849 0.90432078 -0.96495503 0.95405072 0.41878933
-4.22708654 7.57673740 1.12771595 -0.89050549 0.93855405 0.52224320
-4.28134346 7.73489046 1.39684594 -0.90193558 0.95814496 0.64687681
-4.46150541 7.68686199 1.86661696 -0.93988967 0.95219553 0.86442697
-4.63508320 7.71085739 0.90848321 -0.97645670 0.95516789 0.42071694
-4.23283386 7.76279068 0.85569775 -0.89171624 0.96160108 0.39627209
-4.27348375 7.57566881 1.13089502 -0.90027982 0.93842167 0.52371544
-4.44698429 7.83522034 0.55406147 -0.93683058 0.97057313 0.25658488
-4.30419064 7.69054079 1.39237249 -0.90674871 0.95265126 0.64480519
-4.52649307 7.71460533 1.87874758 -0.95358038 0.95563221 0.87004465
-4.27572632 7.72562218 0.85435659 -0.90075225 0.95699686 0.39565098
-4.38812542 7.66530371 1.15054750 -0.92443097 0.94952506 0.53281647
-4.34655237 7.65305853 1.39045537 -0.91567290 0.94800818 0.64391738
-4.33786535 7.72283268 0.85748595 -0.91384286 0.95665133 0.39710021
-4.47012997 7.69568682 1.16037369 -0.94170660 0.95328867 0.53736699
-4.40642881 7.64609671 1.39428973 -0.92828685 0.94714582 0.64569306
-4.40804243 7.73336172 0.86240351 -0.92862684 0.95795560 0.39937752
-4.55067110 7.72193432 1.16962194 -0.95867389 0.95654005 0.54164982
-4.47939491 7.66081095 1.40227795 -0.94365841 0.94896853 0.64939237
-4.47053099 7.72956753 0.86553288 -0.94179106 0.95748562 0.40082672
-4.62764025 7.74068594 1.17771411 -0.97488868 0.95886290 0.54539728
-4.30782270 7.81657505 1.11896455 -0.90751386 0.96826351 0.51819044
-4.54766321 7.66643000 1.40866852 -0.95804024 0.94966453 0.65235186
-4.53314495 7.72529173 0.86866224 -0.95498174 0.95695597 0.40227592
-4.63910627 7.65062189 1.16730988 -0.97730422 0.94770634 0.54057908
-4.22494364 7.55225945 1.08071649 -0.89005405 0.93552190 0.50047785
-4.58374834 7.72774315 0.87179160 -0.96564215 0.95725960 0.40372512
-4.25079250 7.77034807 0.79682821 -0.89549953 0.96253723 0.36900970
-4.70105505 7.67080069 1.17453504 -0.99035472 0.95020598 0.54392505
-4.28767300 7.58059597 1.08853352 -0.90326899 0.93903202 0.50409794
-4.37832212 7.74096060 1.78770483 -0.92236573 0.95889688 0.82788289
-4.65278244 7.73280334 0.87626207 -0.98018533 0.95788646 0.40579540
-4.30049229 7.74522734 0.79703826 -0.90596962 0.95942545 0.36910698
-4.40492535 7.67562103 1.10835552 -0.92797017 0.95080310 0.51327747
-4.34541512 7.95420551 1.35027087 -0.91543335 0.98531222 0.62530798
-4.41813040 7.69798422 1.78409231 -0.93075198 0.95357329 0.82620996
-4.36560297 7.74754906 0.80060935 -0.91968626 0.95971304 0.37076074
-4.49971676 7.72833729 1.12147713 -0.94793952 0.95733321 0.51935405
-4.27976847 7.71726990 1.31373703 -0.90160376 0.95596224 0.60838926
-4.42206240 7.73379707 0.80228984 -0.93158036 0.95800954 0.37153897
-4.55119610 7.70503473 1.12231469 -0.95878446 0.95444667 0.51974189
-4.30209780 7.64364767 1.30558479 -0.90630782 0.94684243 0.60461396
-4.48150349 7.72480917 0.80460054 -0.94410259 0.95689619 0.37260905
-4.37835884 7.66631889 1.31434083 -0.92237347 0.94965076 0.60866886
-4.55206013 7.73425913 0.80922192 -0.95896649 0.95806676 0.37474921
-4.60974455 7.58453178 1.11198497 -0.97111869 0.93951958 0.51495826
-4.23287487 7.61729956 1.04011238 -0.89172488 0.94357860 0.48167416
-4.44914961 7.67805433 1.32128537 -0.93728673 0.95110452 0.61188489
-4.61580801 7.75893593 0.81489360 -0.97239608 0.96112353 0.37737575
-4.70119905 7.65397739 1.12706077 -0.99038506 0.94812202 0.52193981
-4.25507545 7.57310963 1.03635764 -0.89640176 0.93810469 0.47993535
-4.51215744 7.70312548 1.32943749 -0.95056033 0.95421016 0.61566013
-4.39917278 7.71472979 1.06264055 -0.92675829 0.95564759 0.49210691
-4.58964491 7.72397900 1.33819354 -0.96688437 0.95679331 0.61971503
-4.37478924 7.81423092 0.76308763 -0.92162150 0.96797311 0.35338449
-4.45353794 7.69721651 1.06424975 -0.93821120 0.95347816 0.49285215
-4.62283373 7.66955566 1.33366454 -0.97387612 0.95005172 0.61761767
-4.42281389 7.78486109 0.76288724 -0.93173867 0.96433496 0.35329172
-4.53102207 7.71858263 1.07202733 -0.95453447 0.95612484 0.49645391
-4.32880497 7.77962828 1.70464146 -0.91193414 0.96368676 0.78941637
-4.48959923 7.78790951 0.76649350 -0.94580811 0.96471262 0.35496175
-4.61709356 7.75288200 1.08195043 -0.97266686 0.96037364 0.50104928
-4.23098040 7.69804239 0.98745459 -0.89132577 0.95358050 0.45728844
-4.36790943 7.73520565 1.70080769 -0.92017215 0.95818400 0.78764099
-4.55760574 7.79214001 0.77030003 -0.96013480 0.96523666 0.35672456
-4.64205694 7.68475389 1.07578194 -0.97792584 0.95193440 0.49819267
-4.23114538 7.58457279 0.97473526 -0.89136052 0.93952465 0.45139813
-4.40919781 7.72304916 1.70272458 -0.92887020 0.95667815 0.78852868
-4.59834099 7.77741909 0.77110142 -0.96871632 0.96341312 0.35709569
-4.61706114 7.56312752 1.05995858 -0.97266006 0.93686813 0.49086490
-4.28819180 7.60261250 0.98033178 -0.90337831 0.94175929 0.45398989
-4.22187996 7.69706917 2.15019226 -0.88940859 0.95345992 0.99575019
-4.47245264 7.72063684 1.70847511 -0.94219589 0.95637935 0.79119176
-4.36519766 7.89055061 0.69994813 -0.91960084 0.97742707 0.32414472
-4.39377832 7.67723417 0.99534059 -0.92562187 0.95100290 0.46094042
-4.28816986 7.70256805 2.15936923 -0.90337366 0.95414108 1.00000000
-4.39818192 7.83341122 0.69680059 -0.92654955 0.97034901 0.32268709
-4.46574211 7.69070292 1.00144589 -0.94078219 0.95267129 0.46376780
-4.43553066 7.78483200 0.69457883 -0.93441767 0.96433139 0.32165819
-4.53503847 7.69843388 1.00678802 -0.95538062 0.95362896 0.46624172
-4.60055256 7.69877577 1.01111257 -0.96918225 0.95367134 0.46824440
-4.63244343 7.64253759 1.00704229 -0.97590059 0.94670492 0.46635947
-4.23240852 7.71357584 1.60333848 -0.89162666 0.95550466 0.74250317
-4.67769814 7.63586807 1.00933182 -0.98543423 0.94587874 0.46741974
-4.33414030 7.78315258 1.62383044 -0.91305810 0.96412337 0.75199294
-4.38873816 7.76605082 1.62602603 -0.92456007 0.96200490 0.75300974
-4.32931328 7.98810339 2.12777901 -0.91204119 0.98951125 0.98537064
-4.44718933 7.75540161 1.62968540 -0.93687373 0.96068573 0.75470436
-4.22437429 7.67741108 2.05091643 -0.88993406 0.95102483 0.94977570
-4.33865881 7.76978159 2.08332849 -0.91400999 0.96246701 0.96478570
-4.43133879 7.82033587 2.10462761 -0.93353456 0.96872938 0.97464925
-4.48548222 7.82979441 2.11296225 -0.94494075 0.96990103 0.97850901
-4.49757910 7.73745203 2.09536719 -0.94748920 0.95846230 0.97036076
-4.55299759 7.72078753 2.09860826 -0.95916402 0.95639801 0.97186172
