8.72977448 5.84176826 1.79640782 0.97264642 0.94729739 0.76840687
8.86027622 5.99018526 1.82971251 0.98718655 0.97136462 0.78265285
8.86791325 6.07700968 1.83932614 0.98803741 0.98544401 0.78676504
8.96866989 5.89982653 0.80150270 0.99926347 0.95671207 0.34283987
8.72964478 5.70092964 1.13362980 0.97263193 0.92445910 0.48490602
8.70599270 5.74419689 1.13411438 0.96999669 0.93147528 0.48511329
8.84520245 6.05559063 2.33783412 0.98550707 0.98197067 1.00000000
8.69115353 5.81317472 1.13726425 0.96834338 0.94266069 0.48646063
8.70727062 5.76621723 1.73121274 0.97013909 0.93504608 0.74051994
8.74754047 6.06996965 2.32184505 0.97462583 0.98430240 0.99316072
8.69220066 5.89336491 1.14283705 0.96846002 0.95566428 0.48884436
8.75612068 5.87780142 1.74854565 0.97558182 0.95314050 0.74793398
8.69748402 5.97718000 1.14913678 0.96904868 0.96925569 0.49153906
8.77125740 5.96810102 1.75921202 0.97726828 0.96778345 0.75249648
8.76588058 5.68678188 1.07752538 0.97666925 0.92216492 0.46090755
8.69673824 5.71997881 1.07290041 0.96896559 0.92754811 0.45892924
8.74092770 5.80803537 1.08284414 0.97388905 0.94182730 0.46318263
8.74055862 5.88718700 1.08793151 0.97384793 0.95466244 0.46535873
8.72475243 5.95650911 1.09093773 0.97208685 0.96590370 0.46664461
8.73647499 5.92141294 2.22300553 0.97339296 0.96021253 0.95088249
8.67198849 5.74049759 1.37944067 0.96620804 0.93087542 0.59005070
8.84856415 5.75424051 1.04837644 0.98588163 0.93310392 0.44843918
8.67677784 5.82251978 1.38666582 0.96674168 0.94417608 0.59314126
8.68090153 5.78523302 1.65438628 0.96720111 0.93812966 0.70765769
8.61489296 5.99822950 2.21087480 0.95984662 0.97266906 0.94569361
8.78153610 5.76960516 1.04301190 0.97841352 0.93559545 0.44614452
8.67378235 5.88004780 1.39100099 0.96640790 0.95350480 0.59499556
8.73859215 5.88357830 1.67100167 0.97362882 0.95407730 0.71476483
8.79301929 5.85671043 1.04949415 0.97969294 0.94972038 0.44891730
8.68390465 5.96702385 1.39938211 0.96753573 0.96760875 0.59858060
8.70959568 5.94394827 1.67259932 0.97039813 0.96386683 0.71544826
8.79388332 5.93749428 1.05463517 0.97978920 0.96282023 0.45111632
8.73219681 6.08157682 1.41469944 0.97291631 0.98618460 0.60513252
8.79207134 6.08189821 1.69624448 0.97958732 0.98623669 0.72556239
8.79243946 6.01739407 1.05955279 0.97962832 0.97577673 0.45321983
8.74933529 5.71768999 1.33421445 0.97482580 0.92717695 0.57070535
8.78274441 6.15747595 1.70199609 0.97854817 0.99849236 0.72802263
8.70827866 5.76927853 1.33337688 0.97025138 0.93554252 0.57034707
8.88877392 5.78835058 0.98168331 0.99036163 0.93863523 0.41991144
8.70971966 5.84920168 1.33979809 0.97041196 0.94850278 0.57309371
8.72490406 5.86286497 2.11925411 0.97210377 0.95071840 0.90650320
8.86805344 5.83453369 0.98252356 0.98805302 0.94612426 0.42027086
8.70175171 5.90348387 1.34314835 0.96952420 0.95730513 0.57452679
8.76860046 5.95219612 2.13691521 0.97697228 0.96520430 0.91405767
8.86269760 5.91104603 0.98651481 0.98745632 0.95853144 0.42197812
8.72821426 6.00168133 1.35403645 0.97247255 0.97322881 0.57918411
8.71467972 5.73043251 1.55890632 0.97096455 0.92924327 0.66681647
8.66961002 5.96508884 2.12166238 0.96594304 0.96729499 0.90753335
8.75052929 6.09818411 1.36436617 0.97495884 0.98887759 0.58360267
8.66697216 5.77742100 1.55679286 0.96564913 0.93686289 0.66591245
8.67380142 6.04850149 2.13209867 0.96641004 0.98082113 0.91199744
8.65346527 5.84721518 1.56101990 0.96414423 0.94818068 0.66772056
8.73534679 5.76177120 1.27692652 0.97326726 0.93432510 0.54620063
8.65085602 5.92486477 1.56736040 0.96385354 0.96077228 0.67043269
8.97528076 5.81924343 0.93838996 1.00000000 0.94364476 0.40139288
8.72529888 5.83422041 1.28121758 0.97214776 0.94607341 0.54803616
8.81837368 6.12075806 1.60540402 0.98251784 0.99253821 0.68670571
8.91118336 5.83741474 0.93398231 0.99285847 0.94659144 0.39950752
8.74199390 5.90531206 1.28845882 0.97400784 0.95760161 0.55113357
8.79591656 6.16677332 1.60661173 0.98001575 1.00000000 0.68722230
8.74228096 5.98594856 1.29462719 0.97403985 0.97067755 0.55377203
8.78254986 6.09514856 1.30750048 0.97852647 0.98838538 0.55927855
8.71972752 5.68419409 1.19579720 0.97152698 0.92174524 0.51149786
8.71349812 5.83178473 2.01364017 0.97083294 0.94567847 0.86132723
8.71532631 5.75958872 1.20063055 0.97103661 0.93397123 0.51356530
8.79186344 5.96488380 2.04085970 0.97956419 0.96726173 0.87297028
8.93017292 5.79653978 0.85139948 0.99497420 0.93996316 0.36418301
8.68556690 5.81863832 1.20164800 0.96772093 0.94354665 0.51400054
8.73616791 5.98733091 2.03434229 0.97335875 0.97090173 0.87018245
8.90776062 5.84182405 0.85195494 0.99247712 0.94730645 0.36442062
8.70740223 5.89276314 1.20927966 0.97015375 0.95556670 0.51726496
8.70788002 5.97309303 1.21513057 0.97020698 0.96859294 0.51976764
8.75988293 6.08979607 1.22912180 0.97600096 0.98751742 0.52575237
8.75567055 5.77631140 1.91803765 0.97553164 0.93668294 0.82043362
8.80757618 5.89006472 1.93779790 0.98131484 0.95512909 0.82888597
8.82091427 5.97939253 1.94914174 0.98280090 0.96961445 0.83373827
