2.69941521 5.83763981 2.14330745 0.95727992 0.95067143 0.92467910
2.62452340 5.76987314 2.11186457 0.93072140 0.93963552 0.91111380
2.59973717 5.81222439 2.12149000 0.92193162 0.94653249 0.91526645
2.55559659 5.81107950 2.11507297 0.90627825 0.94634604 0.91249800
2.46765208 5.57640314 1.35036266 0.87509096 0.90812856 0.58258188
2.51455784 5.81657553 2.11122298 0.89172488 0.94724107 0.91083699
2.43179393 5.59000683 1.34991980 0.86237472 0.91034395 0.58239084
2.27112246 5.47603559 1.31183124 0.80539662 0.89178348 0.56595844
2.48607492 5.73409319 1.74054933 0.88162416 0.93380868 0.75091869
2.20602632 5.41423082 1.29322994 0.78231192 0.88171846 0.55793333
2.44326210 5.73364925 1.73563063 0.86644167 0.93373638 0.74879664
2.21505976 5.53678131 1.31980324 0.78551543 0.90167606 0.56939775
2.39686680 5.72400951 1.72797930 0.84998870 0.93216652 0.74549562
2.71318793 6.00616693 2.15150881 0.96216410 0.97811645 0.92821735
2.18658924 5.56694937 1.32378936 0.77541906 0.90658897 0.57111746
2.37423968 5.74592352 1.73125839 0.84196460 0.93573529 0.74691033
2.50576615 5.62071419 2.00664091 0.88860714 0.91534466 0.86571759
2.32203889 5.59432220 1.02147388 0.82345289 0.91104668 0.44069064
2.14776254 5.54441214 1.31581724 0.76165015 0.90291876 0.56767809
2.33306670 5.74823284 1.72743273 0.82736361 0.93611133 0.74525982
2.53566003 5.78391075 2.06017900 0.89920825 0.94192159 0.88881528
2.26544809 5.55581951 1.01151681 0.80338436 0.90477645 0.43639490
2.14173031 5.63446474 1.33441865 0.75951093 0.91758400 0.57570326
2.30114222 5.77351522 1.73071182 0.81604242 0.94022864 0.74667454
2.49851203 5.79798794 2.05954933 0.88603467 0.94421405 0.88854367
2.24719954 5.61207008 1.01941371 0.79691297 0.91393697 0.43980184
2.12452006 5.69721222 1.34637666 0.75340778 0.92780256 0.58086222
2.20474625 5.60771751 1.01598024 0.78185797 0.91322815 0.43832055
2.10195827 5.74712610 1.35523450 0.74540681 0.93593109 0.58468372
2.17017198 5.62330008 1.01632369 0.76959705 0.91576576 0.43846872
2.09124613 5.83190298 1.37250721 0.74160802 0.94973719 0.59213567
2.13894677 5.64789438 1.01838374 0.75852382 0.91977102 0.43935749
2.07186198 5.89466381 1.38446522 0.73473388 0.95995790 0.59729463
2.28564262 5.57050610 1.29811537 0.81054586 0.90716821 0.56004107
2.42956305 5.64488220 1.66201890 0.86158365 0.91928047 0.71703857
2.12255168 5.68563366 1.02353394 0.75270975 0.92591697 0.44157940
2.06997490 5.98001051 1.40262365 0.73406470 0.97385681 0.60512865
2.24311209 5.54144812 1.28860843 0.79546344 0.90243602 0.55593950
2.12260985 5.82513380 1.72633970 0.75273037 0.94863480 0.74478829
2.43567634 5.75755501 1.69129503 0.86375153 0.93762946 0.72966909
2.10692453 5.75443077 1.03383434 0.74716794 0.93712068 0.44602329
2.21261501 5.56630564 1.29120123 0.78464842 0.90648413 0.55705810
2.08917451 5.84742451 1.72907233 0.74087334 0.95226490 0.74596721
2.38006377 5.72652245 1.67745543 0.84402996 0.93257576 0.72369832
2.09711218 5.84181976 1.04756820 0.74368829 0.95135218 0.45194843
2.37186694 5.70666265 1.01056540 0.84112316 0.92934155 0.43598443
2.17974567 5.58554792 1.29249763 0.77299213 0.90961778 0.55761743
2.05113339 5.85680008 1.72797930 0.72738302 0.95379174 0.74549562
2.34697437 5.74849367 1.67958450 0.83229560 0.93615383 0.72461683
1.98168123 6.14054394 2.15036607 0.70275354 1.00000000 0.92772436
2.30215073 5.63940620 0.99556583 0.81640005 0.91838872 0.42951325
2.17208934 5.67015982 1.30935097 0.77027702 0.92339700 0.56488836
2.29991841 5.76795292 0.61899102 0.81560838 0.93932277 0.26704898
2.02047873 5.88778925 1.73344445 0.71651214 0.95883840 0.74785346
2.31153274 5.76491356 1.68011689 0.81972712 0.93882781 0.72484654
1.82785356 5.78401709 2.01946115 0.64820242 0.94193888 0.87124854
2.24891329 5.60988855 0.98756605 0.79752070 0.91358167 0.42606193
2.14889765 5.71655607 1.31712937 0.76205266 0.93095273 0.56824416
2.27439690 5.81005526 0.62262553 0.80655783 0.94617927 0.26861700
1.98344505 5.90036821 1.73344445 0.70337903 0.96088690 0.74785346
2.27953792 5.79007244 1.68331063 0.80838096 0.94292504 0.72622436
1.81914401 5.88596916 2.05154562 0.64511383 0.95854199 0.88509065
2.54250145 5.73887444 1.99797988 0.90163440 0.93458730 0.86198097
2.20196629 5.59458733 0.98223287 0.78087217 0.91108984 0.42376104
2.11770940 5.74275398 1.32015431 0.75099254 0.93521911 0.56954920
2.22147155 5.75395060 0.61390281 0.78778917 0.93704247 0.26485378
1.96639037 5.94256115 1.74328196 0.69733107 0.96775812 0.75209761
1.79737997 5.91443253 2.05860424 0.63739574 0.96317732 0.88813591
2.51088858 5.74031782 1.99428201 0.89042366 0.93482238 0.86038560
2.17917705 5.61408138 0.98389947 0.77279049 0.91426450 0.42448005
2.11822009 5.82782650 1.33787191 0.75117368 0.94907331 0.57719308
2.19294453 5.78824186 0.61656809 0.77767277 0.94262689 0.26600367
1.74791467 5.88380432 2.04384542 0.61985409 0.95818943 0.88176858
2.47253418 5.75072956 1.99243307 0.87682223 0.93651795 0.85958791
2.14315152 5.62582254 0.98356616 0.76001495 0.91617656 0.42433625
2.09876156 5.88879013 1.34910738 0.74427319 0.95900136 0.58204037
2.38500881 5.56642485 1.26092386 0.84578359 0.90650356 0.54399568
2.15790391 5.80563211 0.61705267 0.76524651 0.94545895 0.26621273
2.16349363 5.78711176 1.67106783 0.76722878 0.94244283 0.72094256
1.71665323 5.91470051 2.05090404 0.60876805 0.96322095 0.88481385
2.44664049 5.79072189 2.00106144 0.86763972 0.94303077 0.86331046
2.12866163 5.69452333 0.99356586 0.75487649 0.92736465 0.42865038
2.39591289 5.69140816 1.28643990 0.84965044 0.92685735 0.55500394
2.12205768 5.82094336 0.61729497 0.75253457 0.94795239 0.26631725
2.15923452 5.88736582 1.69661796 0.76571840 0.95876944 0.73196554
2.11407709 5.76511097 1.00389898 0.74970442 0.93886000 0.43310836
2.34156752 5.66110611 1.27598250 0.83037823 0.92192256 0.55049235
2.29138637 5.84607887 0.59213620 0.81258273 0.95204580 0.25546309
2.11759257 5.88813257 1.69289184 0.75095111 0.95889431 0.73035800
2.25557208 5.55051565 1.24712002 0.79988211 0.90391272 0.53804034
2.23087192 5.79925156 0.58450502 0.79112279 0.94441986 0.25217080
2.07602644 5.88860893 1.68916583 0.73621070 0.95897186 0.72875047
1.97433996 6.04271364 2.07403612 0.70015019 0.98406816 0.89479363
2.42381930 5.67574596 1.61911464 0.85954672 0.92430669 0.69852853
2.21490312 5.55002689 1.24377370 0.78545988 0.90383309 0.53659660
2.21204591 5.83196163 0.58727998 0.78444660 0.94974673 0.25336799
2.05272245 5.91106033 1.69289184 0.72794658 0.96262813 0.73035800
1.85723424 5.77935743 1.97892714 0.65862155 0.94118005 0.85376114
2.39704633 5.68710518 1.61911464 0.85005236 0.92615658 0.69852853
2.18659425 5.55493593 1.24251878 0.77542084 0.90463257 0.53605521
2.17535901 5.84574556 0.58727998 0.77143651 0.95199150 0.25336799
2.33968687 5.76124907 0.76876992 0.82971132 0.93823105 0.33166751
2.02870703 5.96212626 1.70406997 0.71943009 0.97094434 0.73518050
1.84908235 5.87954903 2.00979018 0.65573072 0.95749646 0.86707622
2.35466695 5.68596840 1.61445546 0.83502358 0.92597145 0.69651848
2.34861064 5.73058271 0.96835768 0.83287591 0.93323696 0.41777492
2.15025139 5.56491137 1.24168217 0.76253277 0.90625709 0.53569430
2.70668721 5.73097134 2.31789327 0.95985878 0.93330026 1.00000000
2.31143975 5.79608297 0.77194899 0.81969416 0.94390386 0.33303905
1.81041157 5.88561344 2.00790071 0.64201707 0.95848405 0.86626107
2.31239676 5.68452406 1.60979629 0.82003355 0.92573625 0.69450837
2.53494740 5.75316334 1.94016433 0.89895552 0.93691427 0.83703780
2.26137447 5.61685181 0.94599068 0.80193979 0.91471565 0.40812522
2.16265988 5.70465517 1.27054465 0.76693308 0.92901462 0.54814631
2.27139902 5.80126572 0.77050394 0.80549473 0.94474787 0.33241561
1.77781713 5.91140032 2.01293945 0.63045830 0.96268350 0.86843491
2.28942728 5.73127508 1.61911464 0.81188798 0.93334973 0.69852853
2.49951363 5.77072573 1.94076383 0.88638985 0.93977433 0.83729649
2.21956158 5.61440325 0.94311488 0.78711188 0.91431695 0.40688452
2.13623357 5.74382591 1.27640080 0.75756168 0.93539369 0.55067283
2.42037439 5.63063478 1.22134161 0.85832512 0.91696024 0.52691883
2.63367319 5.76282883 2.31719708 0.93396616 0.93848830 0.99969965
2.22152996 5.78028059 0.76501286 0.78780991 0.94133037 0.33004662
1.76066637 5.98977280 2.03624439 0.62437618 0.97544664 0.87848926
2.25616932 5.75274992 1.62118530 0.80009389 0.93684697 0.69942188
2.46395898 5.78806973 1.94136333 0.87378126 0.94259888 0.83755511
2.18140912 5.62086630 0.94183677 0.77358204 0.91536945 0.40633312
2.11072803 5.78656769 1.28309357 0.74851680 0.94235426 0.55356026
2.39724326 5.67456865 1.22776389 0.85012221 0.92411500 0.52968955
2.18032193 5.78114653 0.76298976 0.77319652 0.94147140 0.32917380
2.23924613 5.81735611 1.63568044 0.79409248 0.94736820 0.70567548
2.43199492 5.81398392 1.94496024 0.86244601 0.94681907 0.83910692
2.14744258 5.63815641 0.94247586 0.76153666 0.91818517 0.40660882
2.11087179 5.90296221 1.30651808 0.74856776 0.96130931 0.56366622
2.34564304 5.65156937 1.21933472 0.83182347 0.92036951 0.52605301
1.76985240 5.74568033 2.30785918 0.62763381 0.93569565 0.99567103
2.27936959 5.87091398 0.56958550 0.80832130 0.95609021 0.24573414
2.16330767 5.81921530 0.76732486 0.76716280 0.94767100 0.33104408
2.18734288 5.76274252 1.61704385 0.77568632 0.93847430 0.69763517
2.12084961 5.64821339 0.94247586 0.75210613 0.91982299 0.40660882
2.27107668 5.54667664 1.19364560 0.80538040 0.90328753 0.51497006
2.22770190 5.84607029 0.56489146 0.78999865 0.95204437 0.24370900
2.13812304 5.86433792 0.77223802 0.75823170 0.95501930 0.33316374
2.35270381 5.84313774 0.74876809 0.83432740 0.95156682 0.32303822
2.18583798 5.87062740 1.64396334 0.77515262 0.95604354 0.70924896
2.42693138 5.60514688 1.54553878 0.86065036 0.91280949 0.66678602
2.11168885 5.73376942 0.95493746 0.74885750 0.93375593 0.41198510
2.22954679 5.54449892 1.19003308 0.79065287 0.90293288 0.51341152
2.28804922 5.78790998 0.73815912 0.81139928 0.94257283 0.31846121
2.14234090 5.86607790 1.63878655 0.75972748 0.95530266 0.70701551
2.37256336 5.57580709 1.53301573 0.84137011 0.90803146 0.66138321
2.10884476 5.83988094 0.97091395 0.74784893 0.95103639 0.41887775
2.19539165 5.56021786 1.19043446 0.77854061 0.90549272 0.51358467
2.24224520 5.77820063 0.73452973 0.79515606 0.94099164 0.31689540
2.10092354 5.86667681 1.63516271 0.74503988 0.95540017 0.70545214
2.32995391 5.57276583 1.52800655 0.82625973 0.90753621 0.65922213
2.16827011 5.59397125 1.19484985 0.76892263 0.91098952 0.51548958
2.20305204 5.78478146 0.73341304 0.78125715 0.94206333 0.31641364
2.06085134 5.87063694 1.63257432 0.73082924 0.95604509 0.70433539
2.29118490 5.57835197 1.52550197 0.81251127 0.90844589 0.65814161
1.88247705 5.77616596 1.93264985 0.66757327 0.94066030 0.83379591
2.32882738 5.75345755 0.91397816 0.82586026 0.93696219 0.39431417
2.17384315 5.71356106 1.21813047 0.77089900 0.93046498 0.52553344
2.17085767 5.80962658 0.73508811 0.76984024 0.94610941 0.31713632
2.03388357 5.91273069 1.64085722 0.72126579 0.96290016 0.70790887
1.87704182 5.88586903 1.96593118 0.66564584 0.95852566 0.84815431
2.19691443 5.52944422 0.87472689 0.77908063 0.90048116 0.37738013
2.15103626 5.76193953 1.22575700 0.76281106 0.93834352 0.52882373
2.14967132 5.83649683 0.73760074 0.76232702 0.95048529 0.31822032
1.84533966 5.88192797 1.96161699 0.65440345 0.95788389 0.84629309
2.20284915 5.62062120 0.88801193 0.78118521 0.91532952 0.38311166
2.15389752 5.85281944 1.24341822 0.76382577 0.95314348 0.53644323
2.38895464 5.85560513 0.71667194 0.84718287 0.95359713 0.30919108
2.18664360 5.59729385 1.51999187 0.77543831 0.91153061 0.65576440
1.80668974 5.88794374 1.95976794 0.64069724 0.95886356 0.84549534
2.54681540 5.81136227 1.89149737 0.90316421 0.94639212 0.81604165
2.18109560 5.66936493 0.89374864 0.77347088 0.92326754 0.38558662
2.28484440 5.70102501 0.69199824 0.81026280 0.92842346 0.29854620
2.19479036 5.72286654 1.55104887 0.77832735 0.93198037 0.66916323
1.77560675 5.91924572 1.96654749 0.62967443 0.96396112 0.84842020
2.50273657 5.80964947 1.88568664 0.88753277 0.94611317 0.81353474
2.16163397 5.72544527 0.90069312 0.76656932 0.93240035 0.38858265
2.46250725 5.75618982 1.18862116 0.87326646 0.93740714 0.51280236
2.61961985 5.75503922 2.24199486 0.92898250 0.93721980 0.96725541
2.28855824 5.81683540 0.70674884 0.81157982 0.94728339 0.30491000
2.17530084 5.77998161 1.56307101 0.77141589 0.94128168 0.67434984
2.47210765 5.83937740 1.89033520 0.87667102 0.95095444 0.81554025
2.14501739 5.79076195 0.90914720 0.76067662 0.94303727 0.39222997
2.37571883 5.65014601 1.16293514 0.84248912 0.92013770 0.50172073
2.25338101 5.83480263 0.70728523 0.79910511 0.95020944 0.30514142
2.09563971 5.67742682 1.53101206 0.74316609 0.92458045 0.66051877
2.06402183 6.02116394 1.96474373 0.73195362 0.98055875 0.84764200
2.43391061 5.85125589 1.88917303 0.86312538 0.95288885 0.81503886
2.14196992 5.89507008 0.92394191 0.75959593 0.96002406 0.39861280
2.34165812 5.66859484 1.16370189 0.83041036 0.92314214 0.50205153
1.79155457 5.85653830 2.29466295 0.63532990 0.95374912 0.98997784
2.54859972 5.79095221 2.24335051 0.90379697 0.94306827 0.96784031
2.20344472 5.81358957 0.70218956 0.78139645 0.94675481 0.30294302
2.08121181 5.74867105 1.54704154 0.73804957 0.93618274 0.66743433
1.97709763 5.88946676 1.91678381 0.70112813 0.95911157 0.82695085
2.33533454 5.71388149 1.83920062 0.82816786 0.93051714 0.79347944
2.26788926 5.56307554 1.13916600 0.80425006 0.90595812 0.49146610
1.75861228 5.84699774 2.28754973 0.62364775 0.95219541 0.98690903
2.56519508 5.90486145 2.28333950 0.90968210 0.96161860 0.98509258
2.17602468 5.82390881 0.70218956 0.77167261 0.94843531 0.30294302
2.10334396 5.89502907 1.58461058 0.74589819 0.96001738 0.68364263
1.94629931 5.88966942 1.91378629 0.69020623 0.95914459 0.82565767
2.36885762 5.54179573 1.46530592 0.84005594 0.90249264 0.63217145
2.23072052 5.57174110 1.13801587 0.79106909 0.90736932 0.49096993
1.72548807 5.87049770 2.29252887 0.61190110 0.95602244 0.98905712
2.53391075 5.93472528 2.28876162 0.89858794 0.96648204 0.98743182
2.14209270 5.84491825 0.70326233 0.75963950 0.95185673 0.30340582
2.33748555 5.78669834 0.66133106 0.82893068 0.94237554 0.28531557
2.07787561 5.94098949 1.59362721 0.73686647 0.96750218 0.68753260
1.90094984 5.87639380 1.90539336 0.67412418 0.95698261 0.82203668
2.31982517 5.52252436 1.45612895 0.82266784 0.89935428 0.62821227
2.18427777 5.55637884 1.13188183 0.77459937 0.90486753 0.48832354
2.79101467 5.78109026 2.20782781 0.98976338 0.94146222 0.95251489
2.29444385 5.78469658 0.65904158 0.81366700 0.94204956 0.28432783
1.86631739 5.89549017 1.90779138 0.66184264 0.96009248 0.82307130
2.24469471 5.43818188 1.42956424 0.79602468 0.88561893 0.61675155
2.15982938 5.59749889 1.13763249 0.76592934 0.91156399 0.49080452
2.81988072 5.93473721 2.26061058 1.00000000 0.96648395 0.97528672
2.24208403 5.75838232 0.65344507 0.79509890 0.93776423 0.28191334
1.83836484 5.93623257 1.91738331 0.65192997 0.96672750 0.82720947
2.25313783 5.55844402 1.45806098 0.79901886 0.90520388 0.62904578
2.54444337 5.74795532 1.80724263 0.90232307 0.93606615 0.77969193
2.16181612 5.71021414 1.15833461 0.76663387 0.92991990 0.49973595
2.72217321 5.82424545 2.21112657 0.96535051 0.94849014 0.95393807
2.20014524 5.75755024 0.65140998 0.78022635 0.93762869 0.28103536
2.50596333 5.75855684 1.80555522 0.88867706 0.93779260 0.77896392
2.14486027 5.77527046 1.16906905 0.76062089 0.94051450 0.50436705
2.45979381 5.71158361 1.12323904 0.87230420 0.93014294 0.48459482
2.65534925 5.77614307 2.18605471 0.94165301 0.94065660 0.94312137
2.17024946 5.78795671 0.65369946 0.76962453 0.94258046 0.28202310
2.44843864 5.72484732 1.78980601 0.86827737 0.93230295 0.77216929
2.14236021 5.85359812 1.18325388 0.75973433 0.95327032 0.51048678
2.42122436 5.69600630 1.11775017 0.85862648 0.92760617 0.48222676
1.88997221 5.91594124 2.27054787 0.67023128 0.96342301 0.97957397
2.55500126 5.62894440 2.12469482 0.90606713 0.91668499 0.91664910
2.15127635 5.82042122 0.65675211 0.76289624 0.94786739 0.28334010
2.11594939 5.48955679 1.42956424 0.75036842 0.89398545 0.61675155
2.42970753 5.75574493 1.79599321 0.86163485 0.93733472 0.77483863
2.35101843 5.62957430 1.10128331 0.83372974 0.91678756 0.47512254
1.84598196 5.90624714 2.26219273 0.65463120 0.96184427 0.97596931
2.58470106 5.78949642 2.18011665 0.91659945 0.94283122 0.94055957
2.14196730 5.66451406 1.47255075 0.75959498 0.92247754 0.63529706
2.39349556 5.77089787 1.79599321 0.84879321 0.93980241 0.77483863
2.28400135 5.56793737 1.08591425 0.80996382 0.90674984 0.46849191
1.80108047 5.89265251 2.25244522 0.63870806 0.95963037 0.97176397
2.57196975 5.85914040 2.20057011 0.91208458 0.95417285 0.94938374
2.11034751 5.68879175 1.47544873 0.74838185 0.92643124 0.63654733
2.03757000 5.86116314 1.84907889 0.72257310 0.95450228 0.79774117
2.35864878 5.78937244 1.79711819 0.83643568 0.94281101 0.77532399
2.24156284 5.56396532 1.08225501 0.79491407 0.90610301 0.46691322
1.77704489 5.94692421 2.26915526 0.63018441 0.96846861 0.97897315
2.08968401 5.74393845 1.48655760 0.74105406 0.93541199 0.64133996
2.33460164 5.51454544 1.39063859 0.82790792 0.89805490 0.59995800
2.02820206 5.95545912 1.87522733 0.71925104 0.96985859 0.80902231
2.20655942 5.57793951 1.08225501 0.78250098 0.90837872 0.46691322
2.08003759 5.83199072 1.50636041 0.73763317 0.94975150 0.64988345
2.25319886 5.41788387 1.36193085 0.79904050 0.88231337 0.58757269
1.97275269 5.91356468 1.85779500 0.69958729 0.96303594 0.80150151
2.17505884 5.60084581 1.08408463 0.77133006 0.91210908 0.46770257
2.04779434 5.85778379 1.50974143 0.72619891 0.95395195 0.65134209
2.27179980 5.55963421 1.39480579 0.80563682 0.90539765 0.60175586
1.93379331 5.92037964 1.85605180 0.68577129 0.96414578 0.80074948
2.17275953 5.67338324 1.09652627 0.77051467 0.92392194 0.47307020
2.24557543 5.57027817 1.39480579 0.79633701 0.90713108 0.60175586
1.92847955 6.00055599 1.87871373 0.68388695 0.97720265 0.81052643
2.15451550 5.73287916 1.10567451 0.76404488 0.93361098 0.47701702
1.88278449 5.98697042 1.87057865 0.66768229 0.97499025 0.80701673
2.15139270 5.83474779 1.12323904 0.76293749 0.95020050 0.48459482
2.19601750 5.65057945 1.40823364 0.77876258 0.92020828 0.60754895
2.13668823 5.60253620 1.39249063 0.75772291 0.91238433 0.60075700
2.05416703 5.72718668 1.74818313 0.72845882 0.93268394 0.75421208
2.14410448 5.72868681 1.42119837 0.76035291 0.93292820 0.61314231
2.05991411 5.85753155 1.78474379 0.73049688 0.95391089 0.76998532
2.13107300 5.80406904 1.43694139 0.75573158 0.94520438 0.61993426
2.02496362 5.87579632 1.78643119 0.71810257 0.95688534 0.77071333
2.11839461 5.85424995 1.44712794 0.75123554 0.95337647 0.62432897
1.99600673 5.88164234 1.78530622 0.70783377 0.95783734 0.77022797
1.77144194 5.82261038 2.15659475 0.62819749 0.94822389 0.93041158
2.09470010 5.90407562 1.45638847 0.74283290 0.96149063 0.62832421
1.96634793 5.91589928 1.79205585 0.69731599 0.96341616 0.77313995
1.73482263 5.83362532 2.15659475 0.61521137 0.95001769 0.93041158
2.08594227 5.99788857 1.47676182 0.73972714 0.97676826 0.63711381
1.93093824 5.93360710 1.79374325 0.68475884 0.96629989 0.77386791
1.69554007 5.83536720 2.15320587 0.60128075 0.95030135 0.92894953
2.06595206 6.06238699 1.48972654 0.73263812 0.98727196 0.64270711
1.64970529 5.81329107 2.14100599 0.58502662 0.94670624 0.92368621
1.81016767 5.74858570 2.07059240 0.64193058 0.93616879 0.89330792
1.80716085 5.86619329 2.10951972 0.64086431 0.95532143 0.91010219
1.77301955 5.88646221 2.11281848 0.62875694 0.95862228 0.91152537
