-10.84342384 6.15111208 0.95308614 -0.96857917 0.97914314 0.55837744
-10.83526516 6.28213787 1.38973761 -0.96785045 1.00000000 0.81419516
-10.86445141 6.07316637 0.95134181 -0.97045743 0.96673560 0.55735552
-10.86589718 6.20902348 1.38852620 -0.97058660 0.98836154 0.81348544
-10.83776569 5.96932459 0.94488776 -0.96807379 0.95020592 0.55357432
-10.86216736 6.13924408 1.38392258 -0.97025341 0.97725397 0.81078839
-10.87628269 5.92388773 0.94593436 -0.97151428 0.94297320 0.55418748
-10.95087051 6.09880495 1.39094913 -0.97817677 0.97081679 0.81490493
-10.91902065 6.05575228 0.52726454 -0.97533178 0.96396363 0.30890453
-10.84827232 5.82068729 0.93948030 -0.96901226 0.92654562 0.55040628
-10.91929340 5.99179077 1.38125730 -0.97535616 0.95378214 0.80922687
-10.88668823 5.94883490 0.52300775 -0.97244376 0.94694436 0.30641064
-10.88780594 6.26382208 0.89727002 -0.97254360 0.99708444 0.52567685
-11.01091194 5.95224333 1.38876843 -0.98353994 0.94748688 0.81362736
-11.03649807 5.94071531 0.52981853 -0.98582536 0.94565183 0.31040081
-10.85938549 6.15683889 0.89086115 -0.97000498 0.98005474 0.52192217
-11.00600147 5.86061716 1.38295329 -0.98310131 0.93290168 0.81022048
-10.64019394 6.13175488 1.29073596 -0.95042586 0.97606182 0.75619382
-10.82657719 6.04851103 0.88412356 -0.96707439 0.96281093 0.51797485
-10.69922066 6.07658720 1.29351091 -0.95569837 0.96728015 0.75781953
-10.83470917 5.96397781 0.88132995 -0.96780074 0.94935483 0.51633817
-10.84886646 6.09440708 1.30969822 -0.96906537 0.97011673 0.76730311
-10.84520245 5.90329647 0.87968665 -0.96873808 0.93969548 0.51537544
-10.92341137 6.04638433 1.31455445 -0.97572398 0.96247238 0.77014816
-10.84873295 5.81708622 0.87656438 -0.96905345 0.92597240 0.51354623
-10.92284966 5.95664454 1.30946696 -0.97567385 0.94818747 0.76716763
-10.86922741 5.94368601 0.45254028 -0.97088408 0.94612473 0.26512638
-10.73625183 5.76719236 1.27986729 -0.95900613 0.91803020 0.74982625
-10.70231533 6.11760283 1.66093302 -0.95597482 0.97380906 0.97307837
-10.82544613 6.15135527 0.81855083 -0.96697336 0.97918183 0.47955826
-11.09333038 5.87017727 1.32218564 -0.99090189 0.93442351 0.77461898
-10.89871311 6.10264444 0.82161558 -0.97351784 0.97142798 0.48135376
-10.64290714 6.11024666 1.24150229 -0.95066822 0.97263813 0.72734964
-10.86344337 5.99370670 0.81517953 -0.97036743 0.95408708 0.47758314
-10.84284115 6.15690184 1.26363122 -0.96852714 0.98006475 0.74031419
-10.87579823 5.93387747 0.81380039 -0.97147101 0.94456339 0.47677514
-10.89172745 6.09445953 1.26497233 -0.97289389 0.97012508 0.74109989
-10.89001274 5.85319090 0.81180829 -0.97274071 0.93171960 0.47560805
-10.93328857 6.02781820 1.26541948 -0.97660625 0.95951700 0.74136186
-10.90408134 5.97771740 0.39700654 -0.97399735 0.95154190 0.23259126
-10.96185207 5.80325413 0.81487310 -0.97915769 0.92377061 0.47740361
-10.94997025 5.94765472 1.26273715 -0.97809637 0.94675648 0.73979038
-11.19518566 5.87276363 1.70688510 -1.00000000 0.93483520 1.00000000
-10.68714237 6.11220121 1.59636712 -0.95461947 0.97294921 0.93525165
-10.81940842 6.15223217 0.74091965 -0.96643406 0.97932142 0.43407705
-10.75736046 5.75628233 1.23345530 -0.96089166 0.91629356 0.72263521
-10.67343330 6.21613359 1.16590822 -0.95339495 0.98949337 0.68306190
-10.88393307 6.09880209 0.74303335 -0.97219765 0.97081631 0.43531540
-10.65956306 6.14087486 1.16065669 -0.95215601 0.97751355 0.67998523
-10.86896610 6.02319860 0.73951048 -0.97086072 0.95878166 0.43325147
-10.85345554 6.16241455 1.17956233 -0.96947527 0.98094225 0.69106138
-10.89609909 5.94903517 0.73866498 -0.97328436 0.94697624 0.43275613
-10.85727787 6.07461977 1.17536104 -0.96981668 0.96696699 0.68860000
-10.87533283 5.84917545 0.73401487 -0.97142941 0.93108040 0.43003181
-10.86042690 5.98702097 1.17115986 -0.97009796 0.95302284 0.68613869
-11.16860580 5.95314455 1.64494491 -0.99762577 0.94763035 0.96371156
-10.95766544 5.80508661 0.73767859 -0.97878373 0.92406225 0.43217823
-10.92751598 5.93485069 1.17473090 -0.97609067 0.94471830 0.68823081
-11.15498257 5.85607529 1.63684869 -0.99640888 0.93217874 0.95896828
-10.81412315 6.20563173 1.54806936 -0.96596193 0.98782164 0.90695584
-10.76484013 5.75878763 1.15078378 -0.96155977 0.91669232 0.67420107
-10.85635471 6.13950825 1.54860568 -0.96973425 0.97729599 0.90727001
-10.89525986 6.12892199 0.67795205 -0.97320938 0.97561085 0.39718670
-10.71121979 6.19206142 1.10708082 -0.95677018 0.98566151 0.64859718
-10.87688923 6.05139112 0.67443424 -0.97156847 0.96326941 0.39512575
-10.83644485 6.17375088 1.11709809 -0.96795577 0.98274678 0.65446591
-10.91294479 5.98197412 0.67430395 -0.97478908 0.95221949 0.39504942
-10.88544273 6.11137009 1.11830020 -0.97233248 0.97281694 0.65517014
-10.92746639 5.90099764 0.67261022 -0.97608620 0.93932950 0.39405712
-10.91316891 6.03709221 1.11709809 -0.97480911 0.96099329 0.65446591
-11.17115784 5.97428465 1.57515681 -0.99785376 0.95099545 0.92282534
-10.92640209 5.95511198 1.11429334 -0.97599113 0.94794351 0.65282267
-11.12072277 5.85793447 1.56174719 -0.99334866 0.93247467 0.91496915
-10.83264923 6.21280050 1.46239424 -0.96761674 0.98896277 0.85676199
-10.78461742 5.79062128 1.09385800 -0.96332633 0.92175967 0.64085042
-10.80763149 6.10839510 1.45298195 -0.96538204 0.97234339 0.85124767
-10.89684677 6.09137487 1.46188545 -0.97335112 0.96963406 0.85646391
-10.89745426 6.20928192 1.02766073 -0.97340542 0.98840266 0.60206789
-10.92796040 6.01894855 1.46086788 -0.97613037 0.95810515 0.85586774
-10.89092827 5.96557331 0.60172415 -0.97282249 0.94960880 0.35252762
-10.80787659 6.06833124 1.01395977 -0.96540397 0.96596593 0.59404105
-10.81445408 5.98290014 1.01062715 -0.96599150 0.95236689 0.59208858
-11.08139133 5.92336178 1.47231531 -0.98983544 0.94288951 0.86257434
-10.85881996 5.91865683 1.01136768 -0.96995443 0.94214058 0.59252244
-10.78009892 5.78794718 0.99914789 -0.96292275 0.92133397 0.58536327
