-10.72317696 6.95905066 0.98082119 -0.94813788 0.98152345 0.54977232
-10.72732353 6.89018297 0.97785586 -0.94850457 0.97181016 0.54811019
-10.67810726 7.00161695 1.41954017 -0.94415289 0.98752713 0.79568416
-10.73119640 7.00908899 0.54492998 -0.94884700 0.98858100 0.30544552
-10.77195072 6.96665096 1.42680907 -0.95245045 0.98259544 0.79975855
-10.69771481 6.89189386 0.54003471 -0.94588655 0.97205150 0.30270159
-10.73911858 6.82347441 0.53992832 -0.94954747 0.96240145 0.30264196
-10.77548027 6.63778019 0.96965742 -0.95276254 0.93621063 0.54351479
-10.92929173 6.87502623 1.43698561 -0.96636248 0.96967244 0.80546272
-10.90544701 6.83307886 0.54769683 -0.96425414 0.96375608 0.30699638
-10.85788250 6.59470224 0.97384387 -0.96004850 0.93013477 0.54586136
-10.95538616 6.79578209 1.43456256 -0.96866971 0.95849562 0.80410457
-10.72666740 6.95898628 0.91583943 -0.94844651 0.98151439 0.51334858
-10.71577740 6.88029146 0.91156685 -0.94748366 0.97041506 0.51095372
-10.72769260 6.99542522 1.35201657 -0.94853717 0.98665380 0.75783569
-10.79700184 7.05867672 0.47691956 -0.95466548 0.99557501 0.26732415
-10.62084770 6.72516441 0.89809173 -0.93909001 0.94853550 0.50340062
-10.76230907 6.93969011 0.47244367 -0.95159793 0.97879279 0.26481530
-10.55506897 7.09005022 1.71757829 -0.93327385 1.00000000 0.96274126
-10.72823524 6.82249498 0.46806303 -0.94858515 0.96226329 0.26235986
-10.88624287 6.80993795 1.35594785 -0.96255612 0.96049219 0.76003927
-10.56968212 7.00396204 1.71237612 -0.93456596 0.98785788 0.95982534
-10.84359169 6.80071020 0.47215798 -0.95878494 0.95919067 0.26465517
-10.95077419 6.75499725 1.35895407 -0.96826196 0.95274323 0.76172429
-10.73545074 6.97807932 0.84567398 -0.94922316 0.98420733 0.47401929
-10.70609951 6.88759232 0.84000415 -0.94662791 0.97144479 0.47084120
-10.73238277 7.06769800 1.30654812 -0.94895190 0.99684739 0.73234957
-10.65646172 6.76157761 0.83157605 -0.94223899 0.95367134 0.46611708
-10.76656818 6.99364519 1.30520689 -0.95197451 0.98640275 0.73159784
-10.81199169 6.98623562 0.41583267 -0.95599085 0.98535770 0.23308356
-10.69535160 6.69237804 0.83126956 -0.94567758 0.94391125 0.46594527
-10.85385227 6.95366621 1.31101859 -0.95969212 0.98076403 0.73485541
-10.79832458 6.88174343 0.41290990 -0.95478243 0.97061986 0.23144528
-10.81996346 6.83662081 1.30073643 -0.95669574 0.96425563 0.72909200
-11.10809803 6.79582596 1.76237428 -0.98217243 0.95850182 0.98785043
-10.55442047 6.99874830 1.64606166 -0.93321651 0.98712254 0.92265457
-10.85828495 6.82436609 0.41376951 -0.96008408 0.96252722 0.23192711
-10.89309788 6.78737307 1.30475986 -0.96316224 0.95730960 0.73134726
-11.22860336 6.77279568 1.77566862 -0.99282748 0.95525354 0.99530220
-10.69707775 6.95901728 0.76318401 -0.94583023 0.98151875 0.42778179
-11.30972290 6.74914074 1.78404975 -1.00000000 0.95191717 1.00000000
-10.68115807 6.87713337 0.75909752 -0.94442260 0.96996963 0.42549121
-10.67579746 7.03121662 1.21149182 -0.94394863 0.99170196 0.67906839
-10.64844704 6.76163960 0.75275636 -0.94153035 0.95368010 0.42193687
-10.76475143 6.99332714 1.21716356 -0.95181388 0.98635793 0.68224752
-10.74139595 6.72644711 0.75698382 -0.94974881 0.94871640 0.42430645
-10.71479416 6.86531401 1.20539999 -0.94739670 0.96830261 0.67565382
-10.88010693 6.71872711 0.76501590 -0.96201354 0.94762760 0.42880860
-10.75939751 6.79892111 1.20561016 -0.95134050 0.95893836 0.67577159
-10.99437141 6.73218870 1.67816770 -0.97211677 0.94952625 0.94065070
-10.59459877 7.04630566 1.58266616 -0.93676907 0.99383014 0.88711995
-10.84068966 6.75543928 1.21044159 -0.95852834 0.95280558 0.67847973
-10.67349911 7.00237417 1.58829820 -0.94374543 0.98763394 0.89027685
-10.68832874 6.97752190 0.69515020 -0.94505662 0.98412871 0.38964731
-10.70431042 6.91627264 0.69384730 -0.94646972 0.97548991 0.38891700
-10.71168995 7.07605124 1.15396166 -0.94712222 0.99802554 0.64682144
-10.69195747 6.81357479 0.68954778 -0.94537747 0.96100515 0.38650703
-10.72589779 6.98910141 1.15035546 -0.94837850 0.98576188 0.64480013
-10.71595097 6.73460960 0.68811458 -0.94749898 0.94986767 0.38570368
-10.72435474 6.89259386 1.14494622 -0.94824207 0.97215021 0.64176810
-10.92644501 6.80540323 1.60278070 -0.96611077 0.95985264 0.89839464
-10.75735569 6.81869936 1.14374411 -0.95115995 0.96172792 0.64109427
-11.03998947 6.78006744 1.61404479 -0.97615033 0.95627916 0.90470839
-10.62399006 6.99115467 1.49190307 -0.93936783 0.98605150 0.83624524
-10.74303341 7.03408527 0.62694019 -0.94989359 0.99210656 0.35141408
-10.69319534 6.90564346 0.62027937 -0.94548696 0.97399080 0.34768054
-10.71955109 6.82756805 0.61908996 -0.94781733 0.96297878 0.34701383
-10.64762688 6.93987322 1.04321325 -0.94145781 0.97881866 0.58474445
-10.75210476 6.75369310 0.61837626 -0.95069569 0.95255929 0.34661379
-10.72448921 6.89442682 1.04691613 -0.94825393 0.97240877 0.58682001
-10.93764019 6.81026506 1.51327157 -0.96710062 0.96053833 0.84822273
-11.03425980 6.77470684 1.52141190 -0.97564369 0.95552313 0.85278559
-10.63618565 6.67316484 1.02895677 -0.94044620 0.94120133 0.57675338
