-0.95500225 6.96770430 1.96298420 -0.68495512 0.98680991 0.92777735
-0.98705608 6.88161612 1.94003022 -0.70794505 0.97461760 0.91692847
-1.03666973 6.91711760 1.95205379 -0.74352944 0.97964549 0.92261124
-1.07889998 6.90286779 1.94986773 -0.77381819 0.97762740 0.92157805
-1.03523266 6.69869471 1.14713883 -0.74249870 0.94871110 0.54217935
-1.23075271 6.86819792 1.55010605 -0.88273132 0.97271723 0.73263621
-1.08605981 6.81237555 1.16808295 -0.77895343 0.96481127 0.55207825
-1.25377965 6.81247759 1.53859091 -0.89924693 0.96482575 0.72719377
-1.12096596 6.75879002 1.15984261 -0.80398911 0.95722216 0.54818362
-1.20102465 6.90024614 1.95478642 -0.86140949 0.97725606 0.92390281
-1.15524197 6.70503712 1.15160227 -0.82857287 0.94960934 0.54428893
-1.25929010 6.97393131 1.97828686 -0.90319920 0.98769182 0.93500996
-1.21849990 6.81395674 1.17220318 -0.87394327 0.96503526 0.55402565
-1.06424069 6.95240974 0.47740373 -0.76330411 0.98464382 0.22563829
-1.28061843 6.90878820 1.19040048 -0.91849643 0.97846586 0.56262636
-0.99836701 6.96024132 0.71930200 -0.71605760 0.98575300 0.33996814
-1.01957941 6.87890434 0.70985240 -0.73127174 0.97423351 0.33550194
-0.99378520 6.83321238 1.87174225 -0.71277142 0.96776235 0.88465315
-1.13634622 6.91474199 0.47513607 -0.81502026 0.97930908 0.22456650
-1.14967167 6.86287546 1.50554061 -0.82457769 0.97196341 0.71157300
-1.06370783 6.87824535 0.71057928 -0.76292193 0.97414017 0.33584547
-1.04947186 6.91264200 1.89569545 -0.75271147 0.97901165 0.89597428
-1.18522823 6.93887281 0.47792703 -0.85007983 0.98272663 0.22588561
-1.03961456 6.85287762 1.13756204 -0.74564153 0.97054744 0.53765297
-1.19244039 6.85359192 1.50510848 -0.85525262 0.97064859 0.71136874
-1.11043990 6.89297628 0.71324456 -0.79643953 0.97622645 0.33710518
-1.09465909 6.91734171 1.89888918 -0.78512108 0.97967726 0.89748377
-1.07902396 6.82282591 1.13356209 -0.77390707 0.96629137 0.53576249
-1.23172581 6.82481432 1.50035501 -0.88342929 0.96657294 0.70912206
-1.10457134 6.70883846 1.11522925 -0.79223043 0.95014775 0.52709770
-1.28023505 6.84766912 1.50726914 -0.91822147 0.96980977 0.71238995
-0.98877847 6.95010900 0.67839164 -0.70918041 0.98431796 0.32063243
-1.20803261 7.06083727 1.94306946 -0.86643583 1.00000000 0.91836494
-1.14768243 6.70760012 1.11622930 -0.82315093 0.94997233 0.52757037
-1.32177329 6.83181715 1.50554061 -0.94801390 0.96756476 0.71157300
-1.00026548 6.79790211 0.66104805 -0.71741927 0.96276146 0.31243524
-1.23701978 7.03037071 1.93614972 -0.88722622 0.99568516 0.91509444
-1.20346570 6.84202814 1.14022863 -0.86316031 0.96901089 0.53891331
-1.05449140 6.86809683 0.67006671 -0.75631166 0.97270292 0.31669778
-1.26279378 6.92556095 1.15589488 -0.90571213 0.98084134 0.54631776
-1.09823990 6.86526060 0.67052919 -0.78768933 0.97230119 0.31691635
-1.15384889 6.93468761 0.67954785 -0.82757372 0.98213392 0.32117891
-0.99640083 6.95262623 0.88639557 -0.71464741 0.98467445 0.41894263
-1.11471844 6.93889666 1.46881711 -0.79950821 0.98273003 0.69421613
-1.01825905 6.80341625 0.86529809 -0.73032475 0.96354240 0.40897119
-1.13829136 6.81414270 1.44330096 -0.81641537 0.96506155 0.68215626
-1.04384136 6.75748920 0.85922897 -0.74867314 0.95703793 0.40610272
-1.03726578 6.86750174 1.09009814 -0.74395692 0.97261864 0.51521981
-1.16803050 6.79521751 1.44037294 -0.83774513 0.96238124 0.68077236
-1.01079488 6.91402197 0.64714873 -0.72497123 0.97920710 0.30586591
-1.09524500 6.80547953 0.86732113 -0.78554130 0.96383464 0.40992737
-1.06325126 6.90939379 1.83861172 -0.76259446 0.97855163 0.86899441
-1.06569207 6.76922846 1.07508039 -0.76434505 0.95870054 0.50812191
-1.21349549 6.80313921 1.44371927 -0.87035394 0.96350318 0.68235397
-1.05360568 6.90360689 0.64670169 -0.75567639 0.97773206 0.30565462
-1.14496517 6.83943176 0.87339026 -0.82120204 0.96864319 0.41279584
-0.91246533 6.86843109 0.83754820 -0.65444642 0.97275025 0.39585558
-1.10508609 6.89304399 1.83602333 -0.79259962 0.97623605 0.86777109
-1.10105157 6.71955729 1.06805074 -0.78970593 0.95166582 0.50479943
-1.25838375 6.80691290 1.44622910 -0.90254909 0.96403766 0.68354023
-1.09537172 6.88704157 0.64558411 -0.78563219 0.97538596 0.30512640
-1.19653380 6.88082170 0.88061541 -0.85818851 0.97450507 0.41621071
-0.95480055 6.85667562 0.83671069 -0.68481046 0.97108537 0.39545974
-1.14546430 6.86882305 1.83136415 -0.82156003 0.97280574 0.86556900
-1.16112649 6.81560659 1.08498573 -0.83279341 0.96526891 0.51280349
-1.30448711 6.81615067 1.44999373 -0.93561578 0.96534598 0.68531948
-1.13664103 6.86826420 0.64424294 -0.81523174 0.97272658 0.30449253
-0.98947215 6.79172373 0.82833517 -0.70967793 0.96188647 0.39150119
-1.21341133 7.00227690 1.86967266 -0.87029362 0.99170631 0.88367498
-1.21231520 6.85481167 1.09265447 -0.86950743 0.97082138 0.51642805
-1.19313157 6.93733835 0.65296042 -0.85574836 0.98250932 0.30861273
-1.02716172 6.75207376 0.82358909 -0.73671001 0.95627099 0.38925800
-1.25564754 6.98501301 1.86708426 -0.90058661 0.98926127 0.88245159
-1.28465986 7.00427151 1.11853623 -0.92139506 0.99198878 0.52866071
-0.98584092 6.92159033 0.59978944 -0.70707351 0.98027897 0.28348219
-1.06228232 6.76868963 0.82666010 -0.76189953 0.95862424 0.39070949
-1.07393897 6.84247446 1.38470793 -0.77025998 0.96907407 0.65446305
-1.02471721 6.88376951 0.59642845 -0.73495674 0.97492254 0.28189367
-1.11294186 6.81272268 0.83391881 -0.79823399 0.96486044 0.39414021
-0.97573221 6.87546444 1.02659905 -0.69982326 0.97374636 0.48520786
-1.11070454 6.79689980 1.37668014 -0.79662931 0.96261954 0.65066886
-1.06705034 6.87129641 0.59579825 -0.76531929 0.97315603 0.28159583
-1.16875768 6.88373280 0.84508616 -0.83826673 0.97491735 0.39941829
-1.00668502 6.78506756 1.01361597 -0.72202355 0.96094376 0.47907159
-1.15403342 6.79365206 1.37748289 -0.82770604 0.96215957 0.65104824
-1.10802007 6.85070610 0.59432787 -0.79470396 0.97023994 0.28090087
-1.04722023 6.76492548 1.01150239 -0.75109655 0.95809114 0.47807264
-1.19836891 6.79591990 1.37948978 -0.85950476 0.96248072 0.65199679
-1.15655255 6.87696886 0.59789890 -0.82951283 0.97395939 0.28258866
-0.96448398 6.81517220 0.79230231 -0.69175571 0.96520740 0.37447074
-1.08815992 6.74844837 1.00999272 -0.78045964 0.95575750 0.47735912
-1.24347174 6.80175495 1.38229954 -0.89185381 0.96330714 0.65332478
-1.21387017 6.95189762 0.60672152 -0.87062269 0.98457128 0.28675854
-1.00580645 6.79917908 0.79096133 -0.72139341 0.96294230 0.37383693
-1.11824358 6.88522053 1.76995134 -0.80203652 0.97512805 0.83654308
-1.14531446 6.83121538 1.02388167 -0.82145256 0.96747953 0.48392352
-1.30519962 6.89589500 1.40357327 -0.93612683 0.97663987 0.66337955
-1.03661537 6.78653049 0.78988856 -0.74349046 0.96115094 0.37332991
-1.14816618 6.86458969 1.76594400 -0.82349789 0.97220618 0.83464903
-1.17848408 6.83159018 1.02478743 -0.84524274 0.96753258 0.48435163
-1.00585234 6.94886351 0.56835175 -0.72142631 0.98414159 0.26862359
-1.08018768 6.78575230 0.79069316 -0.77474177 0.96104074 0.37371022
-1.19225228 6.86296606 1.76744676 -0.85511768 0.97197622 0.83535928
-1.24057114 6.93309212 1.04169571 -0.88977337 0.98190790 0.49234310
-1.04282403 6.89913845 0.56394416 -0.74794346 0.97709918 0.26654041
-1.13829577 6.87068510 0.80329818 -0.81641853 0.97306943 0.37966779
-1.26136196 7.00214386 1.80601764 -0.90468514 0.99168748 0.85358930
-1.08930671 6.91209793 0.56594759 -0.78128219 0.97893459 0.26748732
-0.95258951 6.90159178 0.75443655 -0.68322468 0.97744668 0.35657403
-1.02370667 6.89381790 1.32701886 -0.73423195 0.97634566 0.62719715
-1.12681389 6.86978769 0.56234139 -0.80818343 0.97294235 0.26578289
-0.97898585 6.77565384 0.73891896 -0.70215690 0.95961052 0.34923986
-1.03064728 6.77798653 2.04664445 -0.73920995 0.95994091 0.96731824
-1.05444801 6.80775547 1.31130052 -0.75628054 0.96415699 0.61976808
-1.18322170 6.93903732 0.57015491 -0.84864074 0.98274994 0.26947585
-1.02734256 6.80861759 0.74400669 -0.73683971 0.96427906 0.35164449
-1.09396613 6.89984512 2.08615732 -0.78462404 0.97719926 0.98599344
-1.08840883 6.81433535 1.31360078 -0.78063822 0.96508884 0.62085527
-1.06600320 6.84684324 0.74960315 -0.76456821 0.96969283 0.35428959
-1.14154434 6.98522663 2.11404896 -0.81874853 0.98929155 0.99917603
-1.13087535 6.80542707 1.31321740 -0.81109643 0.96382719 0.62067407
-1.01927340 6.91958857 0.51183736 -0.73105228 0.97999549 0.24191286
-1.17123508 6.78465414 1.31053376 -0.84004354 0.96088523 0.61940569
-1.05204320 6.84215784 0.50517201 -0.75455570 0.96902925 0.23876257
-1.22011089 6.91947079 2.09836006 -0.87509871 0.97997880 0.99176091
-1.21806216 6.80033445 1.31513429 -0.87362927 0.96310598 0.62158006
-1.09717727 6.84918356 0.50646806 -0.78692716 0.97002429 0.23937513
-1.26950610 6.94365406 2.10823822 -0.91052639 0.98340380 0.99642968
-1.24002337 6.68260050 1.29328203 -0.88938051 0.94643176 0.61125189
-1.14308417 6.85984230 0.50813437 -0.81985295 0.97153383 0.24016269
-1.15460396 6.86984921 1.69907534 -0.82811522 0.97295105 0.80304450
-0.91949433 6.81533861 1.98048401 -0.65948784 0.96523094 0.93604839
-1.27709854 6.64963198 1.28829813 -0.91597188 0.94176251 0.60889632
-1.19163847 6.82806253 1.69038141 -0.85467744 0.96703297 0.79893541
-1.35479403 6.91776848 2.10533285 -0.97169733 0.97973770 0.99505651
-0.97597075 6.90828800 2.00973248 -0.69999439 0.97839504 0.94987231
-0.98845613 6.87754631 1.25899887 -0.70894921 0.97404116 0.59504843
-1.22902584 6.85101080 1.69762635 -0.88149279 0.97028303 0.80235964
-1.39425516 6.94506073 2.11579227 -1.00000000 0.98360300 1.00000000
-1.00688303 6.89221287 2.00635767 -0.72216552 0.97611839 0.94827724
-1.02563798 6.83034897 1.25131440 -0.73561716 0.96735680 0.59141648
-1.04960024 6.88195419 2.00523281 -0.75280356 0.97466546 0.94774562
-1.06584764 6.80627871 1.24802101 -0.76445663 0.96394783 0.58985990
-1.10890210 6.80138874 1.24838686 -0.79533654 0.96325529 0.59003282
-1.15322506 6.97431087 2.03673124 -0.82712626 0.98774558 0.96263289
-1.15096855 6.79040813 1.24765503 -0.82550782 0.96170014 0.58968693
-1.19702291 6.96692753 2.03673124 -0.85853934 0.98669994 0.96263289
-1.17618871 6.68229342 1.22862673 -0.84359646 0.94638824 0.58069348
-1.23845339 6.94603586 2.03279376 -0.88825446 0.98374110 0.96077192
-1.21799016 6.73475313 1.23960459 -0.87357765 0.95381790 0.58588201
-1.28308403 7.00623274 2.05248046 -0.92026484 0.99226654 0.97007656
-1.25564933 6.70182943 1.23484755 -0.90058792 0.94915503 0.58363366
-1.34010708 6.91591930 1.27692938 -0.96116346 0.97947580 0.60352302
-1.20843780 6.88513708 1.62909794 -0.86672646 0.97511625 0.76997066
-1.24893165 6.86208677 1.62539375 -0.89576977 0.97185171 0.76821989
-1.29415154 6.86558247 1.62817192 -0.92820281 0.97234678 0.76953298
