6.49533844 6.26091337 2.01425457 0.98981404 0.95883584 0.93867648
6.48233175 6.32754469 2.02266955 0.98783195 0.96904016 0.94259799
6.16437483 6.16926765 1.94604957 0.93937904 0.94480062 0.90689176
6.13095713 6.21344328 1.94782114 0.93428659 0.95156598 0.90771735
6.17853308 6.02559471 1.46988487 0.94153661 0.92279762 0.68499106
6.13153028 6.27301931 1.95756471 0.93437392 0.96068984 0.91225803
6.18530750 6.10870552 1.48087204 0.94256896 0.93552577 0.69011122
6.20795822 6.20889616 1.49597931 0.94602066 0.95086962 0.69715148
6.21301889 6.29274702 1.50696635 0.94679183 0.96371102 0.70227164
6.28176355 6.44335842 1.53409076 0.95726770 0.98677665 0.71491206
6.50652933 6.29013491 1.96835804 0.99151939 0.96331102 0.91728789
6.52185202 6.14554548 0.95481461 0.99385440 0.94116765 0.44495964
6.30595207 6.52970314 1.54782462 0.96095377 1.00000000 0.72131228
6.50762892 6.35066223 1.97786510 0.99168700 0.97258055 0.92171836
6.36272383 6.07100248 0.93446165 0.96960515 0.92975169 0.43547481
6.23930550 6.16682816 1.90699482 0.95079762 0.94442701 0.88869160
6.40280104 6.18691349 0.94778800 0.97571242 0.94750303 0.44168514
6.17968416 6.18523550 1.90051270 0.94171202 0.94724607 0.88567084
6.37088060 6.23397970 0.94899946 0.97084814 0.95471102 0.44224969
6.35128403 6.29349375 0.95239162 0.96786183 0.96382540 0.44383049
6.14457369 6.03897381 1.42222106 0.93636155 0.92484659 0.66277891
6.52825403 6.14139128 0.90455204 0.99483001 0.94053149 0.42153645
6.09670115 6.06774712 1.41988778 0.92906636 0.92925316 0.66169155
6.45061779 6.14537907 0.89830834 0.98299915 0.94114220 0.41862679
6.17262411 6.22045326 1.44722033 0.94063616 0.95263952 0.67442900
6.41297722 6.16746569 0.89692086 0.97726315 0.94452465 0.41798019
6.26795435 6.37575340 1.47721958 0.95516336 0.97642314 0.68840915
6.39692116 6.22976208 0.90062082 0.97481638 0.95406514 0.41970444
6.28422165 6.47289371 1.49088585 0.95764232 0.99129987 0.69477785
6.51503658 6.29009104 1.90259039 0.99281579 0.96330428 0.88663906
6.49213076 6.34734631 1.90760994 0.98932523 0.97207272 0.88897824
6.28719997 6.01609564 1.13147306 0.95809615 0.92134291 0.52728546
6.34094381 6.02650595 1.38182807 0.96628612 0.92293721 0.64395511
6.23024321 6.16735172 1.84068251 0.94941664 0.94450724 0.85778898
6.53594494 6.15364885 0.87089747 0.99600202 0.94240868 0.40585285
6.34711885 6.15073347 1.15141451 0.96722710 0.94196218 0.53657848
6.30153370 6.06485558 1.38150859 0.96028048 0.92881030 0.64380622
6.18172359 6.19666100 1.83775449 0.94202280 0.94899583 0.85642445
6.44506168 6.12536478 0.86128587 0.98215246 0.93807709 0.40137368
6.30959463 6.17225218 1.14968050 0.96150887 0.94525772 0.53577042
6.23332453 6.05587006 1.37256169 0.94988614 0.92743421 0.63963681
6.44359779 6.20165730 0.86709756 0.98192936 0.94976097 0.40408203
6.25105047 6.19223070 1.14563441 0.95258743 0.94831735 0.53388488
6.18251419 6.08242416 1.36968601 0.94214326 0.93150085 0.63829666
6.42296648 6.26009607 0.87000340 0.97878540 0.95871067 0.40543619
6.29426336 6.31426620 1.16268575 0.95917255 0.96700662 0.54183108
6.13301229 6.10997629 1.36712980 0.93459976 0.93572038 0.63710546
6.40262556 6.06342125 1.10388863 0.97568566 0.92859066 0.51443064
6.09034157 6.14417362 1.36617112 0.92809725 0.94095755 0.63665867
6.30853367 6.05019903 1.09300053 0.96134716 0.92656571 0.50935662
6.07366037 6.20494509 1.37128365 0.92555523 0.95026451 0.63904119
6.54047489 6.27214622 1.82222450 0.99669230 0.96055609 0.84918720
6.50376892 6.12025642 0.80460054 0.99109876 0.93729472 0.37495735
6.34412527 6.14169884 1.10556376 0.96677089 0.94057858 0.51521128
6.28428745 6.48210287 1.42720115 0.95765233 0.99271017 0.66509968
6.45723534 6.25123262 1.80697167 0.98400760 0.95735329 0.84207916
6.44209862 6.13909864 0.80123955 0.98170090 0.94018036 0.37339109
6.26714134 6.14409399 1.09802580 0.95503944 0.94094539 0.51169848
6.23554182 6.11378241 1.75479078 0.95022404 0.93630326 0.81776196
6.42491388 6.20012236 0.80439049 0.97908217 0.94952589 0.37485948
6.29884720 6.25295067 1.11198497 0.95987105 0.95761639 0.51820368
6.32681990 6.02343130 1.30015004 0.96413380 0.92246634 0.60589176
6.20675993 6.16248131 1.75760043 0.94583803 0.94376135 0.81907129
6.32243013 6.35544157 1.12454820 0.96346486 0.97331250 0.52405834
6.27458382 6.04937601 1.29713070 0.95617360 0.92643964 0.60448468
6.24212265 6.09419203 1.29833841 0.95122689 0.93330306 0.60504752
6.35797167 6.06343985 1.04976726 0.96888095 0.92859352 0.48920918
6.19807196 6.12774467 1.29713070 0.94451410 0.93844151 0.60448468
6.34108543 6.12397003 1.05379021 0.96630770 0.93786347 0.49108395
6.12723732 6.13446951 1.29018629 0.93371969 0.93947142 0.60124850
6.49006319 6.15067196 0.76168519 0.98901016 0.94195276 0.35495809
6.30366135 6.14546251 1.05218101 0.96060467 0.94115496 0.49033400
6.10801840 6.17309046 1.29229975 0.93079096 0.94538605 0.60223341
6.44699144 6.18718529 0.76108414 0.98244655 0.94754463 0.35467800
6.29447508 6.21425724 1.05781305 0.95920479 0.95169061 0.49295864
6.08850193 6.23109818 1.29652679 0.92781687 0.95426977 0.60420328
6.31963205 6.31828976 1.07014990 0.96303844 0.96762282 0.49870783
6.17676258 5.97067595 1.64368510 0.94126678 0.91438705 0.76598483
6.36715364 6.09172297 0.99101597 0.97028017 0.93292493 0.46183008
6.23149157 6.10020971 1.66898775 0.94960684 0.93422467 0.77777630
6.31875753 6.12196875 0.98923528 0.96290517 0.93755698 0.46100026
6.23192835 6.15854979 1.67703855 0.94967341 0.94315922 0.78152812
6.33390236 6.19457436 0.99712127 0.96521306 0.94867629 0.46467525
6.34288788 6.28160048 1.00577044 0.96658236 0.96200401 0.46870592
6.15244436 6.23780394 2.14584541 0.93756098 0.95529670 1.00000000
6.08340931 6.24568129 2.13521957 0.92704082 0.95650309 0.99504817
6.16757774 5.96777534 1.56308615 0.93986714 0.91394281 0.72842437
6.25524330 6.12858725 1.59565389 0.95322633 0.93857056 0.74360150
6.27677107 6.22717762 1.61138892 0.95650691 0.95366931 0.75093430
6.27366924 6.30264187 1.62090302 0.95603424 0.96522641 0.75536805
6.56218052 6.36266184 2.14074373 1.00000000 0.97441822 0.99762255
6.27722168 6.52747393 1.65127516 0.95657557 0.99965858 0.76952195
6.10443544 6.12852573 2.02406073 0.93024498 0.93856114 0.94324630
6.12872076 6.23041868 2.04536009 0.93394578 0.95416570 0.95317215
