3.78719449 -11.86903000 2.13700795 0.87076479 -0.97136509 0.93836230
3.83775735 -11.77198124 2.12361741 0.88239038 -0.96342260 0.93248248
3.93479109 -11.81676579 2.13632131 0.90470076 -0.96708775 0.93806076
3.62337995 -12.08035946 1.40039873 0.83310002 -0.98866034 0.61491644
4.27517796 -12.13333321 2.20773745 0.98296368 -0.99299574 0.96941966
3.85153508 -11.87975693 0.95500493 0.88555825 -0.97224295 0.41934359
4.34195805 -12.08028793 2.20293045 0.99831796 -0.98865449 0.96730894
3.95316696 -11.93660736 0.96250564 0.90892577 -0.97689563 0.42263716
3.80840135 -11.87954235 1.38368022 0.87564075 -0.97222543 0.60757536
4.00628424 -11.84739685 0.95657486 0.92113870 -0.96959460 0.42003295
3.84888864 -11.81429863 1.37762284 0.88494974 -0.96688586 0.60491556
4.04126310 -11.76812077 0.95099294 0.92918116 -0.96310663 0.41758195
3.74354935 -11.69693470 2.04187107 0.86072975 -0.95728076 0.89658761
3.93060231 -11.81247520 1.38053036 0.90373766 -0.96673661 0.60619223
4.12041998 -11.75753021 0.95238841 0.94738114 -0.96223992 0.41819468
3.85965419 -11.80445862 2.06520367 0.88742501 -0.96608055 0.90683293
4.00731087 -11.79506016 1.38149953 0.92137474 -0.96531135 0.60661781
3.67066050 -12.12448120 1.33582926 0.84397089 -0.99227130 0.58656394
4.08853054 -11.79026985 1.38416481 0.94004905 -0.96491933 0.60778815
3.75261307 -12.12016487 1.33814168 0.86281371 -0.99191803 0.58757931
3.93172431 -12.11858845 0.91205984 0.90399563 -0.99178898 0.40048638
3.83883119 -12.12856197 1.34207296 0.88263732 -0.99260527 0.58930558
3.96660566 -11.96870422 0.90121400 0.91201568 -0.97952247 0.39572397
4.16144753 -11.96069431 2.10653591 0.95681435 -0.97886693 0.92498201
4.19506788 -11.62411976 1.36938465 0.96454448 -0.95132154 0.60129815
3.83344436 -11.85078812 1.31108570 0.88139874 -0.96987218 0.57569903
4.00611925 -11.83775616 0.89201146 0.92110074 -0.96880561 0.39168310
4.28577042 -12.07377052 2.13153529 0.98539913 -0.98812109 0.93595922
3.88986444 -11.83448029 1.31131697 0.89437103 -0.96853751 0.57580060
4.07024097 -11.84326553 0.89414775 0.93584383 -0.96925652 0.39262116
4.34927368 -12.07200432 2.13486862 1.00000000 -0.98797655 0.93742293
3.96037078 -11.79850006 1.30992949 0.91058213 -0.96559286 0.57519132
4.04339695 -11.79970837 1.31316698 0.92967176 -0.96569175 0.57661289
4.14943981 -11.86600876 1.32449806 0.95405352 -0.97111779 0.58158839
3.85039902 -12.01233578 1.70283902 0.88529700 -0.98309326 0.74771827
4.17872810 -11.71239662 1.30877328 0.96078759 -0.95854616 0.57468361
3.76323915 -12.07915211 1.28419554 0.86525691 -0.98856151 0.56389153
3.86142921 -11.79241371 1.67278230 0.88783312 -0.96509475 0.73452038
3.91368389 -11.84521008 0.82038963 0.89984769 -0.96941566 0.36023390
3.77119088 -11.64298820 1.94675517 0.86708522 -0.95286572 0.85482210
4.25020742 -11.68030548 1.30807948 0.97722232 -0.95591980 0.57437897
3.85178852 -12.09501743 1.28888953 0.88561648 -0.98985994 0.56595266
3.94301510 -11.79042912 1.67625034 0.90659165 -0.96493232 0.73604316
4.00212431 -11.86193180 0.82376093 0.92018223 -0.97078413 0.36171424
3.88540673 -11.74270439 1.96784413 0.89334613 -0.96102655 0.86408228
3.86158085 -11.86846066 1.26497233 0.88786799 -0.97131848 0.55545062
4.04593086 -11.84965324 1.68925571 0.93025440 -0.96977925 0.74175382
4.06325579 -12.02464104 2.02024674 0.93423778 -0.98410034 0.88709235
3.91370535 -11.83881569 1.26363122 0.89985263 -0.96889234 0.55486172
4.12116289 -12.00909328 2.02088594 0.94755197 -0.98282790 0.88737303
3.98609686 -11.80834484 1.26296067 0.91649711 -0.96639860 0.55456728
4.22341394 -12.05931664 2.03398657 0.97106189 -0.98693818 0.89312547
4.07452345 -11.82438278 1.26787817 0.93682849 -0.96771115 0.55672657
3.84867978 -12.01933098 1.63991964 0.88490170 -0.98366576 0.72009033
3.79565573 -12.18379211 1.20918119 0.87271023 -0.99712533 0.53095263
3.85610843 -11.78587151 1.60893035 0.88660973 -0.96455938 0.70648289
3.91176581 -11.85128880 0.74331516 0.89940667 -0.96991313 0.32639042
4.16548967 -11.61332703 1.24887860 0.95774376 -0.95043826 0.54838383
3.86252570 -12.12936497 1.20582020 0.88808525 -0.99267095 0.52947682
3.93195844 -11.76704884 1.60976791 0.90404946 -0.96301889 0.70685065
3.99122500 -11.84160900 0.74444246 0.91767621 -0.96912092 0.32688540
4.28981256 -11.72682953 1.26564300 0.98632848 -0.95972735 0.55574507
3.86211276 -11.86831665 1.17956233 0.88799030 -0.97130668 0.51794696
4.01854181 -11.77961922 1.61535156 0.92395699 -0.96404767 0.70930248
3.90495086 -11.81030750 1.17515099 0.89783978 -0.96655923 0.51600993
3.80530000 -11.76749420 1.85480034 0.87492770 -0.96305537 0.81444466
3.98857665 -11.81382084 1.17830193 0.91706729 -0.96684676 0.51739353
3.88348103 -11.75650024 1.85691392 0.89290333 -0.96215558 0.81537271
4.07111073 -11.81298637 1.18103278 0.93604380 -0.96677846 0.51859266
3.81791043 -11.97952843 1.56228352 0.87782711 -0.98040831 0.68600023
4.05033875 -12.00928020 1.90159988 0.93126786 -0.98284322 0.83499438
4.12883329 -11.74023914 1.17578125 0.94931561 -0.96082479 0.51628673
3.85795093 -11.84794140 1.54699659 0.88703340 -0.96963918 0.67928773
3.90013909 -11.88103962 0.67821264 0.89673340 -0.97234792 0.29780385
4.20184898 -11.71219254 1.17557120 0.96610361 -0.95852947 0.51619446
3.87276626 -12.21891785 1.15195823 0.89043975 -1.00000000 0.50582600
3.92603159 -11.80467129 1.54431462 0.90268672 -0.96609795 0.67811006
3.98172426 -11.87710285 0.67964578 0.91549176 -0.97202575 0.29843313
3.86936450 -11.94836426 1.12591338 0.88965762 -0.97785783 0.49438968
4.00460672 -11.79290009 1.54619205 0.92075300 -0.96513456 0.67893445
3.90562487 -11.86954212 1.11950231 0.89799476 -0.97140700 0.49157456
4.07961035 -11.83007622 1.55423772 0.93799806 -0.96817708 0.68246728
3.97311997 -11.82403088 1.11729848 0.91351342 -0.96768230 0.49060687
4.05317211 -11.81576443 1.11910164 0.93191928 -0.96700579 0.49139863
3.79659081 -11.90293026 1.46315742 0.87292522 -0.97413945 0.64247388
4.12006617 -11.76941681 1.11689782 0.94729984 -0.96321267 0.49043092
4.30802298 -11.76782036 1.55665147 0.99051547 -0.96308202 0.68352717
3.84378123 -11.79392052 1.45170999 0.88377541 -0.96521807 0.63744730
4.19258928 -11.73955154 1.11649716 0.96397460 -0.96076852 0.49025500
3.93090081 -11.80908489 1.45705211 0.90380627 -0.96645916 0.63979304
3.83967829 -11.85851574 1.02043998 0.88283205 -0.97050458 0.44807619
4.00184488 -11.77475739 1.45578015 0.92011797 -0.96364975 0.63923448
3.90728354 -11.87625122 1.02395773 0.89837611 -0.97195607 0.44962084
4.07210255 -11.79892254 1.46163106 0.93627185 -0.96562743 0.64180362
3.95973611 -11.78536034 1.01747763 0.91043615 -0.96451753 0.44677544
4.03242111 -11.75647926 1.01710725 0.92714816 -0.96215391 0.44661281
4.10489941 -11.72714901 1.01673698 0.94381261 -0.95975351 0.44645020
4.29852629 -11.73311996 1.46341181 0.98833197 -0.96024215 0.64258558
3.77177501 -11.79240799 2.27006173 0.86721951 -0.96509433 0.99678636
3.85794759 -11.80587673 2.27738047 0.88703263 -0.96619660 1.00000000
