-6.53987408 6.53296423 2.06474400 -0.89886266 0.95329809 0.99424177
-6.61836243 6.52864313 2.07670212 -0.90965039 0.95266753 1.00000000
-6.65785217 6.48557234 2.07625914 -0.91507798 0.94638258 0.99978667
-6.79161167 6.70330238 1.62885451 -0.93346232 0.97815406 0.78434670
-6.71058607 6.54111385 1.59898329 -0.92232591 0.95448726 0.76996273
-6.68896246 6.43883514 1.58387601 -0.91935390 0.93956268 0.76268810
-6.74645901 6.41293287 1.58799624 -0.92725641 0.93578297 0.76467216
-6.81828833 6.40001440 1.59554982 -0.93712890 0.93389791 0.76830941
-6.72906542 6.85301304 1.03331888 -0.92486578 1.00000000 0.49757683
-6.59800005 6.51265097 0.67329347 -0.90685171 0.95033395 0.32421282
-6.85257435 6.35170269 1.59417653 -0.94184124 0.92684817 0.76764816
-6.65723515 6.54953718 2.03231406 -0.91499317 0.95571643 0.97862571
-6.72486973 6.78464460 1.02701914 -0.92428911 0.99002361 0.49454331
-6.68286562 6.53429842 0.67992198 -0.91851592 0.95349276 0.32740468
-6.93332767 6.36587000 1.60619366 -0.95294029 0.92891550 0.77343476
-6.69918919 6.52902079 2.03577113 -0.92075950 0.95272267 0.98029041
-6.71239996 6.68772793 1.01756954 -0.92257524 0.97588140 0.48999301
-6.74820662 6.51565361 0.68288738 -0.92749661 0.95077211 0.32883260
-6.78360510 6.52887249 2.04916739 -0.93236190 0.95270103 0.98674113
-6.70181608 6.59401703 1.00860453 -0.92112052 0.96220696 0.48567608
-6.70887089 6.51864958 1.00278938 -0.92209017 0.95120931 0.48287588
-6.80999136 6.67574406 1.57788348 -0.93598849 0.97413272 0.75980252
-6.72959900 6.45716858 0.99939728 -0.92493910 0.94223791 0.48124248
-6.58231878 6.56155205 0.62793189 -0.90469640 0.95746964 0.30236974
-6.70616293 6.49123764 1.54355109 -0.92171800 0.94720930 0.74327034
-6.77870226 6.42293215 1.00085104 -0.93168801 0.93724209 0.48194250
-6.75235128 6.82763338 0.97901380 -0.92806625 0.99629658 0.47142717
-6.62625074 6.52286768 0.62826055 -0.91073459 0.95182478 0.30252799
-6.73259020 6.43531656 1.54021788 -0.92535025 0.93904924 0.74166530
-6.79003763 6.37329531 0.99770117 -0.93324602 0.92999899 0.48042575
-6.69621420 6.70697927 0.96444523 -0.92035061 0.97869056 0.46441191
-6.67400312 6.50830650 0.63023251 -0.91729784 0.94970000 0.30347756
-6.85143900 6.48777628 1.56088400 -0.94168520 0.94670421 0.75161672
-6.85912752 6.35743427 1.00254714 -0.94274193 0.92768455 0.48275924
-6.68043709 6.60737228 0.95496404 -0.91818213 0.96415579 0.45984644
-6.76634264 6.51613092 0.63614839 -0.92998928 0.95084172 0.30632627
-6.82881689 6.38520002 1.54621768 -0.93857598 0.93173617 0.74455440
-6.68636608 6.53048849 0.94918287 -0.91899705 0.95293683 0.45706260
-6.57730103 6.78528404 1.24071753 -0.90400678 0.99011689 0.59744608
-6.92230177 6.39178228 1.55855072 -0.95142484 0.93269664 0.75049317
-6.69730139 6.45932198 0.94432664 -0.92050004 0.94255215 0.45472416
-6.66843176 6.79314995 1.25083280 -0.91653210 0.99126470 0.60231692
-7.01322794 6.39477587 1.57021701 -0.96392202 0.93313348 0.75611085
-6.66269064 6.56167269 1.96575320 -0.91574299 0.95748729 0.94657445
-6.71909237 6.39926243 0.94132042 -0.92349505 0.93378818 0.45327657
-6.70800209 6.52376175 1.96700811 -0.92197078 0.95195526 0.94717872
-6.76783180 6.36510420 0.94270790 -0.93019396 0.92880374 0.45394468
-6.69839668 6.65454006 1.23956156 -0.92065054 0.97103858 0.59688944
-6.56315756 6.48782110 0.57091773 -0.90206283 0.94671077 0.27491555
-6.76864862 6.50040865 1.97286415 -0.93030626 0.94854754 0.94999862
-6.84126806 6.37386131 0.94964534 -0.94028729 0.93008161 0.45728528
-6.68020868 6.57442236 1.22944629 -0.91815072 0.95934772 0.59201860
-6.67076063 6.53199196 0.57919258 -0.91685218 0.95315623 0.27890018
-6.76818943 6.70598841 1.50804198 -0.93024313 0.97854596 0.72617155
-7.07182503 6.72667408 2.05317712 -0.97197580 0.98156446 0.98867196
-6.71910620 6.72108030 0.93013167 -0.92349696 0.98074824 0.44788882
-6.72138453 6.53232002 1.22944629 -0.92381006 0.95320410 0.59201860
-6.74040174 6.51761103 0.58225733 -0.92642391 0.95105773 0.28037596
-6.77625179 6.63026476 1.50037324 -0.93135124 0.96749628 0.72247881
-7.07681417 6.64737129 2.04230142 -0.97266155 0.96999252 0.98343492
-6.72294569 6.64110136 0.92409647 -0.92402464 0.96907759 0.44498268
-6.74512577 6.47355270 1.22597826 -0.92707318 0.94462872 0.59034866
-6.61826992 6.81716967 1.20020676 -0.90963769 0.99476969 0.57793880
-6.68546057 6.46025753 1.47065711 -0.91887259 0.94268864 0.70816952
-7.13999081 6.62268066 2.04857588 -0.98134476 0.96638960 0.98645627
-6.73174953 6.56688023 0.91895539 -0.92523468 0.95824713 0.44250709
-6.80149984 6.44598484 1.22915733 -0.93482143 0.94060594 0.59187949
-6.68036747 6.79526472 1.20411527 -0.91817254 0.99157327 0.57982087
-6.73021364 6.42220402 1.47161567 -0.92502362 0.93713582 0.70863110
-7.18290615 6.57900667 2.04899406 -0.98724318 0.96001667 0.98665768
-6.73988771 6.49281120 0.91381431 -0.92635322 0.94743890 0.44003147
-6.85489750 6.41526508 1.23175836 -0.94216055 0.93612331 0.59313196
-6.80930805 6.41626263 1.48024297 -0.93589461 0.93626887 0.71278542
-6.75457668 6.42573452 0.90979087 -0.92837214 0.93765098 0.43809408
-6.88633251 6.36402798 1.23002434 -0.94648111 0.92864668 0.59229696
-6.68665981 6.63251114 1.18848097 -0.91903740 0.96782410 0.57229245
-6.67607212 6.58884001 0.52433521 -0.91758221 0.96145153 0.25248456
-6.81183195 6.33846617 1.47193527 -0.93624151 0.92491668 0.70878500
-6.79782677 6.40607214 0.91180259 -0.93431658 0.93478185 0.43906277
-6.94988585 6.36216831 1.23667145 -0.95521611 0.92837536 0.59549773
-6.67414284 6.55780458 1.17982638 -0.91731703 0.95692283 0.56812501
-6.71985817 6.56988668 0.52560341 -0.92360032 0.95868587 0.25309524
-6.91290140 6.37170744 1.48759210 -0.95013285 0.92976731 0.71632427
-6.67372131 6.55682373 1.88243318 -0.91725910 0.95677972 0.90645313
-6.87147427 6.39430189 0.91694367 -0.94443893 0.93306428 0.44153836
-6.69656849 6.68428659 0.86068726 -0.92039931 0.97537923 0.41444907
-6.71521473 6.51574039 1.17982638 -0.92296207 0.95078474 0.56812501
-6.99961424 6.37057114 1.49781704 -0.96205091 0.92960149 0.72124791
-6.70075417 6.50108862 1.87841928 -0.92097455 0.94864678 0.90452033
-6.70027113 6.60429859 0.85501558 -0.92090821 0.96370727 0.41171798
-6.75459433 6.47204590 1.17954719 -0.92837453 0.94440883 0.56799054
-6.89959335 6.61101580 1.92337513 -0.94830370 0.96468747 0.92616802
-6.71745634 6.53843355 0.85144448 -0.92327017 0.95409620 0.40999836
-6.80086803 6.43493509 1.18066394 -0.93473458 0.93899357 0.56852829
-6.67207146 6.81991720 1.15194869 -0.91703230 0.99517059 0.55470097
-6.73878765 6.64941216 1.41186512 -0.92620206 0.97029030 0.67985922
-7.02479458 6.64716339 1.94705725 -0.96551180 0.96996218 0.93757176
-6.73551035 6.47399521 0.84808350 -0.92575157 0.94469327 0.40837994
-6.86282730 6.41240549 1.18485165 -0.94325048 0.93570602 0.57054484
-6.72737122 6.79050589 1.15436244 -0.92463291 0.99087888 0.55586326
-6.74086905 6.56822157 1.40341103 -0.92648810 0.95844287 0.67578834
-7.10071182 6.63507080 1.95669055 -0.97594613 0.96819758 0.94221050
-6.75302076 6.40958929 0.84472251 -0.92815828 0.93529505 0.40676153
-6.87392998 6.34223652 1.17926800 -0.94477648 0.92546690 0.56785613
-6.72087193 6.46666002 1.39042795 -0.92373961 0.94362289 0.66953653
-7.15232086 6.59964705 1.95950031 -0.98303944 0.96302855 0.94356352
-6.78893471 6.38315773 0.84556276 -0.93309444 0.93143815 0.40716612
-6.67585039 6.59245586 1.13049328 -0.91755170 0.96197915 0.54436952
-6.76126766 6.44448757 1.39254141 -0.92929178 0.94038749 0.67055422
-7.27572107 6.65066338 1.98518932 -1.00000000 0.97047287 0.95593357
-6.74264145 6.76377583 0.82299089 -0.92673171 0.98697841 0.39629704
-6.70292044 6.53657436 1.12781131 -0.92127234 0.95382488 0.54307806
-6.82748699 6.42632580 1.39797628 -0.93839318 0.93773729 0.67317128
-6.71983767 6.65699530 0.81377500 -0.92359746 0.97139686 0.39185929
-6.75101137 6.50118828 1.12915230 -0.92788208 0.94866133 0.54372376
-6.84316111 6.36036539 1.39284337 -0.94054747 0.92811227 0.67069966
-6.74014997 6.59381485 0.81076986 -0.92638928 0.96217746 0.39041221
-6.79316521 6.46000481 1.12942052 -0.93367589 0.94265175 0.54385293
-6.67991877 6.81096506 1.08437586 -0.91811091 0.99386430 0.52216244
-7.00655079 6.43114567 1.41850770 -0.96300429 0.93844062 0.68305784
-6.76567125 6.53616047 0.80856603 -0.92989701 0.95376450 0.38935098
-6.84520197 6.42802382 1.13156605 -0.94082797 0.93798506 0.54488605
-6.73374033 6.78014374 1.08641100 -0.92550832 0.98936683 0.52314246
-6.63032818 6.52052498 1.78208280 -0.91129500 0.95148295 0.85813117
-6.78784895 6.47570562 0.80596155 -0.93294519 0.94494283 0.38809684
-6.85050631 6.35262012 1.12512946 -0.94155705 0.92698205 0.54178661
-6.67654276 6.63817883 1.06834948 -0.91764688 0.96865112 0.51444525
-6.68634367 6.51380777 1.78898346 -0.91899395 0.95050275 0.86145407
-6.81973886 6.44501066 0.80616188 -0.93732822 0.94046378 0.38819331
-6.92570400 6.36173296 1.13344347 -0.95189244 0.92831182 0.54579014
-6.66120911 6.56060505 1.05995476 -0.91553938 0.95733148 0.51040292
-6.73564386 6.47981453 1.79128373 -0.92576993 0.94554240 0.86256170
-6.57547092 6.58277559 0.72660947 -0.90375525 0.96056664 0.34988624
-6.66966057 6.48673964 1.05410385 -0.91670096 0.94655293 0.50758547
-7.01722765 6.66532135 1.85607386 -0.96447176 0.97261178 0.89376026
-6.60822296 6.53291225 0.72549856 -0.90825677 0.95329052 0.34935129
-6.71885252 6.45296860 1.05563021 -0.92346209 0.94162500 0.50832045
-7.05896854 6.62109947 1.85607386 -0.97020876 0.96615887 0.89376026
-6.69464064 6.53587818 0.73142332 -0.92013431 0.95372331 0.35220426
-6.78224659 6.43251801 1.05970037 -0.93217516 0.93864083 0.51028037
-6.77563238 6.53247356 0.73660749 -0.93126607 0.95322651 0.35470060
-6.78785086 6.35715628 1.05359507 -0.93294543 0.92764395 0.50734049
-6.84946156 6.33463335 1.05741084 -0.94141346 0.92435741 0.50917792
-6.64973211 6.53788710 1.70140755 -0.91396195 0.95401645 0.81928337
-6.68082523 6.48636770 1.69884598 -0.91823548 0.94649869 0.81804991
-6.75402355 6.47563171 1.70726240 -0.92829609 0.94493204 0.82210267
-6.85869646 6.49403954 1.72372925 -0.94268268 0.94761813 0.83003199
-6.86775398 6.44142389 1.71824026 -0.94392759 0.93994039 0.82738888
-7.01606655 6.49858475 1.74568498 -0.96431220 0.94828141 0.84060442
