-6.50936413 8.01428986 1.76516318 -0.93034804 0.96698433 0.91315359
-6.62470675 8.07783222 1.78645074 -0.94683331 0.97465122 0.92416608
-6.69425917 8.05874634 1.79160094 -0.95677406 0.97234833 0.92683035
-6.35360289 8.05225754 0.75963849 -0.90808594 0.97156543 0.39297590
-6.40157700 8.00906944 0.75928962 -0.91494262 0.96635449 0.39279544
-6.46685410 7.98724174 0.76138282 -0.92427230 0.96372080 0.39387828
-6.46330309 8.13820553 1.12951076 -0.92376477 0.98193568 0.58431810
-6.51944447 7.94952774 0.76173168 -0.93178874 0.95917034 0.39405876
-6.46423101 8.06126690 1.12224185 -0.92389739 0.97265249 0.58055776
-6.54919100 7.90952492 0.76068509 -0.93604028 0.95434368 0.39351735
-6.50471592 8.00818443 1.12030339 -0.92968369 0.96624768 0.57955498
-6.59981632 8.09541702 0.41850483 -0.94327587 0.97677296 0.21650077
-6.62827396 7.90327263 0.76469707 -0.94734317 0.95358926 0.39559281
-6.59707689 8.20251274 1.74521232 -0.94288433 0.98969483 0.90283263
-6.55490398 7.96715593 1.12030339 -0.93685681 0.96129727 0.57955498
-6.28297520 8.16919327 1.06087554 -0.89799148 0.98567462 0.54881173
-6.61231089 8.00766468 0.41531229 -0.94506162 0.96618497 0.21484920
-6.74632215 7.94181538 0.77394211 -0.96421516 0.95823973 0.40037546
-6.36102772 8.04615211 0.70730364 -0.90914714 0.97082877 0.36590207
-6.58884001 8.08739853 1.72921276 -0.94170707 0.97580546 0.89455575
-6.62139463 7.94560719 1.12345326 -0.94635993 0.95869726 0.58118445
-6.66634655 7.97054911 0.41563153 -0.95278466 0.96170670 0.21501435
-6.85339165 7.96561337 0.78161722 -0.97951800 0.96111119 0.40434593
-6.39281464 7.98265171 0.70483869 -0.91369027 0.96316695 0.36462688
-6.64828920 8.05650425 1.73154604 -0.95020384 0.97207785 0.89576280
-6.75076342 7.99775124 1.13847566 -0.96484995 0.96498883 0.58895582
-6.78745842 8.01218128 0.42148456 -0.97009456 0.96672994 0.21804224
-6.97676659 8.00637245 0.79138553 -0.99715132 0.96602905 0.40939927
-6.45161295 7.95318079 0.70598900 -0.92209399 0.95961106 0.36522198
-6.70382547 8.02063560 1.73287940 -0.95814133 0.96775001 0.89645255
-6.43800497 8.07808971 1.06365049 -0.92014903 0.97468227 0.55024731
-6.49531937 7.93041277 0.70681065 -0.92834067 0.95686394 0.36564702
-6.46622658 8.00961113 1.05948806 -0.92418259 0.96641982 0.54809397
-6.56152391 7.90942049 0.70894694 -0.93780297 0.95433110 0.36675218
-6.51140642 7.96266365 1.05856311 -0.93063992 0.96075529 0.54761547
-6.59069347 8.07918453 0.35902297 -0.94197202 0.97481436 0.18572964
-6.63155794 7.89249468 0.71157628 -0.94781256 0.95228887 0.36811239
-6.56636524 7.92772436 1.05948806 -0.93849492 0.95653957 0.54809397
-6.64132595 8.03761482 0.35902297 -0.94920862 0.96979868 0.18572964
-6.74287987 7.92365646 0.71946412 -0.96372318 0.95604873 0.37219292
-6.64024878 7.91527510 1.06388175 -0.94905466 0.95503747 0.55036694
-6.29395628 8.16662216 1.02088284 -0.89956099 0.98536438 0.52812272
-6.52733231 8.22052383 1.39360201 -0.93291610 0.99186802 0.72093767
-6.86653757 7.96733952 0.72883099 -0.98139691 0.96131945 0.37703860
-6.39855480 8.01722527 0.64998865 -0.91451067 0.96733850 0.33625188
-6.80021811 8.00380993 1.08376908 -0.97191823 0.96571988 0.56065506
-6.54528427 8.13777733 1.38579881 -0.93548191 0.98188406 0.71690094
-6.43372107 7.95828485 0.64814979 -0.91953677 0.96022695 0.33530062
-6.95529270 8.10911942 1.10481262 -0.99408215 0.97842628 0.57154125
-6.49192238 8.23405838 1.04055309 -0.92785519 0.99350107 0.53829855
-6.56104946 8.07923508 1.38059676 -0.93773514 0.97482049 0.71420979
-6.48252821 7.94175911 0.64952892 -0.92651254 0.95823300 0.33601406
-6.44817543 7.99606323 1.62850440 -0.92160267 0.96478516 0.84245729
-6.46147156 8.09076977 1.02580047 -0.92350298 0.97621220 0.53066671
-6.61672401 8.04395485 1.38175273 -0.94569242 0.97056365 0.71480781
-6.54121542 7.91161203 0.65060163 -0.93490034 0.95459551 0.33656901
-6.58843279 8.06530285 1.65151048 -0.94164890 0.97313946 0.85435879
-6.50340843 8.03921223 1.02423573 -0.92949682 0.96999145 0.52985728
-6.57618904 8.08912182 0.31052679 -0.93989897 0.97601336 0.16064161
-6.61902905 7.90393543 0.65397286 -0.94602185 0.95366925 0.33831301
-6.63771677 8.02222919 1.65119100 -0.94869280 0.96794230 0.85419351
-6.54116488 7.98284388 1.02200055 -0.93489313 0.96319014 0.52870095
-6.60651350 8.02300262 0.30915138 -0.94423306 0.96803564 0.15993008
-6.72932529 7.93354702 0.66117507 -0.96178591 0.95724213 0.34203884
-6.60646057 7.95990896 1.02468276 -0.94422549 0.96042287 0.53008854
-6.25524044 8.10406971 0.94261169 -0.89402753 0.97781694 0.48763153
-6.52441740 8.21104527 1.33923972 -0.93249953 0.99072438 0.69281501
-6.67603540 8.00431442 0.31044084 -0.95416945 0.96578074 0.16059715
-6.81680965 7.93490124 0.66561896 -0.97428954 0.95740551 0.34433776
-6.40556955 8.01950073 0.58675998 -0.91551322 0.96761310 0.30354246
-6.67428970 7.93950605 1.02781212 -0.95391995 0.95796114 0.53170741
-6.31214619 8.07245350 0.94366199 -0.90216076 0.97400224 0.48817489
-6.50403166 8.08026981 1.32304716 -0.92958587 0.97494531 0.68443829
-6.97803879 8.01957035 0.67864424 -0.99733317 0.96762151 0.35107601
-6.44706821 7.96822119 0.58577359 -0.92144442 0.96142584 0.30303219
-6.79765272 7.98352623 1.04055309 -0.97155154 0.96327251 0.53829855
-6.49947929 8.20596409 0.96697897 -0.92893523 0.99011129 0.50023723
-6.57339954 8.06230450 1.32723486 -0.93950027 0.97277766 0.68660468
-6.49826765 7.92910147 0.58591449 -0.92876208 0.95670575 0.30310509
-6.98063087 8.11992359 1.06558788 -0.99770361 0.97972983 0.55124956
-6.45628834 8.07256794 0.95311481 -0.92276222 0.97401601 0.49306500
-6.61006355 8.02970791 1.32695568 -0.94474047 0.96884465 0.68646026
-6.55056190 8.15034771 0.24482243 -0.93623620 0.98340076 0.12665145
-6.54824829 7.91378689 0.58732367 -0.93590552 0.95485789 0.30383408
-6.49439240 8.01636410 0.95101422 -0.92820823 0.96723461 0.49197835
-6.54499531 8.03917027 0.24153017 -0.93544060 0.96998638 0.12494830
-6.62852526 7.90924501 0.59070557 -0.94737911 0.95430988 0.30558360
-6.49648571 8.13178921 1.55558503 -0.92850739 0.98116153 0.80473471
-6.53708029 7.96616077 0.94975382 -0.93430936 0.96117723 0.49132630
-6.58269167 7.98244381 0.24079856 -0.94082832 0.96314186 0.12456983
-6.73218727 7.93142843 0.59662396 -0.96219492 0.95698649 0.30864528
-6.56606102 8.11390018 1.56011403 -0.93845141 0.97900307 0.80707765
-6.60476017 7.94637918 0.95269471 -0.94398248 0.95879042 0.49284768
-6.66211605 7.97626495 0.24248126 -0.95218003 0.96239638 0.12544031
-6.82989931 7.94504213 0.60183775 -0.97616041 0.95862907 0.31134248
-6.59065485 8.04032326 1.55377352 -0.94196647 0.97012550 0.80379754
-6.68267250 7.93825293 0.95731610 -0.95511806 0.95780993 0.49523842
-6.32010365 8.11879349 0.89731908 -0.90329808 0.97959352 0.46420079
-6.49619532 8.10506058 1.26646698 -0.92846590 0.97793651 0.65516824
-6.45191860 8.01286602 0.53346169 -0.92213768 0.96681255 0.27597022
-6.66120243 8.02313232 1.55860436 -0.95204943 0.96805125 0.80629665
-6.83798981 8.02042103 0.97454119 -0.97731674 0.96772414 0.50414932
-6.35987282 8.06488228 0.89551598 -0.90898204 0.97308868 0.46326801
-6.55074883 8.06869316 1.26727164 -0.93626291 0.97354853 0.65558451
-6.48949242 7.95672846 0.53215879 -0.92750788 0.96003914 0.27529618
-6.88347673 7.99716854 0.97580159 -0.98381793 0.96491855 0.50480133
-6.46118116 8.11408997 0.90573364 -0.92346150 0.97902596 0.46855381
-6.57988262 8.02702141 1.26539421 -0.94042689 0.96852052 0.65461326
-6.53581762 7.93682623 0.53307080 -0.93412888 0.95763779 0.27576798
-6.47070742 8.02230167 0.89912224 -0.92482305 0.96795106 0.46513358
-6.70759916 8.07838535 1.28175402 -0.95868069 0.97471797 0.66307652
-6.61246538 7.92773581 0.53580689 -0.94508374 0.95654094 0.27718344
-6.50836420 7.96610165 0.89711875 -0.93020511 0.96117008 0.46409714
-6.58847857 8.03546810 0.19219880 -0.94165546 0.96953964 0.09942821
-6.73443842 7.97126436 0.54310304 -0.96251667 0.96179301 0.28095788
-6.55701637 7.92352057 0.89691842 -0.93715870 0.95603234 0.46399352
-6.46588612 8.15696239 1.19579720 -0.92413396 0.98419887 0.61860937
-6.64651728 8.00312519 0.19257984 -0.94995058 0.96563727 0.09962533
-6.81430101 7.96361256 0.54609972 -0.97393101 0.96086973 0.28250811
-6.64511061 7.92784166 0.90292877 -0.94974953 0.95655370 0.46710280
-6.30660439 8.09053802 0.81529558 -0.90136868 0.97618425 0.42176843
-6.45629835 8.04026222 1.18333220 -0.92276365 0.97011811 0.61216098
-6.92708158 7.99291182 0.55235356 -0.99005014 0.96440494 0.28574336
-6.46482992 8.01271057 0.47528714 -0.92398298 0.96679378 0.24587537
-6.76099157 7.98894548 0.91514987 -0.96631175 0.96392637 0.47342500
-6.31394529 8.02154827 0.81066686 -0.90241790 0.96786016 0.41937390
-6.50408554 8.02209568 1.18536735 -0.92959356 0.96792620 0.61321384
-6.50125933 7.98060656 0.47516820 -0.92918968 0.96292019 0.24581385
-6.92397642 8.07753468 0.93257993 -0.98960632 0.97461534 0.48244190
-6.40632725 8.03474140 0.81696188 -0.91562152 0.96945196 0.42263043
-6.56064081 7.98874903 1.18663919 -0.93767673 0.96390265 0.61387175
-6.55380964 7.94268560 0.47540608 -0.93670040 0.95834476 0.24593690
-6.99158859 8.05337334 0.93518442 -0.99926978 0.97170007 0.48378927
-6.45793200 7.99588251 0.81714702 -0.92299712 0.96476334 0.42272621
-6.71195364 8.06957722 1.20699012 -0.95930302 0.97365516 0.62439972
-6.63423920 7.93817616 0.47826073 -0.94819576 0.95780069 0.24741367
-6.49043322 7.93353510 0.81455493 -0.92764235 0.95724070 0.42138526
-6.73288631 7.95433760 0.48278058 -0.96229482 0.95975065 0.24975188
-6.54395533 7.89720583 0.81511039 -0.93529195 0.95285726 0.42167261
-6.83329296 7.97108889 0.48741937 -0.97664541 0.96177185 0.25215161
-6.49660206 8.28792095 1.92572224 -0.92852402 1.00000000 0.99621391
-6.61388111 7.88037968 0.81807280 -0.94528610 0.95082706 0.42320514
-6.47715473 8.18309784 1.90815759 -0.92574453 0.98735231 0.98712742
-6.72800589 7.94043684 0.82918167 -0.96159732 0.95807344 0.42895195
-6.52353430 8.13609409 1.90669394 -0.93237329 0.98168093 0.98637021
-6.89809895 8.03878689 0.84640050 -0.98590779 0.96994013 0.43785959
-6.47806931 7.97570801 1.87815142 -0.92587525 0.96232915 0.97160459
-6.99669790 8.05099392 0.85325098 -1.00000000 0.97141296 0.44140348
-6.64519691 8.07781029 1.91254878 -0.94976187 0.97464859 0.98939908
-6.76614094 8.12062740 1.93304086 -0.96704775 0.97981477 1.00000000
