-12.74933434 -3.15710783 2.25477600 -0.97585267 -0.91922027 0.99666113
-12.73688126 -3.23910570 2.25614929 -0.97489953 -0.94309467 0.99726820
-12.75057983 -3.32807922 2.26232958 -0.97594804 -0.96900016 1.00000000
-12.78976727 -3.08238339 1.01344049 -0.97894746 -0.89746356 0.44796324
-12.99041176 -3.00171709 1.48835254 -0.99430507 -0.87397689 0.65788496
-12.63482380 -3.12894559 1.00123000 -0.96708786 -0.91102058 0.44256595
-12.85637093 -3.03444004 1.47333014 -0.98404545 -0.88350445 0.65124470
-12.62959290 -3.19090605 1.00210226 -0.96668750 -0.92906094 0.44295150
-12.60158348 -3.26818395 1.00140452 -0.96454364 -0.95156109 0.44264308
-12.90494061 -3.05440903 2.20753336 -0.98776299 -0.88931859 0.97577888
-12.64007473 -3.15129495 1.45103872 -0.96748978 -0.91752779 0.64139140
-12.60197067 -3.35296512 1.00332320 -0.96457326 -0.97624588 0.44349116
-12.60656738 -3.22718453 1.44934273 -0.96492511 -0.93962371 0.64064175
-12.70668793 -3.17687821 2.17986727 -0.97258848 -0.92497659 0.96354985
-12.64937973 -3.32307434 1.45733845 -0.96820199 -0.96754295 0.64417601
-12.96587944 -2.94307971 1.40890360 -0.99242735 -0.85690409 0.62276673
-12.72278309 -3.26591325 2.18620062 -0.97382039 -0.95089996 0.96634930
-12.52669716 -3.37495518 1.44449675 -0.95881170 -0.98264849 0.63849968
-12.66846371 -2.95983982 1.37560391 -0.96966273 -0.86178392 0.60804754
-12.84452724 -3.18184114 0.95264953 -0.98313886 -0.92642158 0.42109227
-12.66790676 -3.02271199 1.37722266 -0.96962011 -0.88008970 0.60876304
-12.63606834 -3.19379210 0.93621647 -0.96718311 -0.92990124 0.41382852
-12.67182636 -3.10788894 1.37999761 -0.96992010 -0.90488976 0.60998964
-12.63505268 -3.27809882 0.93785977 -0.96710539 -0.95444787 0.41455489
-12.63084984 -3.18214107 1.37745380 -0.96678370 -0.92650890 0.60886520
-12.67008877 -3.37220263 0.94262534 -0.96978712 -0.98184705 0.41666138
-12.64331627 -3.26984477 1.38138509 -0.96773791 -0.95204467 0.61060292
-12.51110744 -3.31984329 1.36797273 -0.95761847 -0.96660215 0.60467440
-12.63189602 -2.95510364 2.06561995 -0.96686381 -0.86040497 0.91305000
-12.82477760 -2.93623614 1.34097099 -0.98162723 -0.85491151 0.59273899
-12.93214703 -3.19308352 0.88536268 -0.98984545 -0.92969495 0.39135000
-12.79344749 -3.07810521 2.09565568 -0.97922915 -0.89621794 0.92632645
-12.67538166 -2.96474171 1.32532418 -0.97019225 -0.86321115 0.58582276
-12.72778511 -3.17168546 1.77624667 -0.97420329 -0.92346466 0.78514051
-12.67533684 -3.19272876 0.86620790 -0.97018880 -0.92959166 0.38288316
-12.69899940 -3.05461645 1.33024180 -0.97199994 -0.88937896 0.58799648
-12.66352654 -3.24024177 1.76959944 -0.96928483 -0.94342548 0.78220230
-12.71871090 -3.28887987 0.87126476 -0.97350872 -0.95758688 0.38511840
-12.66889095 -3.19575143 2.08063769 -0.96969545 -0.93047172 0.91968817
-12.70462894 -3.14058495 1.33314753 -0.97243088 -0.91440952 0.58928084
-12.66205120 -3.32480025 1.77248955 -0.96917188 -0.96804541 0.78347981
-12.66575623 -3.27976990 2.08351350 -0.96945548 -0.95493442 0.92095929
-12.67116547 -3.21690369 1.33158290 -0.96986949 -0.93663037 0.58858925
-12.99099350 -2.99362206 1.74014628 -0.99434960 -0.87161994 0.76918334
-12.67761803 -3.30351305 1.33471227 -0.97036344 -0.96184748 0.58997250
-12.55489063 -3.35574389 1.32286537 -0.96096969 -0.97705495 0.58473593
-12.72676659 -2.91217422 1.24027050 -0.97412533 -0.84790564 0.54822713
-12.98314667 -3.16408682 1.74461317 -0.99374902 -0.92125225 0.77115786
-12.66367340 -2.98166633 1.23543894 -0.96929610 -0.86813891 0.54609150
-12.78539848 -3.23541784 0.79333955 -0.97861308 -0.94202095 0.35067374
-12.67463207 -3.04731441 1.23816979 -0.97013485 -0.88725293 0.54729861
-12.63468075 -3.22724867 1.69910645 -0.96707696 -0.93964243 0.75104284
-12.71203518 -3.28076482 0.78911215 -0.97299773 -0.95522410 0.34880513
-12.66875648 -3.13020921 1.23964024 -0.96968514 -0.91138852 0.54794854
-12.63715172 -3.31256056 1.70245659 -0.96726608 -0.96448171 0.75252366
-12.71625233 -3.36717153 0.79094398 -0.97332054 -0.98038220 0.34961483
-12.77806759 -3.06492972 1.97285604 -0.97805196 -0.89238179 0.87204623
-12.65848160 -3.21217799 1.24069059 -0.96889865 -0.93525445 0.54841286
-12.82577038 -3.16161394 1.98342371 -0.98170322 -0.92053229 0.87671739
-12.59568787 -3.28068686 1.23606920 -0.96409237 -0.95520145 0.54637009
-13.01310825 -3.06829309 1.67009699 -0.99604231 -0.89336109 0.73822004
-12.65993309 -3.20548344 1.96047676 -0.96900976 -0.93330526 0.86657435
-12.52484512 -3.34649229 1.23060751 -0.95866996 -0.97436124 0.54395592
-12.82473373 -2.91694689 1.18561625 -0.98162389 -0.84929526 0.52406877
-13.06481457 -3.16738129 1.68002009 -1.00000000 -0.92221147 0.74260628
-12.62997150 -3.28249264 1.95896709 -0.96671647 -0.95572722 0.86590701
-12.67909050 -2.94651365 1.17199278 -0.97047609 -0.85790390 0.51804686
-12.83484268 -3.20627928 0.72550750 -0.98239762 -0.93353701 0.32069045
-12.69902039 -3.03543258 1.17599976 -0.97200155 -0.88379341 0.51981807
-12.69317150 -3.22491336 1.63308644 -0.97155392 -0.93896246 0.72186053
-12.61154079 -3.23448253 0.71182716 -0.96530575 -0.94174862 0.31464344
-12.73378563 -3.12854028 1.18160939 -0.97466254 -0.91090256 0.52229762
-12.68991184 -3.30913043 1.63550019 -0.97130442 -0.96348304 0.72292745
-12.67916107 -3.19966841 1.17800319 -0.97048151 -0.93161219 0.52070361
-13.03654194 -2.98778844 1.57610500 -0.99783599 -0.86992145 0.69667345
-12.72397995 -3.43454981 0.72225028 -0.97391200 -1.00000000 0.31925070
-12.60103989 -3.26420975 1.17199278 -0.96450204 -0.95040399 0.51804686
-13.00012875 -3.06556869 1.57381558 -0.99504888 -0.89256781 0.69566149
-12.56874752 -3.34023476 1.17079079 -0.96203029 -0.97253931 0.51751560
-12.89932823 -3.01622772 1.09320331 -0.98733342 -0.87820178 0.48322019
-12.65054989 -3.15195465 1.53285933 -0.96829158 -0.91771990 0.67755795
-12.66795349 -3.02550817 1.07246661 -0.96962368 -0.88090384 0.47405410
-12.62016869 -3.20764828 1.53082418 -0.96596617 -0.93393558 0.67665833
-12.72416973 -3.26532388 0.64454389 -0.97392654 -0.95072836 0.28490272
-12.66417217 -3.10881710 1.07394791 -0.96933424 -0.90516001 0.47470886
-12.59400463 -3.28538609 1.53006101 -0.96396351 -0.95656967 0.67632103
-12.67829323 -3.33863688 0.64299762 -0.97041512 -0.97207409 0.28421926
-12.63473034 -3.18590713 1.07302213 -0.96708071 -0.92760545 0.47429964
-12.53477097 -3.35425520 1.52497327 -0.95942968 -0.97662151 0.67407209
-12.53731728 -3.24538922 1.06561613 -0.95962459 -0.94492418 0.47102603
-12.57444382 -3.33934283 1.07117057 -0.96246630 -0.97227961 0.47348121
