-14.53856945 5.21384478 1.21386552 -0.98363340 0.98467994 0.59219885
-14.52214909 5.10527802 1.20933020 -0.98252243 0.96417618 0.58998621
-14.54074764 5.00940752 1.20810914 -0.98378074 0.94607019 0.58939052
-14.39116383 5.11253071 1.72507668 -0.97366041 0.96554589 0.84159929
-14.47016716 5.10963440 0.67965573 -0.97900552 0.96499890 0.33157820
-14.31130791 4.83036995 1.18403721 -0.96825761 0.91225737 0.57764673
-14.56180668 5.07013178 1.74300659 -0.98520553 0.95753849 0.85034662
-14.50576305 5.01991653 0.67986858 -0.98141384 0.94805491 0.33168203
-14.66878700 4.84808779 1.21421432 -0.99244350 0.91560358 0.59236902
-14.71744156 5.02068043 1.75899816 -0.99573529 0.94819921 0.85814828
-14.51052570 4.91973305 0.67837876 -0.98173606 0.92913443 0.33095521
-14.78047562 4.96449327 1.76408648 -1.00000000 0.93758774 0.86063069
-14.52786255 4.84940958 0.67805946 -0.98290902 0.91585320 0.33079943
-14.44848061 5.18769169 1.12733316 -0.97753829 0.97974074 0.54998296
-14.55972099 5.12470627 1.13423502 -0.98506445 0.96784538 0.55335015
-14.45708084 5.20560360 1.64986384 -0.97812015 0.98312354 0.80490583
-14.55961514 5.02203274 1.13144147 -0.98505729 0.94845456 0.55198729
-14.43894768 5.09674406 1.64362013 -0.97689331 0.96256447 0.80185974
-14.54746914 4.91571999 1.12766182 -0.98423553 0.92837650 0.55014330
-14.52278996 5.04101038 0.59481615 -0.98256582 0.95203871 0.29018816
-14.42485809 4.77329302 1.11435103 -0.97594005 0.90147793 0.54364949
-14.71060181 4.98595858 1.66928864 -0.99527258 0.94164169 0.81438243
-14.56930065 4.95482826 0.59557796 -0.98571259 0.93576247 0.29055983
-14.68992043 5.27930641 1.06128025 -0.99387330 0.99704295 0.51775825
-14.45560265 5.09315968 1.03952038 -0.97802013 0.96188754 0.50714248
-14.51749134 5.01260567 1.04197228 -0.98220730 0.94667423 0.50833863
-14.40824795 5.15031052 1.58215463 -0.97481626 0.97268099 0.77187306
-14.58082676 4.93211126 1.04457724 -0.98649240 0.93147212 0.50960952
-14.54541016 5.09634352 1.59467208 -0.98409623 0.96248883 0.77797985
-14.45997906 5.02571201 0.52062273 -0.97831625 0.94914943 0.25399202
-14.42972469 4.78044033 1.02986646 -0.97626930 0.90282774 0.50243270
-14.71630955 5.05242729 1.61121297 -0.99565876 0.95419484 0.78604954
-14.55371761 4.95593119 0.52345955 -0.98465830 0.93597072 0.25537601
-14.71170044 4.97351170 1.60786009 -0.99534690 0.93929094 0.78441381
-14.64981747 5.28061008 0.96173143 -0.99116009 0.99728918 0.46919218
-14.46460724 5.11106777 0.94538546 -0.97862935 0.96526963 0.46121761
-14.65940189 5.11981821 2.04976010 -0.99180853 0.96692222 1.00000000
-14.49455070 5.01942873 0.94524455 -0.98065525 0.94796282 0.46114886
-14.38303471 5.15029478 1.47491038 -0.97311044 0.97267801 0.71955270
-14.58078003 4.98963308 2.03328824 -0.98648924 0.94233561 0.99196398
-14.53524494 4.93147564 0.94594914 -0.98340845 0.93135208 0.46149260
-14.42824173 5.06445122 1.47638083 -0.97616899 0.95646566 0.72027004
-14.47496605 5.03972912 0.42311645 -0.97933018 0.95179671 0.20642242
-14.57918930 4.84447241 0.94693553 -0.98638159 0.91492075 0.46197385
-14.66844845 5.04578304 1.49969780 -0.99242061 0.95294005 0.73164552
-14.53281593 4.95775080 0.42414072 -0.98324412 0.93631440 0.20692213
-14.50883389 4.71992922 0.93946707 -0.98162156 0.89139968 0.45833024
-14.62051105 4.95226240 1.49171543 -0.98917729 0.93527788 0.72775126
-14.64442062 5.29496384 0.87846661 -0.99079496 1.00000000 0.42857045
-14.65898418 5.23567629 1.96725452 -0.99178028 0.98880303 0.95974869
-14.57765865 5.16763639 0.87156129 -0.98627806 0.97595310 0.42520159
-14.52690220 5.08605289 1.94365358 -0.98284405 0.96054536 0.94823468
-14.47781467 5.03026533 0.86244106 -0.97952294 0.95000941 0.42075220
-14.37327480 5.16038179 1.39898431 -0.97245008 0.97458303 0.68251127
-14.71048927 5.04657269 1.96537721 -0.99526495 0.95308918 0.95883280
-14.51291466 4.94048119 0.86270165 -0.98189765 0.93305284 0.42087933
-14.38100052 5.06141472 1.39637983 -0.97297281 0.95589221 0.68124062
-14.53988171 4.84793949 0.86244106 -0.98372221 0.91557556 0.42075220
-14.65342140 5.05368662 1.42202401 -0.99140394 0.95443273 0.69375145
-14.52291298 4.97892952 0.34981909 -0.98257411 0.94031417 0.17066343
-14.52640057 4.74230051 0.85944444 -0.98281008 0.89562470 0.41929024
-14.57716465 4.95079327 1.41140568 -0.98624462 0.93500042 0.68857116
-14.58618832 5.27950430 0.78608674 -0.98685515 0.99708033 0.38350183
-14.49882984 5.18472385 1.83557928 -0.98094475 0.97918022 0.89550930
-14.43477058 5.12207937 0.77443027 -0.97661072 0.96734929 0.37781507
-14.47498322 5.07376289 1.82794762 -0.97933137 0.95822430 0.89178610
-14.46101379 5.02930737 0.77407342 -0.97838622 0.94982845 0.37764099
-14.47955894 5.20904684 1.29223776 -0.97964096 0.98377383 0.63043368
-14.71848679 5.05581570 1.85669339 -0.99580604 0.95483482 0.90581012
-14.47343922 4.93188286 0.77288401 -0.97922689 0.93142897 0.37706071
-14.43503857 5.09070969 1.28464675 -0.97662884 0.96142483 0.62673026
-14.76123905 4.96704817 1.85821962 -0.99869853 0.93807030 0.90655470
-14.51739120 4.84528923 0.77371663 -0.98220056 0.91507506 0.37746692
-14.56832886 5.03517389 1.29464471 -0.98564684 0.95093644 0.63160789
-14.54565144 4.75335598 0.77359766 -0.98411256 0.89771265 0.37740886
-14.49579239 4.93361616 1.28520215 -0.98073924 0.93175632 0.62700123
-14.63603115 4.87911177 1.29594076 -0.99022734 0.92146271 0.63224024
