3.70703626 5.59076738 2.23699403 0.95885479 0.94939035 0.83655071
3.57568169 5.36467171 1.42963994 0.92487884 0.91099614 0.53463095
3.68215609 5.62983322 2.24341106 0.95241928 0.95602429 0.83895040
3.54190397 5.38703251 1.42963994 0.91614199 0.91479331 0.53463095
3.63611865 5.61685038 2.23121881 0.94051135 0.95381963 0.83439100
3.75110698 5.58247471 2.63494444 0.97025400 0.94798213 0.98536903
3.77013898 5.68821144 2.67406869 0.97517681 0.96593773 1.00000000
3.48462725 5.50521708 1.44514120 0.90132689 0.93486273 0.54042786
3.61733174 5.51807928 1.83947003 0.93565196 0.93704689 0.68789184
3.44277549 5.51539898 1.44204092 0.89050162 0.93659174 0.53926849
3.65524673 5.66783714 2.64232635 0.94545901 0.96247786 0.98812956
3.55243993 5.49375391 1.82362080 0.91886717 0.93291610 0.68196481
3.40805340 5.53692150 1.44204092 0.88152045 0.94024658 0.53926849
3.65238476 5.72267532 2.66004300 0.94471872 0.97179019 0.99475491
3.51103187 5.48607826 1.81542301 0.90815663 0.93161267 0.67889917
3.38394213 5.55625772 1.44292665 0.87528390 0.94353014 0.53959972
3.47138381 5.49987984 1.81269038 0.89790136 0.93395638 0.67787725
3.55195236 5.60811853 1.12276113 0.91874105 0.95233685 0.41986996
3.37393379 5.61929035 1.45399892 0.87269515 0.95423394 0.54374033
3.43068981 5.51176357 1.80941117 0.88737553 0.93597442 0.67665094
3.32681918 5.64986181 2.18565893 0.86050856 0.95942545 0.81735331
3.71849275 5.61749077 2.20000815 0.96181810 0.95392835 0.82271940
3.50625920 5.61358213 1.11932766 0.90692216 0.95326465 0.41858599
3.37314820 5.69922876 1.46950006 0.87249196 0.96780860 0.54953712
3.58052540 5.39167356 1.39793873 0.92613173 0.91558146 0.52277595
3.40199804 5.54306698 1.81269038 0.87995416 0.94129014 0.67787725
3.32624888 5.73137951 2.20940137 0.86036104 0.97326827 0.82623208
3.67686820 5.63122606 2.19622898 0.95105153 0.95626080 0.82130611
3.44727254 5.59684324 1.11143076 0.89166480 0.95042211 0.41563284
3.34118295 5.72706079 1.47127163 0.86422384 0.97253489 0.55019963
3.54012704 5.40428305 1.39534593 0.91568238 0.91772270 0.52180630
3.86610818 5.69828653 2.64856887 1.00000000 0.96764863 0.99046403
3.37899351 5.58412218 1.81924868 0.87400389 0.94826192 0.68032980
3.63212037 5.63988209 2.19056010 0.93947715 0.95773071 0.81918615
3.41712642 5.62682867 1.11314750 0.88386726 0.95551407 0.41627485
3.31867123 5.77165318 1.47747207 0.85840100 0.98010731 0.55251837
3.51675034 5.44278812 1.39966726 0.90963578 0.92426139 0.52342230
3.85417271 5.75801134 2.66527748 0.99691278 0.97779071 0.99671245
3.36247015 5.63669300 1.82963252 0.86973000 0.95718920 0.68421298
3.59252214 5.65619469 2.18804073 0.92923474 0.96050084 0.81824404
3.40284967 5.68375349 1.12035775 0.88017446 0.96518070 0.41897118
3.29764342 5.81958723 1.48455834 0.85296202 0.98824716 0.55516839
3.49513817 5.48449898 1.40485299 0.90404564 0.93134451 0.52536160
3.73705912 5.64122868 2.60207558 0.96662045 0.95795941 0.97307730
3.34462476 5.66741419 1.83455133 0.86511409 0.96240604 0.68605244
3.67187476 5.55203390 1.80307651 0.94975996 0.94281286 0.67428207
3.27587271 5.84528780 1.48721564 0.84733087 0.99261147 0.55616212
3.48809767 5.53058052 1.41263139 0.90222454 0.93916976 0.52827042
3.69232488 5.65058661 2.59553742 0.95504957 0.95954847 0.97063231
3.33108068 5.72663450 1.84712136 0.86161083 0.97246248 0.69075316
3.60093665 5.52020645 1.78497851 0.93141127 0.93740815 0.66751409
3.23533082 5.85891485 1.48544407 0.83684438 0.99492556 0.55549961
3.44913340 5.54576731 1.41090286 0.89214611 0.94174874 0.52762401
3.66181946 5.68149042 2.59916973 0.94715905 0.96479642 0.97199064
3.56932569 5.54757690 1.78657544 0.92323482 0.94205600 0.66811126
3.50221705 5.73035479 2.19307971 0.90587664 0.97309422 0.82012844
3.43781972 5.60554314 1.42084193 0.88921976 0.95189947 0.53134084
3.51883006 5.54552460 1.77859104 0.91017371 0.94170749 0.66512543
3.44546604 5.71816587 2.17985249 0.89119750 0.97102439 0.81518191
3.49448657 5.50576019 1.06823051 0.90387708 0.93495494 0.39947760
3.39542222 5.61535788 1.41781700 0.87825328 0.95356619 0.53020966
3.13544917 5.64579439 2.52864456 0.81100917 0.95873469 0.94561690
3.48288941 5.56589365 1.77805877 0.90087736 0.94516647 0.66492635
3.41044450 5.74133062 2.18048239 0.88213891 0.97495812 0.81541747
3.53868532 5.65273142 1.09322989 0.91530943 0.95991272 0.40882641
3.39223599 5.69015598 1.43164539 0.87742913 0.96626794 0.53538096
3.04491401 5.56411028 2.48287654 0.78759152 0.94486362 0.92850143
3.44276214 5.57947969 1.77539730 0.89049816 0.94747353 0.66393107
3.38490915 5.78063202 2.18741083 0.87553400 0.98163205 0.81800848
3.48227906 5.64135599 1.08656335 0.90071952 0.95798099 0.40633339
3.35442781 5.70799685 1.43078113 0.86764973 0.96929759 0.53505772
3.43258691 5.62191772 1.78391397 0.88786626 0.95468014 0.66711599
3.76086950 5.61970139 2.15514207 0.97277915 0.95430374 0.80594116
3.45359015 5.65434361 1.08589673 0.89329886 0.96018648 0.40608409
3.34327817 5.75070381 1.43769526 0.86476582 0.97654980 0.53764337
3.39919448 5.64667177 1.78497851 0.87922901 0.95888370 0.66751409
3.70252943 5.60821819 2.14158297 0.95768905 0.95235378 0.80087060
3.43026495 5.69616604 1.08989668 0.88726562 0.96728855 0.40757990
3.31098390 5.77836180 1.43942380 0.85641265 0.98124653 0.53828979
3.53742552 5.37112570 1.34123671 0.91498357 0.91209215 0.50157154
3.38441753 5.70266962 1.79615664 0.87540686 0.96839291 0.67169428
3.66411853 5.62657833 2.13973403 0.94775373 0.95547158 0.80017918
3.29102325 5.82790756 1.44677007 0.85124964 0.98966008 0.54103696
3.54283738 5.45405293 1.35671365 0.91638339 0.92617434 0.50735933
3.36124158 5.74541569 1.80307651 0.86941218 0.97565180 0.67428207
3.61129594 5.62222195 2.12925649 0.93409073 0.95473176 0.79626095
3.26293302 5.86380196 1.45065939 0.84398389 0.99575543 0.54249144
3.51374841 5.48445559 1.35880518 0.90885931 0.93133712 0.50814146
3.83876419 5.74951363 2.59483361 0.99292725 0.97634768 0.97036910
3.62251139 5.71887922 2.15760732 0.93699175 0.97114557 0.80686307
3.47402167 5.49814177 1.35671365 0.89858365 0.93366122 0.50735933
3.16614938 5.56373835 2.45968938 0.81895000 0.94480044 0.91983026
3.71044326 5.63275146 2.53081632 0.95973599 0.95651984 0.94642907
3.45690203 5.54813433 1.36382473 0.89415556 0.94215065 0.51001859
3.13162351 5.56400824 2.45315123 0.81001961 0.94484627 0.91738528
3.68080974 5.64546728 2.52868223 0.95207107 0.95867914 0.94563097
3.58753633 5.51968241 1.72938085 0.92794514 0.93731916 0.64672267
3.52158093 5.69674969 2.13418698 0.91088527 0.96738762 0.79810476
3.42969751 5.56269503 1.36340642 0.88711888 0.94462329 0.50986212
3.02116084 5.44856024 2.39285517 0.78144759 0.92524159 0.89483684
3.63419652 5.65115547 2.52085805 0.94001418 0.95964509 0.94270504
3.53825903 5.51930046 1.72213328 0.91519916 0.93725431 0.64401233
3.47192335 5.69597673 2.12555861 0.89804095 0.96725637 0.79487807
3.40983963 5.60924959 1.36968088 0.88198245 0.95252889 0.51220858
3.50761962 5.54796696 1.72420406 0.90727407 0.94212228 0.64478678
3.43606615 5.71767855 2.12555861 0.88876617 0.97094166 0.79487807
3.46225882 5.51887178 1.02044094 0.89554113 0.93718147 0.38160610
3.38553095 5.64905071 1.37428212 0.87569481 0.95928770 0.51392925
3.01731014 5.60566616 2.44588661 0.78045154 0.95192039 0.91466856
3.47879362 5.57975101 1.72731018 0.89981794 0.94751960 0.64594835
3.82920671 5.47727394 1.69431233 0.99045515 0.93011761 0.63360840
3.40007329 5.73915529 2.12555861 0.87945634 0.97458869 0.79487807
3.72312140 5.60122728 2.07804894 0.96301532 0.95116657 0.77711129
3.49365425 5.64818001 1.04089069 0.90366179 0.95913982 0.38925353
3.36283517 5.69214106 1.37971997 0.86982441 0.96660501 0.51596278
3.59516382 5.44002485 1.30161989 0.92991805 0.92379218 0.48675635
3.43964005 5.59490347 1.72523940 0.88969058 0.95009273 0.64517391
3.76269269 5.45510101 1.67978561 0.97325075 0.92635232 0.62817591
3.37730885 5.78344822 2.13418698 0.87356812 0.98211026 0.79810476
3.66578293 5.59106779 2.06545949 0.94818425 0.94944137 0.77240330
3.45298266 5.66157579 1.03929305 0.89314175 0.96141464 0.38865608
3.33287835 5.72331619 1.38222980 0.86207581 0.97189897 0.51690137
3.55768728 5.45759249 1.30041575 0.92022443 0.92677540 0.48630604
3.41238880 5.62964582 1.72938085 0.88264185 0.95599246 0.64672267
3.68895006 5.42112875 1.66175246 0.95417660 0.92058337 0.62143224
3.61288381 5.58680677 2.05526805 0.93450147 0.94871777 0.76859212
3.42442751 5.69502544 1.04152977 0.88575572 0.96709484 0.38949254
3.31912398 5.78322649 1.39185059 0.85851812 0.98207259 0.52049917
3.52652049 5.48477268 1.30161989 0.91216290 0.93139100 0.48675635
3.39471793 5.66060209 1.73404002 0.87807113 0.96124929 0.64846504
3.61228704 5.36313295 1.63820910 0.93434709 0.91073483 0.61262792
3.59271741 5.61339331 2.05886507 0.92928529 0.95323259 0.76993722
3.41562819 5.74169636 1.04728138 0.88347971 0.97502023 0.39164340
3.29951692 5.81243324 1.39519691 0.85344660 0.98703229 0.52175057
3.50063491 5.50132990 1.30161989 0.90546739 0.93420261 0.48675635
3.78433561 5.66226625 2.49335027 0.97884887 0.96153188 0.93241817
3.37375474 5.70680952 1.74180520 0.87264884 0.96909595 0.65136892
3.56863379 5.65357018 2.06545949 0.92305583 0.96005517 0.77240330
3.27052832 5.84672785 1.39854336 0.84594846 0.99285603 0.52300203
3.47018671 5.52984142 1.30322552 0.89759171 0.93904430 0.48735678
3.70825410 5.62500525 2.46619630 0.95916975 0.95520443 0.92226362
3.35331202 5.75464821 1.75008810 0.86736113 0.97721964 0.65446639
3.62139606 5.52445841 1.67427540 0.93670326 0.93813020 0.62611532
3.44366312 5.56483936 1.30643666 0.89073116 0.94498742 0.48855764
3.68002605 5.65917492 2.47107005 0.95186836 0.96100694 0.92408621
3.58450079 5.54385757 1.67327356 0.92715997 0.94142443 0.62574071
3.50132108 5.70445967 2.06785750 0.90564489 0.96869689 0.77330005
3.42811918 5.61808443 1.31406307 0.88671064 0.95402920 0.49140963
3.18778682 5.61111736 2.41985250 0.82454669 0.95284605 0.90493280
3.65558243 5.69951153 2.47872877 0.94554579 0.96785665 0.92695028
3.51821423 5.51739025 1.65824604 0.91001445 0.93692988 0.62012094
3.45151043 5.70353508 2.05946445 0.89276093 0.96853989 0.77016139
3.62963319 5.75499296 1.00516176 0.93883383 0.97727817 0.37589228
3.40493488 5.65962219 1.31887972 0.88071382 0.96108288 0.49321085
3.13067722 5.59182215 2.40278125 0.80977488 0.94956946 0.89854884
3.48347831 5.53938675 1.65824604 0.90102971 0.94066519 0.62012094
3.41462374 5.72347355 2.05886507 0.88321990 0.97192574 0.76993722
3.52835345 5.67378950 0.98644197 0.91263700 0.96348870 0.36889178
3.39040542 5.71622849 1.32730901 0.87695563 0.97069544 0.49636310
3.07124352 5.56711388 2.38357592 0.79440188 0.94537365 0.89136672
3.44860458 5.56116438 1.65824604 0.89200932 0.94436336 0.62012094
3.39123440 5.76615763 2.06665850 0.87717009 0.97917408 0.77285171
3.50094342 5.70930529 0.98885745 0.90554720 0.96951973 0.36979508
3.35740495 5.74248314 1.32851315 0.86841983 0.97515380 0.49681339
3.04052544 5.57330608 2.38001943 0.78645641 0.94642520 0.89003676
3.43253803 5.59382534 1.66325521 0.88785356 0.94990963 0.62199420
3.47503090 5.72742653 0.98915935 0.89884472 0.97259700 0.36990798
3.34312630 5.78025055 1.33373117 0.86472654 0.98156726 0.49876475
3.40236068 5.62354994 1.66575980 0.88004798 0.95495731 0.62293082
3.66583657 5.54281807 1.98272610 0.94819814 0.94124788 0.74146414
3.32039857 5.82493114 1.33935070 0.85884780 0.98915464 0.50086623
3.38191509 5.66971397 1.67327356 0.87475955 0.96279657 0.62574071
3.65676212 5.36023808 1.58025861 0.94585097 0.91024327 0.59095663
3.60387921 5.52398539 1.96761823 0.93217236 0.93804985 0.73581439
3.46900177 5.34810400 1.21085680 0.89728522 0.90818274 0.45281440
3.38766050 5.76082563 1.69431233 0.87624568 0.97826862 0.63360840
3.58849573 5.33147669 1.56480277 0.92819333 0.90535921 0.58517671
3.55261040 5.52072001 1.95832098 0.91891128 0.93749535 0.73233759
3.52584887 5.51228476 1.24382687 0.91198921 0.93606293 0.46514395
3.27300072 5.61493826 2.37777162 0.84658796 0.95349491 0.88919616
3.53035235 5.31665325 1.55369389 0.91315407 0.90284193 0.58102244
3.51275039 5.53483772 1.95541561 0.90860116 0.93989271 0.73125106
3.51028109 5.54545641 1.24766064 0.90796244 0.94169593 0.46657762
3.22767210 5.59787416 2.36384630 0.83486336 0.95059717 0.88398862
3.72049308 5.58959436 2.38297296 0.96233547 0.94919115 0.89114124
3.35315895 5.84803009 1.70933986 0.86732155 0.99307716 0.63922811
3.51692772 5.35110807 1.55900681 0.90968168 0.90869284 0.58300924
3.48865485 5.55457735 1.95657778 0.90236866 0.94324481 0.73168570
3.48467731 5.58241749 1.25111091 0.90133983 0.94797242 0.46786791
3.19336748 5.61967039 2.36454272 0.82599020 0.95429850 0.88424903
3.67707562 5.60025215 2.37755060 0.95110524 0.95100099 0.88911349
3.57988811 5.52323294 1.60344231 0.92596686 0.93792206 0.59962642
3.50181031 5.65463114 1.98446929 0.90577143 0.96023530 0.74211603
3.45158076 5.60755157 1.25187767 0.89277917 0.95224053 0.46815464
3.15615296 5.63635826 2.36315012 0.81636435 0.95713234 0.88372827
3.64181590 5.62324524 2.37755060 0.94198501 0.95490557 0.88911349
3.52638912 5.51612473 1.59474850 0.91212893 0.93671501 0.59637529
3.45827365 5.66343117 1.97982073 0.89451033 0.96172971 0.74037766
3.43147779 5.65434599 1.25762832 0.88757932 0.96018690 0.47030517
3.12614202 5.66590977 2.36732769 0.80860180 0.96215057 0.88529050
3.62254167 5.67143774 2.38839507 0.93699956 0.96308929 0.89316893
3.47621131 5.51349831 1.58750355 0.89915001 0.93626899 0.59366596
3.41083694 5.66533756 1.97284782 0.88224041 0.96205342 0.73777008
3.40390420 5.68929482 1.26069522 0.88044721 0.96612167 0.47145206
3.44455934 5.54018545 1.58895254 0.89096302 0.94080085 0.59420782
3.37420177 5.68500805 1.97226679 0.87276447 0.96539372 0.73755276
3.70605397 5.55463123 1.92198694 0.95860070 0.94325393 0.71875000
3.38396239 5.73767042 1.26682925 0.87528908 0.97433656 0.47374597
3.42582917 5.58824301 1.59668040 0.88611829 0.94896168 0.59709775
3.35571909 5.73588181 1.98272610 0.86798376 0.97403282 0.74146414
3.63821912 5.52820778 1.90455031 0.94105464 0.93876690 0.71222937
3.37164712 5.77903032 1.27257979 0.87210369 0.98136002 0.47589645
3.41147399 5.62427473 1.60247636 0.88240522 0.95508039 0.59926522
3.59528780 5.51961184 1.89555073 0.92995012 0.93730718 0.70886391
3.36154985 5.84612465 1.28293097 0.86949193 0.99275357 0.47976738
3.38003206 5.65227365 1.60440838 0.87427253 0.95983499 0.59998775
3.50750065 5.22822380 1.46379697 0.90724325 0.88782537 0.54740441
3.55532455 5.53403473 1.89273834 0.91961330 0.93975639 0.70781219
3.48611522 5.47431993 1.17373729 0.90171176 0.92961597 0.43893310
3.75900626 5.59732246 2.32065105 0.97229725 0.95050353 0.86783522
3.35425568 5.69014883 1.60923827 0.86760521 0.96626669 0.60179394
3.54795575 5.36025381 1.49528289 0.91770732 0.91024595 0.55917895
3.51016092 5.54008389 1.88711369 0.90793139 0.94078362 0.70570874
3.53572464 5.62906170 1.20301163 0.91454363 0.95589328 0.44988060
3.25856566 5.53059101 2.27656174 0.84285426 0.93917155 0.85134751
3.69548130 5.57841873 2.30283689 0.95586598 0.94729340 0.86117345
3.35335326 5.77163076 1.62662613 0.86737180 0.98010349 0.60829633
3.51313758 5.38081455 1.49481988 0.90870130 0.91373742 0.55900580
3.46506190 5.54578400 1.88148892 0.89626616 0.94175154 0.70360529
3.51797438 5.67952824 1.20923245 0.90995240 0.96446317 0.45220694
3.27168274 5.63409328 2.31112838 0.84624708 0.95674771 0.86427414
3.66035819 5.60152769 2.30283689 0.94678110 0.95121759 0.86117345
3.55230308 5.51542282 1.52676880 0.91883177 0.93659580 0.57095349
3.43419576 5.57396984 1.88373876 0.88828236 0.94653791 0.70444667
3.48015976 5.69817066 1.20850062 0.90017134 0.96762896 0.45193326
3.22599316 5.63654232 2.30367279 0.83442909 0.95716357 0.86148602
3.63947797 5.64658976 2.31207371 0.94138026 0.95886976 0.86462766
3.04284215 5.55906391 2.61343837 0.78705561 0.94400668 0.97732657
3.23787117 5.73712206 1.60489130 0.83750147 0.97424340 0.60016829
3.51967525 5.54091167 1.52769482 0.91039234 0.94092417 0.57129979
3.41312766 5.61835861 1.89161336 0.88283294 0.95407575 0.70739144
3.19051433 5.65670013 2.30367279 0.82525223 0.96058667 0.86148602
3.02526474 5.61061144 2.62886858 0.78250909 0.95276016 0.98309690
3.48271561 5.55962563 1.52676880 0.90083241 0.94410205 0.57095349
3.38866329 5.65777111 1.89780056 0.87650502 0.96076852 0.70970523
3.46884060 5.59578180 1.53232515 0.89724356 0.95024186 0.57303131
3.36589789 5.68026924 1.90005052 0.87061656 0.96458900 0.71054661
3.44075203 5.62906551 1.53556633 0.88997823 0.95589393 0.57424343
3.35155034 5.73769999 1.91242492 0.86690545 0.97434157 0.71517420
3.50939584 5.73719788 2.31471300 0.90773350 0.97425628 0.86561465
3.42348528 5.68051338 1.54390085 0.88551199 0.96463048 0.57736021
3.42134190 5.67360258 2.27974439 0.88495761 0.96345693 0.85253769
3.38872504 5.70358086 1.54436386 0.87652099 0.96854764 0.57753336
3.36720037 5.66420841 2.26720834 0.87095350 0.96186167 0.84784973
3.35776401 5.73313951 1.54667902 0.86851269 0.97356713 0.57839912
3.31811070 5.66248941 2.25797129 0.85825604 0.96156979 0.84439540
3.34514475 5.79449368 1.55779171 0.86524862 0.98398590 0.58255488
3.29329395 5.68132353 2.25929093 0.85183698 0.96476805 0.84488887
3.08911872 5.56853962 2.56080890 0.79902542 0.94561577 0.95764512
3.27512431 5.73598003 1.53741837 0.84713727 0.97404951 0.57493603
3.26412392 5.71335888 2.26390958 0.84429193 0.97020811 0.84661609
3.04156280 5.56512880 2.55023527 0.78672469 0.94503659 0.95369101
3.29274201 5.85123682 1.56334794 0.85169423 0.99362171 0.58463269
3.01890016 5.60691833 2.56080890 0.78086281 0.95213300 0.95764512
3.26539946 5.88879728 1.56797826 0.84462184 1.00000000 0.58636427
