-2.17374682 -11.07259655 2.52800703 -0.90039283 -0.96575320 0.99373257
-2.12227106 -11.08654976 2.52889276 -0.87907088 -0.96697021 0.99408072
-2.06451130 -11.16489315 2.54395103 -0.85514611 -0.97380334 1.00000000
-2.23540115 -11.00035667 1.92207277 -0.92593080 -0.95945245 0.75554627
-1.98753726 -11.13923168 2.53509307 -0.82326251 -0.97156513 0.99651802
-2.18130946 -11.09154320 1.93580663 -0.90352535 -0.96740574 0.76094490
-2.11011839 -11.09728432 1.93443322 -0.87403715 -0.96790648 0.76040506
-2.04211283 -11.12001610 1.93614995 -0.84586835 -0.96988916 0.76107991
-1.99792659 -11.17608070 1.94439030 -0.82756591 -0.97477913 0.76431906
-1.93031466 -11.20395184 1.94713712 -0.79956019 -0.97721004 0.76539880
-2.11151648 -11.06464958 2.45840001 -0.87461621 -0.96506006 0.96637082
-2.29683661 -11.10167789 1.88220870 -0.95137811 -0.96828967 0.73987615
-2.04195380 -11.07769871 2.45840001 -0.84580249 -0.96619821 0.96637082
-2.16582274 -11.10647488 1.24217880 -0.89711052 -0.96870810 0.48828724
-2.18717003 -10.91873360 1.84820962 -0.90595287 -0.95233327 0.72651148
-1.99856019 -11.23637962 2.49124241 -0.82782835 -0.98003840 0.97928083
-2.08664894 -10.97413445 1.22449112 -0.86431581 -0.95716536 0.48133439
-2.16699600 -11.08756638 1.87554216 -0.89759654 -0.96705890 0.73725563
-2.03611684 -11.08859921 1.23709059 -0.84338474 -0.96714896 0.48628712
-2.09913635 -11.11064911 1.87720883 -0.86948824 -0.96907216 0.73791075
-1.97908688 -11.17352486 1.24605560 -0.81976223 -0.97455621 0.48981115
-2.03142953 -11.13525486 1.87920880 -0.84144324 -0.97121829 0.73869693
-1.97005534 -11.19633865 1.88754189 -0.81602126 -0.97654599 0.74197257
-1.90433037 -11.23570728 1.89220846 -0.78879720 -0.97997975 0.74380696
-2.10921979 -10.98934174 1.16378081 -0.87366492 -0.95849174 0.45746982
-2.08138299 -11.12604237 1.17881191 -0.86213458 -0.97041476 0.46337837
-2.01963568 -11.18385029 1.18413067 -0.83655804 -0.97545677 0.46546912
-2.33382821 -11.21033478 1.53290308 -0.96670049 -0.97776675 0.60256785
-2.12130046 -11.13019753 2.38906908 -0.87866884 -0.97077715 0.93911755
-2.24202108 -11.11804199 1.51700783 -0.92867285 -0.96971697 0.59631956
-2.30190277 -11.21901703 1.81958270 -0.95347661 -0.97852403 0.71525854
-2.03695035 -11.06441879 2.37191892 -0.84373003 -0.96503997 0.93237603
-2.14320540 -10.98229408 1.49475431 -0.88774216 -0.95787704 0.58757198
-2.20620608 -11.10540581 1.79849374 -0.91383785 -0.96861482 0.70696872
-1.97314584 -11.10974503 2.37902999 -0.81730139 -0.96899331 0.93517131
-2.09886456 -11.12782860 1.51440668 -0.86937565 -0.97057056 0.59529710
-2.12531447 -11.06086349 1.78890789 -0.88033152 -0.96472985 0.70320058
-1.90003848 -11.10263920 2.37484694 -0.78701943 -0.96837354 0.93352699
-2.19987726 -11.16313171 1.14091587 -0.91121638 -0.97364968 0.44848186
-2.02223492 -11.10379219 1.50891554 -0.83763468 -0.96847409 0.59313858
-2.05755973 -11.08370781 1.79050553 -0.85226667 -0.96672237 0.70382863
-1.83495605 -11.14331436 2.38112140 -0.76006150 -0.97192121 0.93599343
-2.14576173 -11.16556454 1.14002180 -0.88880104 -0.97386187 0.44813040
-1.98185372 -11.18142223 1.51903081 -0.82090831 -0.97524500 0.59711480
-2.00704479 -11.10299778 1.79210317 -0.83134276 -0.96840483 0.70445663
-2.06586289 -11.12604904 1.13398659 -0.85570592 -0.97041535 0.44575801
-1.94452429 -11.38878918 1.54793143 -0.80544597 -0.99333155 0.60847533
-2.33836055 -11.23301888 1.47827280 -0.96857786 -0.97974527 0.58109325
-1.94898510 -11.18348503 1.80328667 -0.80729371 -0.97542495 0.70885277
-2.01291990 -11.23469925 1.14493930 -0.83377630 -0.97989184 0.45006341
-1.88340187 -11.46524429 1.55746865 -0.78012836 -1.00000000 0.61222428
-2.23496222 -11.08641529 1.45510066 -0.92574900 -0.96695846 0.57198453
-2.15569425 -11.05166149 1.44812107 -0.89291519 -0.96392727 0.56924093
-2.13634801 -10.95590591 2.25251603 -0.88490176 -0.95557547 0.88543999
-2.09028745 -11.08638763 1.45119202 -0.86582291 -0.96695608 0.57044810
-2.35486817 -11.19523048 1.71319389 -0.97541553 -0.97644937 0.67343825
-2.08652163 -11.06919861 2.27338839 -0.86426306 -0.96545684 0.89364469
-2.20394826 -11.20409775 1.06738889 -0.91290259 -0.97722274 0.41957918
-2.02452898 -11.12072754 1.45426309 -0.83858490 -0.96995121 0.57165527
-2.28408217 -11.20786858 1.71289206 -0.94609505 -0.97755164 0.67331958
-2.01445079 -11.06860161 2.27057862 -0.83441043 -0.96540475 0.89254022
-2.13108325 -11.11086845 1.05625558 -0.88272101 -0.96909130 0.41520280
-1.97663891 -11.15548706 1.45789242 -0.81874830 -0.97298294 0.57308197
-1.96434045 -11.08954334 2.27298689 -0.81365407 -0.96723133 0.89348686
-2.06745005 -11.15727329 1.05982661 -0.85636336 -0.97313875 0.41660652
-1.94692111 -11.40187550 1.49139440 -0.80643880 -0.99447298 0.58625120
-2.35745215 -11.22842407 1.41343665 -0.97648585 -0.97934449 0.55560684
-2.13017845 -11.07509995 1.68843544 -0.88234627 -0.96597159 0.66370595
-1.89529061 -11.10552788 2.27378964 -0.78505278 -0.96862549 0.89380246
-2.25591946 -11.08952904 1.39224935 -0.93442971 -0.96723008 0.54727834
-2.06237364 -11.09798050 1.68994510 -0.85426062 -0.96796721 0.66429937
-1.82547557 -11.11721706 2.27378964 -0.75613457 -0.96964502 0.89380246
-2.19985580 -11.17351437 1.40190434 -0.91120744 -0.97455525 0.55107361
-1.99577534 -11.12822819 1.69266248 -0.82667482 -0.97060543 0.66536754
-2.10610962 -11.06246758 1.38474000 -0.87237662 -0.96486974 0.54432648
-1.93942678 -11.21845150 1.70473981 -0.80333453 -0.97847468 0.67011505
-2.20610785 -11.11060047 1.00189948 -0.91379714 -0.96906793 0.39383599
-2.04720831 -11.13397884 1.39278579 -0.84797901 -0.97110701 0.54748923
-2.16122293 -11.15995884 1.00590634 -0.89520526 -0.97337294 0.39541104
-1.99610102 -11.15130901 1.39385855 -0.82680970 -0.97261852 0.54791093
-2.41422057 -11.17868805 1.32756937 -1.00000000 -0.97500652 0.52185333
-2.21708059 -10.92576313 2.14322042 -0.91834217 -0.95294636 0.84247708
-2.09214830 -11.17918777 1.00650740 -0.86659366 -0.97505009 0.39564732
-1.97234547 -11.43519306 1.43113732 -0.81696987 -0.99737895 0.56256479
-2.32876444 -11.12182236 1.31815708 -0.96460301 -0.97004670 0.51815349
-2.16450286 -11.02233028 2.15970540 -0.89656383 -0.96136898 0.84895712
-1.89885175 -11.43758106 1.42979634 -0.78652787 -0.99758720 0.56203771
-2.28509498 -11.26450253 1.33494663 -0.94651461 -0.98249125 0.52475327
-2.09774375 -11.04921627 2.16238904 -0.86891139 -0.96371400 0.85001206
-2.17764068 -11.09377575 1.31077981 -0.90200567 -0.96760046 0.51525354
-2.02442288 -11.04093361 2.15817189 -0.83854097 -0.96299160 0.84835434
-2.09594584 -11.04489422 1.30263948 -0.86816669 -0.96333700 0.51205367
-1.95907164 -11.07663822 2.16277242 -0.81147170 -0.96610576 0.85016274
-2.03120255 -11.08320236 1.30594647 -0.84134918 -0.96667826 0.51335365
-1.90454793 -11.07220078 2.16008878 -0.78888732 -0.96571869 0.84910786
-1.99267697 -11.16879082 1.31586754 -0.82539141 -0.97414327 0.51725346
-1.95676780 -11.37849140 1.34156060 -0.81051743 -0.99243343 0.52735317
-2.33357382 -11.19251347 2.09368372 -0.96659511 -0.97621238 0.82300472
-2.24317861 -11.10869694 2.07502151 -0.92915231 -0.96890187 0.81566882
-2.16953158 -11.10328102 2.07136202 -0.89864677 -0.96842951 0.81423032
-2.11458445 -11.09986496 2.06880069 -0.87588704 -0.96813154 0.81322348
-2.04372287 -11.10713291 2.06770277 -0.84653527 -0.96876550 0.81279188
-1.97285342 -11.11394882 2.06660509 -0.81718028 -0.96935999 0.81236041
-1.90298390 -11.12612534 2.06660509 -0.78823948 -0.97042203 0.81236041
