-10.05905819 -9.89048672 1.58284831 -0.98169142 -0.92833716 0.71682751
-10.02059841 -9.97734165 1.58696735 -0.97793800 -0.93648952 0.71869296
-9.89349651 -9.97517300 1.57582176 -0.96553379 -0.93628597 0.71364540
-9.75017548 -9.95475960 1.56176853 -0.95154667 -0.93436992 0.70728111
-9.64884853 -9.97581291 1.55498421 -0.94165790 -0.93634599 0.70420867
-9.52573776 -9.97298431 1.54432309 -0.92964315 -0.93608052 0.69938058
-9.42822933 -9.96433163 1.53535807 -0.92012703 -0.93526834 0.69532055
-10.06891537 -9.94453812 1.50857139 -0.98265338 -0.93341053 0.68318963
-9.30860043 -9.96236420 1.52518165 -0.90845215 -0.93508369 0.69071192
-10.01467323 -10.01602268 1.50995886 -0.97735977 -0.94012016 0.68381798
-9.20146656 -9.97243977 1.51718581 -0.89799666 -0.93602943 0.68709081
-9.08523178 -9.97127724 1.50749397 -0.88665295 -0.93592030 0.68270165
-9.83237648 -10.16486740 1.92595196 -0.95956892 -0.95409101 0.87220955
-9.79288292 -10.25223923 1.93115413 -0.95571458 -0.96229184 0.87456548
-9.55823135 -10.26138306 1.90861166 -0.93281430 -0.96315008 0.86435664
-9.41597462 -10.20436382 1.88838112 -0.91893107 -0.95779818 0.85519475
-9.32106686 -10.22963428 1.88173401 -0.90966880 -0.96017009 0.85218447
-10.02013493 -10.21600246 1.87806261 -0.97789276 -0.95889062 0.85052180
-9.19317532 -10.21728897 1.86786163 -0.89718747 -0.95901138 0.84590209
-9.81224251 -10.13101864 1.84902763 -0.95760399 -0.95091391 0.83737266
-9.08418083 -10.22448158 1.85803545 -0.88655043 -0.95968646 0.84145206
-9.76210403 -10.20676231 1.85181940 -0.95271081 -0.95802331 0.83863699
-8.88816643 -10.13090706 1.82884586 -0.86742079 -0.95090342 0.82823294
-9.67599010 -10.24489212 1.84735250 -0.94430673 -0.96160221 0.83661407
-8.74801922 -10.09818459 1.81179440 -0.85374349 -0.94783205 0.82051080
-9.47479248 -10.15940571 1.81915498 -0.92467129 -0.95357835 0.82384419
-10.24666023 -10.20002365 1.81733477 -1.00000000 -0.95739079 0.82301986
-8.67846680 -10.11373138 1.80688131 -0.84695566 -0.94929129 0.81828576
-9.37162590 -10.14438152 1.80770850 -0.91460299 -0.95216817 0.81866038
-10.22081757 -10.27070522 1.82162595 -0.99747795 -0.96402508 0.82496321
-9.99190903 -10.37462044 2.16579103 -0.97513813 -0.97377872 0.98082590
-8.62241077 -10.17713165 1.80861533 -0.84148496 -0.95524210 0.81907105
-9.23818588 -10.12708569 1.79319108 -0.90158021 -0.95054471 0.81208587
-9.98268509 -10.15777683 1.78810179 -0.97423792 -0.95342547 0.80978107
-8.85140419 -10.38091373 2.17394018 -0.86383307 -0.97436947 0.98451644
-9.77779198 -10.28125191 2.13288045 -0.95424187 -0.96501499 0.96592164
-8.62166882 -10.30710030 1.82306564 -0.84141260 -0.96744120 0.82561523
-9.22349644 -10.23930264 1.80352080 -0.90014660 -0.96107757 0.81676394
-9.81391716 -10.11205673 1.76771915 -0.95776743 -0.94913411 0.80055034
-8.66796303 -10.29568481 2.14422393 -0.84593058 -0.96636969 0.97105879
-8.53786945 -10.33815098 1.81873059 -0.83323437 -0.97035569 0.82365203
-9.16425323 -10.30296421 1.80463755 -0.89436489 -0.96705300 0.81726968
-9.91176414 -10.34259892 1.79936588 -0.96731657 -0.97077316 0.81488228
-8.85504913 -10.65398121 2.20812988 -0.86418879 -1.00000000 1.00000000
-8.47898579 -10.39927006 1.82017565 -0.82748777 -0.97609240 0.82430643
-9.06922817 -10.32616138 1.79821634 -0.88509113 -0.96923029 0.81436169
-9.83706284 -10.39458179 1.79748857 -0.96002626 -0.97565234 0.81403208
-8.37755966 -10.40757751 1.81179440 -0.81758928 -0.97687215 0.82051080
-9.03406239 -10.41730881 1.80463755 -0.88165921 -0.97778553 0.81726968
-9.74183178 -10.42428493 1.79158831 -0.95073241 -0.97844034 0.81136000
-8.77158356 -10.21220493 1.75857234 -0.85604316 -0.95853418 0.79640800
-9.67378044 -10.44968796 1.78783357 -0.94409108 -0.98082471 0.80965960
-8.98185062 -10.58992577 1.81831741 -0.87656373 -0.99398768 0.82346487
-8.90112495 -10.62946987 1.81524646 -0.86868548 -0.99769932 0.82207412
-9.70812321 -10.00090504 1.64835083 -0.94744265 -0.93870121 0.74649179
-9.59972382 -10.01451397 1.63995600 -0.93686366 -0.93997854 0.74269003
-9.47651482 -10.01133060 1.62876308 -0.92483938 -0.93967974 0.73762107
-9.06967545 -10.65265846 2.10268712 -0.88513482 -0.99987584 0.95224792
-8.81122303 -10.13727951 1.67841101 -0.85991168 -0.95150155 0.76010519
-9.35101414 -10.00410366 1.61706126 -0.91259140 -0.93900144 0.73232162
-8.52466869 -10.14260483 1.98946238 -0.83194607 -0.95200139 0.90097165
-8.62366104 -10.04787064 1.65266454 -0.84160703 -0.94310945 0.74844533
-9.23406601 -10.00443077 1.60688579 -0.90117812 -0.93903214 0.72771347
-8.74283791 -10.53481960 2.05679345 -0.85323781 -0.98881531 0.93146396
-8.52624226 -10.02942848 1.64220500 -0.83209962 -0.94137847 0.74370849
-9.12648296 -9.98204231 1.59543836 -0.89067876 -0.93693072 0.72252923
-8.42871857 -10.04176140 1.63496375 -0.82258201 -0.94253606 0.74042916
-9.01032162 -9.98037052 1.58526289 -0.87934226 -0.93677378 0.71792102
-8.32506561 -10.04562664 1.62638164 -0.81246626 -0.94289887 0.73654258
-8.89718819 -9.98059273 1.57559621 -0.86830127 -0.93679464 0.71354330
-8.21418190 -10.03937149 1.61619031 -0.80164480 -0.94231170 0.73192722
-8.78178406 -9.97681522 1.56542075 -0.85703868 -0.93644011 0.70893508
-8.14845562 -10.08769703 1.61565387 -0.79523039 -0.94684762 0.73168427
-8.68242359 -9.98992729 1.55829799 -0.84734184 -0.93767083 0.70570940
-8.57677555 -9.99466991 1.54990315 -0.83703130 -0.93811595 0.70190758
-8.48839474 -9.98667049 1.54176283 -0.82840598 -0.93736511 0.69822109
-8.63500309 -10.28869152 1.58348227 -0.84271389 -0.96571332 0.71711463
