1.80539572 7.62030697 2.18979144 1.00000000 1.00000000 0.93088931
1.67850697 7.28445482 2.08868456 0.92971694 0.95592672 0.88790834
1.60904455 7.18777895 2.05753279 0.89124203 0.94324011 0.87466562
1.37328315 6.84112501 1.55010605 0.76065493 0.89774925 0.65895641
1.55255914 7.14507532 2.04223013 0.85995501 0.93763614 0.86816037
1.36799586 7.04693031 1.59572375 0.75772631 0.92475677 0.67834872
1.50293756 7.13208532 2.03567171 0.83246988 0.93593150 0.86537236
1.32192099 7.04579687 1.59350920 0.73220569 0.92460799 0.67740726
1.41975558 6.95089626 1.98047292 0.78639579 0.91215438 0.84190714
1.28720534 7.10772657 1.60591018 0.71297681 0.93273497 0.68267900
1.38772607 6.96128511 1.98156607 0.76865476 0.91351765 0.84237182
1.25569534 7.12524319 1.60856748 0.69552362 0.93503362 0.68380862
1.34431875 6.97175694 1.98211253 0.74461168 0.91489190 0.84260416
1.29493630 6.94978857 1.97336817 0.71725899 0.91200900 0.83888692
1.24956882 6.94831514 1.97063553 0.69213015 0.91181564 0.83772522
1.71731007 7.34513617 2.04793119 0.95120978 0.96388978 0.87058395
1.19005227 6.86309862 1.94385588 0.65916425 0.90063286 0.82634109
1.69532692 7.46099377 2.07773972 0.93903345 0.97909361 0.88325566
1.43926716 7.03939581 1.55566835 0.79720312 0.92376798 0.66132098
1.60007441 7.25512838 2.01652598 0.88627350 0.95207822 0.85723346
0.91489762 6.44268751 2.16897488 0.50675738 0.84546298 0.92204010
0.92768979 6.42731190 1.44026935 0.51384288 0.84344530 0.61226439
1.39347088 7.04064178 1.55393982 0.77183682 0.92393154 0.66058618
1.54776251 7.17971659 1.99310505 0.85729820 0.94218206 0.84727710
0.88948762 6.37363815 1.42698264 0.49268290 0.83640176 0.60661614
1.36027730 7.04713011 1.55393982 0.75345105 0.92478299 0.66058618
0.84766436 6.36556244 1.42388237 0.46951720 0.83534199 0.60529822
1.31088352 7.02867699 1.54788995 0.72609210 0.92236137 0.65801436
0.98153859 6.57132435 1.85258651 0.54366952 0.86234379 0.78754210
1.44384730 7.13250303 1.97447479 0.79974008 0.93598634 0.83935732
0.80813020 6.37463379 1.42476821 0.44761944 0.83653241 0.60567480
1.26036990 7.00219917 1.54011142 0.69811285 0.91888678 0.65470767
0.90746111 6.34300470 1.78536415 0.50263834 0.83238178 0.75896561
0.76352161 6.34084415 1.41591036 0.42291096 0.83209825 0.60190928
1.23399520 7.10997820 1.56258249 0.68350399 0.93303043 0.66426021
0.88107461 6.44965124 1.81432998 0.48802298 0.84637684 0.77127910
1.32316422 6.98916245 1.92922986 0.73289430 0.91717595 0.82012349
0.72516984 6.35908556 1.41901064 0.40166807 0.83449203 0.60322726
0.84993535 6.44800711 1.81269038 0.47077510 0.84616107 0.77058208
1.29163432 7.00289965 1.93135905 0.71543002 0.91897869 0.82102865
0.69704652 6.37988758 1.42299664 0.38609073 0.83722186 0.60492170
0.80893791 6.44940042 1.81159735 0.44806680 0.84634393 0.77011746
1.58874166 7.19763422 2.35236502 0.87999636 0.94453335 1.00000000
0.65714049 6.38608170 1.42343950 0.36398697 0.83803469 0.60510999
0.75821245 6.36644554 1.78645730 0.41997021 0.83545786 0.75943029
1.17802691 6.87233973 1.89037251 0.65250343 0.90184551 0.80360508
0.57534516 6.09379530 2.03807020 0.31868091 0.79967844 0.86639202
1.54112685 7.19630480 2.34866691 0.85362273 0.94435889 0.99842793
0.62262303 6.45028353 1.43716908 0.34486789 0.84645981 0.61094648
0.70939958 6.29076147 1.76350331 0.39293301 0.82552600 0.74967247
0.90613765 6.42638111 2.11812615 0.50190526 0.84332311 0.90042412
1.71999991 7.43971968 2.01151752 0.95269966 0.97630185 0.85510433
1.47336745 7.09586906 2.31230402 0.81609112 0.93117893 0.98296988
0.58326632 6.46766949 1.44026935 0.32306841 0.84874135 0.61226439
0.91588193 6.42094946 1.40096366 0.50730258 0.84261036 0.59555537
0.66235769 6.22237301 1.74273539 0.36687672 0.81655151 0.74084395
0.85874581 6.38117504 2.10112000 0.47565517 0.83739084 0.89319474
1.39324689 6.92581463 2.25313711 0.77171272 0.90886295 0.95781779
0.86823922 6.37435818 1.38929605 0.48091352 0.83649623 0.59059542
1.42208791 7.11797619 1.51817608 0.78768766 0.93408000 0.64538288
0.62158000 6.20917749 1.73781669 0.34429017 0.81481987 0.73875296
0.82508099 6.35645914 1.38411045 0.45700839 0.83414739 0.58839101
1.38135958 7.14790487 1.52277732 0.76512843 0.93800747 0.64733887
0.93664676 6.44020605 1.76208997 0.51880413 0.84513736 0.74907166
0.78390753 6.43478441 2.11560678 0.43420261 0.84442586 0.89935309
1.50450122 7.11150503 1.91315794 0.83333600 0.93323076 0.81329125
0.79641175 6.45063257 1.40398872 0.44112864 0.84650558 0.59684134
1.33783555 7.16413689 1.52445054 0.74102068 0.94013757 0.64805019
0.91122758 6.47889662 1.77167118 0.50472456 0.85021466 0.75314468
1.45670366 7.04847622 1.89400375 0.80686116 0.92495960 0.80514872
0.78844476 6.63846397 1.44504154 0.43671575 0.87115443 0.61429310
1.31095231 7.20886517 1.53281641 0.72613019 0.94600719 0.65160656
0.86945200 6.47685432 1.76954198 0.48158526 0.84994662 0.75223953
0.70258528 6.35059881 2.08474374 0.38915861 0.83337837 0.88623309
0.74739087 6.64910650 1.44633794 0.41397619 0.87255102 0.61484420
0.82949114 6.48792410 1.77113891 0.45945114 0.85139930 0.75291842
1.35788620 7.01309061 1.87950861 0.75212663 0.92031604 0.79898679
1.64167833 7.30873728 2.31844783 0.90931773 0.95911324 0.98558164
0.70729345 6.66920090 1.44979501 0.39176643 0.87518793 0.61631382
0.77464342 6.38013697 1.73973370 0.42907125 0.83725458 0.73956794
0.61585116 6.29093647 2.06206870 0.34111699 0.82554895 0.87659383
1.31379509 7.02148390 1.87950861 0.72770476 0.92141747 0.79898679
1.60560048 7.36362314 2.33283591 0.88933438 0.96631581 0.99169809
0.66497672 6.66962814 1.44893074 0.36832741 0.87524402 0.61594641
0.73205042 6.36381817 1.73387837 0.40547919 0.83511311 0.73707879
0.55570984 6.07735968 1.98963475 0.30780500 0.79752165 0.84580189
1.26018965 6.97634268 1.86501348 0.69801301 0.91549367 0.79282486
1.76062489 7.45382118 1.94677639 0.97520167 0.97815233 0.82758260
0.61743474 6.61536264 1.43596673 0.34199414 0.86812288 0.61043531
1.01301467 6.47977591 1.36842597 0.56110394 0.85033005 0.58172345
0.68990761 6.34913301 1.72855544 0.38213649 0.83318597 0.73481601
0.53189945 6.24334431 2.04380274 0.29461655 0.81930351 0.86882889
1.70937407 7.44587612 1.94176722 0.94681406 0.97710973 0.82545322
0.96194321 6.57406998 2.11693001 0.53281569 0.86270410 0.89991564
0.93620974 6.45179510 1.36006010 0.51856208 0.84665817 0.57816714
1.10103047 6.75671625 1.79978561 0.60985547 0.88667244 0.76509625
0.91236663 6.51966047 2.09720778 0.50535548 0.85556400 0.89153159
0.89696693 6.46724033 1.36215150 0.49682567 0.84868503 0.57905620
0.86633313 6.55033493 1.37888336 0.47985774 0.85958940 0.58616894
0.96292162 6.40878487 1.70194376 0.53335762 0.84101403 0.72350323
1.40355253 6.85846663 1.77646327 0.77742100 0.90002495 0.75518179
0.80273736 6.30780268 2.02448177 0.44463235 0.82776231 0.86061549
0.82754207 6.57506132 1.38306630 0.45837158 0.86283416 0.58794713
1.15117264 6.48790359 1.31566858 0.63762897 0.85139662 0.55929613
0.94335032 6.56201077 1.74180520 0.52251720 0.86112159 0.74044853
1.40510142 7.08924437 1.83507109 0.77827889 0.93030953 0.78009623
1.18499517 6.82007027 2.13979745 0.65636313 0.89498627 0.90963668
0.78983074 6.61121321 1.38975906 0.43748346 0.86757833 0.59079224
0.91163719 6.56064081 1.74025214 0.50495148 0.86094183 0.73978829
1.35937500 7.03308630 1.81854069 0.75295126 0.92294002 0.77306908
0.73567957 6.33704472 2.03126121 0.40748936 0.83159965 0.86349744
0.75823367 6.61097479 1.38892245 0.41998199 0.86754704 0.59043664
0.86395037 6.51642704 1.72679245 0.47853795 0.85513973 0.73406655
1.30902302 7.00914907 1.81002498 0.72506154 0.91979879 0.76944906
0.69463944 6.33019066 2.02756333 0.38475746 0.83070022 0.86192548
1.69038105 7.41193581 2.27326345 0.93629390 0.97265583 0.96637362
1.66626096 7.52523613 2.30522251 0.92293394 0.98752403 0.97995955
0.99060303 6.62729549 2.07025552 0.54869026 0.86968881 0.88007408
0.55265248 6.08438015 1.94374359 0.30611154 0.79844290 0.82629335
0.94204485 6.58618927 2.05526805 0.52179408 0.86429447 0.87370288
1.71223712 7.44928885 1.86764050 0.94839990 0.97755760 0.79394162
1.03262997 6.43028879 1.65023124 0.57196879 0.84383595 0.70152009
0.87212491 6.38789320 1.99052215 0.48306578 0.83827245 0.84617913
1.64576054 7.37082148 1.84493971 0.91157883 0.96726042 0.78429145
1.40760028 6.96970367 2.12392735 0.77966303 0.91462243 0.90289021
1.03696883 6.65307951 1.70733619 0.57437205 0.87307239 0.72579563
0.83716506 6.35600519 1.97913170 0.46370170 0.83408779 0.84133697
1.59097254 7.28553009 1.82127297 0.88123202 0.95606780 0.77423060
0.80645728 6.43305349 2.00191259 0.44669279 0.84419876 0.85102123
1.32417727 6.94902182 2.11288691 0.73345542 0.91190839 0.89819688
0.76926088 6.46450901 2.01030564 0.42608991 0.84832656 0.85458916
1.47080529 7.16418219 1.78553140 0.81467199 0.94014353 0.75903672
1.27060056 6.90259457 2.09603572 0.70377952 0.90581584 0.89103335
0.88530636 6.36673307 2.35131383 0.49036694 0.83549559 0.99955314
0.88432956 6.47776175 1.65674317 0.48982587 0.85006571 0.70428830
0.72445822 6.43320274 1.99891520 0.40127391 0.84421831 0.84974706
1.21041846 6.81429625 2.06640077 0.67044497 0.89422858 0.87843543
1.68328595 7.22284889 2.13853860 0.93236399 0.94784224 0.90910149
0.74959940 6.80277491 1.36784947 0.41519949 0.89271665 0.58147842
0.84099448 6.34058714 2.33947730 0.46582279 0.83206451 0.99452138
0.83337873 6.40641928 1.63670635 0.46160448 0.84070355 0.69577056
1.34563863 6.99712753 1.73868084 0.74534273 0.91822124 0.73912036
1.16757941 6.82176685 2.06640077 0.64671659 0.89520895 0.87843543
1.70608056 7.53072691 2.22797155 0.94498980 0.98824453 0.94711983
0.80017608 6.33830833 2.33669233 0.44321367 0.83176547 0.99333745
0.82991642 6.70157719 1.71234548 0.45968670 0.87943667 0.72792506
1.29745901 6.98253441 1.73288488 0.71865630 0.91630620 0.73665649
1.10636783 6.71561670 2.03153634 0.61281180 0.88127905 0.86361444
0.76403505 6.29177570 2.31789327 0.42319533 0.82565910 0.98534590
0.76382631 6.42288303 1.63871002 0.42307973 0.84286410 0.69662231
0.58351356 6.14283752 1.90359485 0.32320535 0.80611420 0.80922598
1.07085407 6.69617748 2.02398252 0.59314090 0.87872803 0.86040324
0.71611673 6.22569942 2.29143548 0.39665362 0.81698799 0.97409862
0.72479105 6.43909597 1.64171565 0.40145826 0.84499168 0.69790006
1.45593524 6.99196911 2.05810499 0.80643553 0.91754431 0.87490886
0.66864204 6.15554619 2.26358533 0.37035760 0.80778193 0.96225941
1.09223461 6.49263239 1.60392535 0.60498351 0.85201716 0.68183523
1.63911259 7.35871506 1.75967181 0.90789658 0.96567172 0.74804372
0.96644127 6.56893539 1.98098290 0.53530717 0.86203027 0.84212393
1.40350938 6.95961237 2.04573059 0.77739710 0.91329819 0.86964846
1.58784997 7.34606075 1.75411546 0.87950248 0.96401113 0.74568164
0.91132379 6.47439718 1.95018589 0.50477785 0.84962422 0.82903200
1.34819114 6.90992975 2.02829409 0.74675661 0.90677840 0.86223614
1.51457703 7.22837782 1.72309268 0.83891690 0.94856781 0.73249376
0.85220540 6.33958244 1.90718639 0.47203246 0.83193266 0.81075275
1.30330384 6.91072464 2.02604413 0.72189373 0.90688270 0.86127967
0.98533940 6.61961460 1.63097310 0.54577476 0.86868083 0.69333333
1.46285355 7.20726013 1.71568418 0.81026757 0.94579655 0.72934437
0.82112515 6.41507483 1.92868614 0.45481727 0.84183943 0.81989235
1.24448824 6.83573914 2.00129533 0.68931603 0.89704251 0.85075885
0.91540217 6.34936571 1.56190479 0.50703686 0.83321655 0.66397214
1.20034802 6.77541780 1.98160887 0.66486698 0.88912660 0.84239006
0.87937170 6.38384390 1.56914973 0.48707974 0.83774102 0.66705197
1.35567033 7.07966661 1.68095708 0.75089926 0.92905265 0.71458173
0.75896776 6.49787331 1.95134807 0.42038858 0.85270494 0.82952607
0.87032771 6.33140230 2.26639509 0.48207033 0.83085924 0.96345383
0.83949041 6.39116812 1.56963277 0.46498969 0.83870220 0.66725731
0.72914469 6.78114319 1.29788244 0.40386975 0.88987797 0.55173516
0.83410823 6.36474276 2.27656174 0.46200854 0.83523440 0.96777570
0.79720598 6.37897778 1.56528580 0.44156855 0.83710247 0.66540939
1.04805017 6.64524412 1.93661118 0.58050996 0.87204415 0.82326132
0.75844502 6.39542866 1.56818378 0.42009905 0.83926129 0.66664135
0.60013193 6.12807512 1.83455205 0.33241019 0.80417693 0.77987558
0.72182274 6.43286705 1.57639468 0.39981413 0.84417427 0.67013180
0.56296259 6.14697504 1.83920062 0.31182227 0.80665714 0.78185171
0.91867697 6.34841585 1.84492826 0.50885075 0.83309186 0.78428656
0.69290948 6.44970989 1.57977557 0.38379923 0.84638453 0.67156905
0.88222396 6.30707645 1.83142889 0.48865962 0.82766700 0.77854794
0.84413832 6.32390499 1.83480370 0.46756417 0.82987535 0.77998257
0.61474526 6.08903122 2.16879487 0.34050444 0.79905325 0.92196357
0.93509144 6.34004402 1.49065256 0.51794267 0.83199328 0.63368249
0.81282133 6.39379215 1.85392785 0.45021781 0.83904654 0.78811234
0.90190732 6.39201117 1.50176525 0.49956211 0.83881283 0.63840657
0.77900654 6.45019960 1.86911452 0.43148798 0.84644878 0.79456824
0.91063815 6.44046211 2.23751807 0.50439811 0.84517097 0.95117807
0.85960120 6.38213253 1.49806106 0.47612897 0.83751649 0.63683188
0.81644011 6.36425877 1.49250472 0.45222226 0.83517092 0.63446987
0.67010200 6.20959473 1.79543078 0.37116626 0.81487459 0.76324499
0.78937542 6.39119816 1.49806106 0.43723124 0.83870614 0.63683188
0.63616037 6.16878796 1.78249383 0.35236618 0.80951959 0.75774544
0.74850565 6.39023685 1.49667192 0.41459367 0.83857995 0.63624138
0.71296680 6.43540955 1.50639558 0.39490888 0.84450793 0.64037490
0.67189360 6.43395901 1.50500643 0.37215862 0.84431756 0.63978440
0.63753110 6.49806213 1.51936030 0.35312542 0.85272968 0.64588630
0.59784847 6.09009075 2.10292172 0.33114541 0.79919231 0.89396065
0.56496060 6.04961777 2.08774662 0.31292894 0.79388112 0.88750964
