-0.56982172 -10.19925880 2.28530335 -0.59794182 -0.96237028 0.94490230
-0.50619042 -10.21237850 2.28751779 -0.53117043 -0.96360826 0.94581789
-0.33491781 -10.39310169 2.32693481 -0.35144567 -0.98066074 0.96211559
-0.26507464 -10.20587158 2.28397465 -0.27815580 -0.96299428 0.94435292
-0.20373918 -10.36528873 2.31984878 -0.21379350 -0.97803634 0.95918578
-0.13798557 -10.31175804 2.30744767 -0.14479502 -0.97298539 0.95405829
-0.08863375 -10.19917583 2.28176022 -0.09300774 -0.96236247 0.94343734
-0.65430588 -10.41191196 2.27431011 -0.68659520 -0.98243558 0.94035691
-0.57747078 -10.22087479 2.23109674 -0.60596836 -0.96440995 0.92248952
0.03881521 -10.07661533 2.25385809 0.04073070 -0.95079803 0.93190062
-0.13720356 -9.94945621 1.69992733 -0.14397441 -0.93879968 0.70286739
0.10395239 -10.22633743 2.28796053 0.10908233 -0.96492535 0.94600093
-0.01198787 -10.16909885 1.73803878 -0.01257946 -0.95952451 0.71862531
0.03521325 -10.03900433 1.71537793 0.03695099 -0.94724917 0.70925575
0.09810281 -10.02282333 1.71263111 0.10294408 -0.94572240 0.70811999
-0.21444197 -10.52790451 2.29591703 -0.22502446 -0.99338031 0.94929069
0.22581965 -10.09367847 1.72533500 0.23696361 -0.95240808 0.71337271
-0.07644928 -9.94592094 2.16670847 -0.08022197 -0.93846613 0.89586699
0.28965813 -10.10584641 1.72773838 0.30395246 -0.95355618 0.71436644
-0.01450149 -10.10437775 2.20171142 -0.01521713 -0.95341760 0.91033959
-0.62506062 -10.18486023 2.14813042 -0.65590674 -0.96101171 0.88818550
-0.17334516 -10.25662327 1.69988024 -0.18189956 -0.96778303 0.70284796
0.39706510 -10.01346397 1.71228778 0.41665986 -0.94483930 0.70797807
-0.12017631 -9.91619968 1.64221513 -0.12610689 -0.93566173 0.67900521
0.66273636 -10.40471554 2.33313537 0.69544172 -0.98175657 0.96467936
0.09664479 -10.10978413 2.20300770 0.10141411 -0.95392776 0.91087556
-0.52399158 -10.41772175 2.19665265 -0.54985005 -0.98298377 0.90824795
0.46630016 -10.14263058 1.73529208 0.48931161 -0.95702702 0.71748960
-0.05933090 -10.10212421 1.67354763 -0.06225881 -0.95320499 0.69196022
0.73299760 -10.46843243 2.34863663 0.76917028 -0.98776871 0.97108865
0.16067725 -10.14607620 2.21121836 0.16860652 -0.95735216 0.91427046
0.53097969 -10.15720654 1.73838222 0.55718297 -0.95840240 0.71876729
0.80210662 -10.50639725 2.35838008 0.84168977 -0.99135095 0.97511727
-0.38549328 -10.21239567 2.15147686 -0.40451697 -0.96360987 0.88956916
0.59252447 -10.11630249 1.73185861 0.62176496 -0.95454282 0.71607000
0.06745136 -10.06657600 1.66754782 0.07078002 -0.94985074 0.68947947
0.86580193 -10.47394180 2.35217977 0.90852839 -0.98828852 0.97255361
-0.31953409 -10.15401363 2.13850951 -0.33530277 -0.95810109 0.88420755
0.64936805 -10.01211834 1.71434784 0.68141371 -0.94471234 0.70882982
0.91304678 -10.26435089 2.30567622 0.95810473 -0.96851218 0.95332587
-0.25708815 -10.21447849 2.15105844 -0.26977518 -0.96380639 0.88939619
0.19224258 -9.96634674 1.65088153 0.20172955 -0.94039345 0.68258846
0.95297182 -10.00605774 2.24810052 1.00000000 -0.94414043 0.92952007
-0.19221039 -10.17482662 2.14227414 -0.20169577 -0.96006495 0.88576412
0.25861692 -10.12463188 1.67788088 0.27137941 -0.95532876 0.69375187
-0.12755066 -10.10738564 2.12763381 -0.13384515 -0.95370144 0.87971079
-0.08032297 -10.17632484 2.14227414 -0.08428682 -0.96020633 0.88576412
-0.60996974 -10.07991028 2.03456044 -0.64007109 -0.95110893 0.84122783
0.61705881 -10.59806061 2.31493092 0.64751005 -1.00000000 0.95715237
-0.01638359 -10.17271709 2.14143753 -0.01719210 -0.95986593 0.88541824
0.42892489 -10.00634003 1.65888131 0.45009190 -0.94416708 0.68589616
0.67619270 -10.47508907 2.28857064 0.70956212 -0.98839676 0.94625324
-0.15791185 -10.06355667 1.59495389 -0.16570464 -0.94956589 0.65946412
0.04690704 -10.07874489 2.12135935 0.04922186 -0.95099896 0.87711650
0.49095219 -9.98571968 1.65588140 0.51518017 -0.94222140 0.68465579
-0.09604872 -10.24993038 1.62498951 -0.10078862 -0.96715152 0.67188293
0.11089107 -10.12909698 2.13223505 0.11636344 -0.95575005 0.88161325
0.56420487 -10.17935944 1.68921387 0.59204781 -0.96049267 0.69843769
0.78945738 -10.22235775 2.23455381 0.82841629 -0.96454984 0.92391890
-0.03170166 -10.30166340 1.63329732 -0.03326610 -0.97203290 0.67531794
0.17532155 -10.16926384 2.14101934 0.18397349 -0.95954007 0.88524532
-0.36151233 -10.22715378 2.06225657 -0.37935260 -0.96500236 0.85267931
-0.29761133 -10.24097347 2.06466484 -0.31229815 -0.96630639 0.85367507
0.87712675 -9.92706776 2.17102981 0.92041206 -0.93668723 0.89765370
0.07873875 -10.01512814 1.58696568 0.08262443 -0.94499630 0.65616125
0.27896681 -9.89694881 2.08329439 0.29273355 -0.93384528 0.86137784
-0.24532601 -10.08948898 2.03335643 -0.25743261 -0.95201278 0.84073001
-0.18436196 -10.21228409 2.05824256 -0.19346003 -0.96359932 0.85101968
-0.05601944 -10.21379471 2.05824256 -0.05878394 -0.96374184 0.85101968
-0.61541504 -10.14637756 1.95115042 -0.64578515 -0.95738059 0.80674040
0.39075518 -9.94656181 1.57706022 0.41003853 -0.93852663 0.65206563
0.62681270 -10.48453426 2.21212983 0.65774524 -0.98928803 0.91464728
0.07107523 -9.96682262 2.00766730 0.07458272 -0.94043833 0.83010834
-0.56791180 -10.15504551 1.95230055 -0.59593767 -0.95819849 0.80721593
0.43498874 -9.88741589 1.56779385 0.45645499 -0.93294579 0.64823431
-0.50474852 -10.17213726 1.95498407 -0.52965736 -0.95981121 0.80832547
0.50350368 -10.00672722 1.58760464 0.52835107 -0.94420362 0.65642542
0.71267182 -10.07323265 2.12554240 0.74784142 -0.95047885 0.87884605
0.18333854 -10.13195801 2.04178548 0.19238611 -0.95602000 0.84421515
-0.44050136 -10.16726303 1.95345056 -0.46223965 -0.95935130 0.80769140
-0.37688518 -10.17767715 1.95498407 -0.39548406 -0.96033394 0.80832547
0.84102714 -10.08491707 2.13014364 0.88253099 -0.95158136 0.88074857
0.31120396 -10.14843941 2.04579949 0.32656154 -0.95757514 0.84587485
0.37461975 -10.13649273 2.04379249 0.39310685 -0.95644790 0.84504503
-0.24261707 -9.89902115 1.89977837 -0.25458997 -0.93404078 0.78549963
-0.20150228 -10.21210861 1.96073472 -0.21144621 -0.96358275 0.81070322
0.56555104 -10.43178558 2.10600805 0.59346038 -0.98431081 0.87076920
-0.07280531 -10.14513397 1.94731665 -0.07639818 -0.95726323 0.80515522
-0.55358845 -10.14200974 1.85619569 -0.58090746 -0.95696849 0.76747954
0.68289429 -10.21269417 2.06265783 0.71659440 -0.96363801 0.85284525
0.05288471 -9.90185261 1.89977837 0.05549452 -0.93430799 0.78549963
-0.48975503 -10.14332485 1.85582972 -0.51392394 -0.95709252 0.76732820
0.74746597 -10.21406460 2.06386209 0.78435266 -0.96376735 0.85334319
-0.42696401 -10.16780949 1.85985494 -0.44803426 -0.95940286 0.76899254
0.59082127 -10.11019230 1.51271069 0.61997771 -0.95396626 0.62545913
-0.38066515 -10.21096706 1.86753941 -0.39945060 -0.96347505 0.77216983
0.63954377 -10.12505627 1.51542807 0.67110461 -0.95536876 0.62658268
0.84174091 -9.98652458 2.01890635 0.88327998 -0.94229734 0.83475536
0.22642982 -9.99953938 1.91933036 0.23760390 -0.94352537 0.79358375
-0.24849363 -10.07146072 1.84082663 -0.26075652 -0.95031166 0.76112491
-0.43389165 -10.23237991 2.40281773 -0.45530376 -0.96549553 0.99349087
0.35550138 -10.08809757 1.93734896 0.37304503 -0.95188147 0.80103391
-0.18657222 -10.13966084 1.85326827 -0.19577937 -0.95674682 0.76626915
-0.36959159 -10.23490429 2.40281773 -0.38783056 -0.96573371 0.99349087
-0.12297065 -10.14849758 1.85473192 -0.12903912 -0.95758063 0.76687431
-0.30472019 -10.21952248 2.39865041 -0.31975782 -0.96428233 0.99176776
-0.05931162 -10.16283321 1.85729349 -0.06223859 -0.95893329 0.76793343
-0.24060272 -10.22512531 2.39957643 -0.25247622 -0.96481097 0.99215066
0.55911821 -10.32066345 1.98450387 0.58671010 -0.97382569 0.82053101
0.00451354 -10.18266773 1.86095273 0.00473628 -0.96080482 0.76944643
-0.17698811 -10.25950527 2.40744781 -0.18572229 -0.96805495 0.99540526
0.05210678 -10.05866051 1.83789921 0.05467819 -0.94910389 0.75991452
0.66203707 -10.15721130 1.95383394 0.69470793 -0.95840281 0.80784994
0.71792948 -10.04518223 1.93274844 0.75335854 -0.94783211 0.79913175
0.77493948 -9.96416187 1.91779685 0.81318194 -0.94018728 0.79294974
0.24116835 -10.03230286 1.83350801 0.25306976 -0.94661689 0.75809890
0.06390473 -10.06042576 2.35975599 0.06705836 -0.94927043 0.97568613
0.30770200 -10.15441227 1.85656154 0.32288679 -0.95813870 0.76763082
0.54613882 -10.13059902 1.85400009 0.57309020 -0.95589179 0.76657170
0.60086894 -9.97386074 1.82545757 0.63052118 -0.94110245 0.75477028
0.67504269 -10.14844513 1.85875714 0.70835537 -0.95757568 0.76853859
0.80894423 -10.27593613 2.41856050 0.84886479 -0.96960533 1.00000000
0.86173654 -10.12910461 2.38475966 0.90426236 -0.95575076 0.98602438
0.92033839 -10.06729031 2.37133169 0.96575618 -0.94991815 0.98047233
