-0.21532366 5.49839830 2.14921260 -0.10909212 0.96815252 0.91562670
-0.24877141 5.47465849 2.14035439 -0.12603816 0.96397239 0.91185284
-0.40178198 5.34432507 1.78011096 -0.20355983 0.94102341 0.75837874
-0.43535322 5.34169531 1.78011096 -0.22056845 0.94056040 0.75837874
-0.46614096 5.30867243 1.76984394 -0.23616682 0.93474573 0.75400466
-0.48933440 5.28756189 1.76342702 -0.24791761 0.93102860 0.75127089
-0.52506441 5.30887938 1.77176893 -0.26601994 0.93478221 0.75482476
-0.55656135 5.28852749 1.76599383 -0.28197762 0.93119866 0.75236440
-0.19709587 5.45696878 2.09282732 -0.09985714 0.96085763 0.89160496
-0.59260368 5.30938911 1.77433574 -0.30023822 0.93487197 0.75591832
-0.23188305 5.46865654 2.09791255 -0.11748181 0.96291560 0.89377141
-0.63053375 5.34316826 1.78716958 -0.31945521 0.94081974 0.76138592
-0.54111683 5.37507057 2.10935020 -0.27415279 0.94643706 0.89864415
-0.66288865 5.32970667 1.78396106 -0.33584756 0.93844944 0.76001900
-0.57249588 5.42789459 2.13149595 -0.29005075 0.95573825 0.90807891
-0.69324195 5.36595583 1.79743659 -0.35122582 0.94483215 0.76575994
-0.72511244 5.34836149 1.79294479 -0.36737278 0.94173414 0.76384628
-0.74694884 5.26309919 1.76535213 -0.37843603 0.92672127 0.75209105
-0.86175722 5.34340191 1.79807830 -0.43660283 0.94086087 0.76603335
-0.49210748 5.38591719 2.07248640 -0.24932256 0.94834691 0.88293910
-0.51885301 5.39838219 2.07829809 -0.26287299 0.95054173 0.88541508
-0.55184668 5.38574362 2.07466578 -0.27958897 0.94831640 0.88386762
-0.22671600 5.40189791 2.02152157 -0.11486396 0.95116079 0.86122662
-0.26104096 5.40783358 2.02436686 -0.13225444 0.95220596 0.86243880
-0.75264525 5.39750385 1.77296281 -0.38132206 0.95038712 0.75533342
-0.94373083 5.41164732 2.14552164 -0.47813416 0.95287746 0.91405421
-0.77960289 5.34380484 1.75658643 -0.39497995 0.94093186 0.74835658
-0.84118885 5.35367298 1.76288497 -0.42618203 0.94266939 0.75103998
-0.78884959 5.42207718 2.10009193 -0.39966473 0.95471394 0.89469987
-0.82208264 5.41148376 2.09791255 -0.41650200 0.95284867 0.89377141
-1.23413897 5.36903715 1.83080447 -0.62526727 0.94537473 0.77997565
-0.85663676 5.40989447 2.09936547 -0.43400860 0.95256883 0.89439040
-0.20837475 5.43218231 1.98299348 -0.10557151 0.95649326 0.84481257
-0.88446683 5.42051935 2.10517716 -0.44810849 0.95443964 0.89686632
-0.51050097 5.33931160 2.00516152 -0.25864148 0.94014066 0.85425675
-0.23345509 5.41802597 1.97811961 -0.11827827 0.95400059 0.84273612
-0.35805061 5.48000574 2.32984662 -0.18140365 0.96491396 0.99258202
-0.92125070 5.43139982 2.11171508 -0.46674475 0.95635545 0.89965165
-0.55859047 5.47355461 2.05779815 -0.28300568 0.96377802 0.87668151
-0.39259967 5.47948027 2.33063817 -0.19890767 0.96482140 0.99291921
-0.95219511 5.40714073 2.10445070 -0.48242250 0.95208395 0.89655685
-0.58672088 5.41420937 2.03645897 -0.29725772 0.95332861 0.86759037
-0.42851621 5.49705410 2.33934402 -0.21710452 0.96791583 0.99662817
-1.37262666 5.38615131 1.84748840 -0.69543099 0.94838816 0.78708345
-0.46452153 5.51256132 2.34725857 -0.23534635 0.97064632 1.00000000
-1.40498352 5.37192822 1.84556329 -0.71182436 0.94588375 0.78626329
-0.67463160 5.56592417 2.09763122 -0.34179702 0.98004240 0.89365155
-0.49739957 5.48940563 2.33855271 -0.25200376 0.96656907 0.99629104
-1.44119596 5.37213326 1.84877181 -0.73017114 0.94591987 0.78763026
-1.35894024 5.43569088 2.18907523 -0.68849689 0.95711106 0.93260932
-0.69377536 5.44110870 2.05139637 -0.35149607 0.95806497 0.87395418
-0.53307390 5.49897337 2.34409285 -0.27007788 0.96825373 0.99865133
-1.48611903 5.40311337 1.86288893 -0.75293106 0.95137483 0.79364455
-0.80987859 5.32710981 1.71015763 -0.41031891 0.93799222 0.72857660
-1.39711821 5.47781229 2.20900631 -0.70783943 0.96452773 0.94110054
-0.72747314 5.49704838 2.07415819 -0.36856881 0.96791482 0.88365132
-0.55790657 5.48543262 2.33934402 -0.28265917 0.96586949 0.99662817
-1.47740400 5.27578592 1.82053745 -0.74851567 0.92895514 0.77560157
-0.83769029 5.34014130 1.71570456 -0.42440951 0.94028676 0.73093975
-0.75804257 5.46461058 2.06348872 -0.38405657 0.96220320 0.87910587
-0.59426725 5.50008726 2.34725857 -0.30108103 0.96844989 1.00000000
-0.79318839 5.46528673 2.06562257 -0.40186295 0.96232224 0.88001490
-0.62739885 5.48346567 2.34171844 -0.31786692 0.96552318 0.99763972
-1.24518824 5.21388340 1.74335933 -0.63086528 0.91805542 0.74272144
-0.54229772 5.51833820 2.02337646 -0.27475107 0.97166348 0.86201686
-0.28117585 5.44625759 2.24388075 -0.14245564 0.95897162 0.95595807
-0.85941482 5.44012594 2.05993199 -0.43541607 0.95789194 0.87759060
-0.31641215 5.46095896 2.25082445 -0.16030784 0.96156019 0.95891631
-0.89512938 5.44383526 2.06348872 -0.45351058 0.95854509 0.87910587
-0.35359636 5.50120497 2.26856923 -0.17914695 0.96864671 0.96647608
-1.45533383 5.06567335 1.46236897 -0.73733395 0.89195871 0.62301147
-1.30070937 5.45863104 2.15167046 -0.65899462 0.96115029 0.91667384
-0.91375995 5.39903593 2.04783988 -0.46294963 0.95065689 0.87243897
-0.26630777 5.35318184 1.89497232 -0.13492283 0.94258291 0.80731297
-1.41875660 5.37968349 1.81075442 -0.71880239 0.94724929 0.77143371
-1.34240568 5.48114586 2.16402030 -0.68011975 0.96511471 0.92193520
-0.94700414 5.38950825 2.04641724 -0.47979254 0.94897926 0.87183291
-0.30049944 5.36079407 1.89836133 -0.15224579 0.94392329 0.80875683
-1.45448542 5.37799978 1.81327379 -0.73690414 0.94695282 0.77250707
-0.79335779 5.33333063 1.65899944 -0.40194878 0.93908757 0.70678174
-1.52211380 4.97362423 1.44269419 -0.77116752 0.87575078 0.61462945
-1.32938945 5.26505327 1.46453822 -0.67352521 0.92706531 0.62393564
-1.47273517 5.31199121 1.79374814 -0.74615020 0.93533009 0.76418859
-0.82827961 5.33767319 1.66199696 -0.41964164 0.93985218 0.70805877
-1.76087761 5.59644508 2.29389882 -0.89213544 0.98541647 0.97726721
-1.36292100 5.25846434 1.46507049 -0.69051367 0.92590517 0.62416238
-1.52962911 5.38671684 1.82272172 -0.77497512 0.94848776 0.77653211
-0.86566591 5.35686541 1.66979039 -0.43858314 0.94323152 0.71137899
-1.76897418 5.50219536 2.25920367 -0.89623749 0.96882105 0.96248609
-0.23005182 5.43902683 2.18393517 -0.11655403 0.95769840 0.93041950
-1.88871455 5.43456459 1.91358244 -0.95690304 0.95691270 0.81524146
-0.89930677 5.35132027 1.66979039 -0.45562702 0.94225514 0.71137899
-1.81406271 5.52272272 2.27249098 -0.91908127 0.97243553 0.96814686
-0.79743844 5.39632416 1.98995602 -0.40401620 0.95017940 0.84777880
-0.26496822 5.45412445 2.19073248 -0.13424416 0.96035677 0.93331534
-0.93194920 5.33992195 1.66799188 -0.47216508 0.94024813 0.71061277
-0.81706494 5.35356236 1.97533464 -0.41395983 0.94264990 0.84154963
-0.95611298 5.32983303 1.66619337 -0.48440745 0.93847167 0.70984656
-0.87972921 5.53544664 2.04565668 -0.44570822 0.97467595 0.87150890
-0.89564282 5.41320515 2.00179243 -0.45377073 0.95315176 0.85282147
-1.31102228 5.34597540 1.74775326 -0.66421962 0.94131404 0.74459338
-0.66319627 5.28153515 1.58120346 -0.33600342 0.92996746 0.67363840
-0.28617868 5.35273457 1.83768797 -0.14499028 0.94250417 0.78290820
-0.67949677 5.45750237 2.26316857 -0.34426194 0.96095157 0.96417522
-0.68786687 5.21468592 1.56202793 -0.34850258 0.91819668 0.66546905
-0.60927391 5.46329308 1.94445026 -0.30868405 0.96197122 0.82839203
-0.31875011 5.33197975 1.83109021 -0.16149235 0.93884969 0.78009737
-0.72627771 5.25004864 1.57423055 -0.36796317 0.92442334 0.67066771
-0.35212809 5.32798767 1.83043039 -0.17840305 0.93814677 0.77981627
-0.74750686 5.44487858 2.26162553 -0.37871873 0.95872879 0.96351784
-0.46329820 5.45945311 2.19828510 -0.23472656 0.96129507 0.93653297
-1.82963395 5.42473078 1.86429250 -0.92697030 0.95518118 0.79424250
-0.76487845 5.28324032 1.58585203 -0.38751993 0.93026769 0.67561883
-1.32189393 5.40242577 2.08055997 -0.66972762 0.95125377 0.88637871
-0.65184325 5.31812096 1.89429462 -0.33025149 0.93640941 0.80702424
-0.37925103 5.35641003 1.84098697 -0.19214469 0.94315135 0.78431368
-0.48093960 5.36310816 2.15976691 -0.24366444 0.94433075 0.92012316
-1.86309052 5.43942213 1.87248075 -0.94392085 0.95776802 0.79773092
-1.42553425 5.27323675 1.73419416 -0.72223622 0.92850626 0.73881686
-0.79063755 5.28525209 1.58759522 -0.40057057 0.93062192 0.67636144
-1.79747605 5.56698179 2.24465728 -0.91067773 0.98022860 0.95628887
-0.51717776 5.38764143 2.17109585 -0.26202422 0.94865054 0.92494959
-1.47717452 5.33011627 1.75638175 -0.74839938 0.93852156 0.74826938
-1.51958382 5.35181236 1.76685929 -0.76988572 0.94234180 0.75273311
-0.76254070 5.37750816 1.92072797 -0.38633552 0.94686627 0.81828564
-1.55425572 5.34580946 1.76809192 -0.78745198 0.94128478 0.75325829
-1.54310846 5.67926884 2.20361567 -0.78180432 1.00000000 0.93880397
-0.79603046 5.37075090 1.92005014 -0.40330285 0.94567645 0.81799686
-1.41614854 5.18783283 1.40634739 -0.71748102 0.91346842 0.59914464
-1.59275734 5.35233307 1.77363884 -0.80695856 0.94243348 0.75562143
-0.66971183 5.52008247 2.23151636 -0.33930448 0.97197062 0.95069045
-1.34922147 5.39766407 1.71295428 -0.68357295 0.95041531 0.72976804
-0.85351920 5.35238838 1.91666126 -0.43242911 0.94244319 0.81655312
-1.37092507 5.37644148 1.70815825 -0.69456887 0.94667846 0.72772479
-0.89280123 5.38031149 1.92886126 -0.45233104 0.94735986 0.82175064
-0.72989351 5.50871134 2.23000598 -0.36979505 0.96996838 0.95004702
-1.40229762 5.35848331 1.70516086 -0.71046358 0.94351643 0.72644782
-0.73298019 5.21169138 1.50744510 -0.37135890 0.91766942 0.64221519
-1.63446617 5.50172234 2.14813399 -0.82809001 0.96873778 0.91516715
-1.29879451 5.39645100 2.02546525 -0.65802449 0.95020169 0.86290675
-0.91907716 5.33197451 1.91327238 -0.46564355 0.93884873 0.81510931
-0.63778508 5.31659698 1.83570862 -0.32312903 0.93614107 0.78206491
-1.73973000 5.37841749 1.79582644 -0.88142115 0.94702637 0.76507396
-0.76380825 5.19368410 1.50350785 -0.38697773 0.91449875 0.64053780
-0.97420752 5.44455910 1.95665026 -0.49357492 0.95867252 0.83358955
-0.67347276 5.33122492 1.84230649 -0.34120992 0.93871677 0.78487581
-1.77650619 5.37640238 1.79890800 -0.90005350 0.94667161 0.76638681
-0.80068326 5.21725464 1.51194489 -0.40566015 0.91864902 0.64413226
-0.70864546 5.33999634 1.84692502 -0.35902992 0.94026124 0.78684342
-1.81025183 5.36513424 1.79890800 -0.91715050 0.94468749 0.76638681
-0.83729297 5.23677349 1.51925707 -0.42420819 0.92208588 0.64724743
-0.74243653 5.33730936 1.84758484 -0.37614989 0.93978810 0.78712457
-1.43271029 5.33620501 1.39476168 -0.72587192 0.93959367 0.59420878
-1.46468925 5.32149172 1.39325881 -0.74207383 0.93700296 0.59356850
-1.22695792 5.30938959 1.61955440 -0.62162900 0.93487203 0.68997699
-1.85021341 5.49217367 2.16947317 -0.93739676 0.96705645 0.92425829
-0.84310389 5.37967539 1.86737835 -0.42715225 0.94724786 0.79555714
-1.25804567 5.29227495 1.61664903 -0.63737941 0.93185848 0.68873924
-1.88714135 5.48750210 2.17231822 -0.95610601 0.96623391 0.92547035
-1.62008500 5.66855526 2.15357661 -0.82080388 0.99811357 0.91748589
-0.87570024 5.36681366 1.86473918 -0.44366696 0.94498318 0.79443282
-1.29265666 5.28983784 1.61839223 -0.65491480 0.93142939 0.68948185
-1.60155559 5.47093487 2.08116579 -0.81141615 0.96331674 0.88663679
-1.32255781 5.26863098 1.61432469 -0.67006397 0.92769527 0.68774897
-1.62048137 5.40862370 2.06097436 -0.82100475 0.95234507 0.87803465
-1.35079002 5.24170303 1.60851395 -0.68436766 0.92295384 0.68527347
-1.38780689 5.28150654 1.62304080 -0.70312196 0.92996240 0.69146228
-1.29771483 5.37857389 1.95732796 -0.65747750 0.94705391 0.83387828
-1.32872641 5.35936594 1.95326138 -0.67318928 0.94367182 0.83214581
-1.87500489 5.52609587 2.13129640 -0.94995713 0.97302943 0.90799385
-1.89739752 5.50655031 2.12711883 -0.96130222 0.96958792 0.90621412
-1.58498335 5.52650833 2.03527260 -0.80301994 0.97310209 0.86708498
-1.37141514 5.45373678 2.25719523 -0.69481719 0.96028852 0.96163040
-1.36777234 5.26280165 1.55863011 -0.69297159 0.92666888 0.66402149
-1.56763756 5.34149551 1.96952796 -0.79423183 0.94052523 0.83907586
-1.41113162 5.46654987 2.26625824 -0.71493924 0.96254468 0.96549153
-1.39934981 5.24853516 1.55694270 -0.70897007 0.92415684 0.66330260
-1.31398630 5.36415863 1.89442956 -0.66572130 0.94451571 0.80708176
-1.45340157 5.48803759 2.27909756 -0.73635501 0.96632820 0.97096145
-1.34539425 5.34663343 1.89113069 -0.68163389 0.94142991 0.80567634
-1.48881280 5.48237514 2.28060818 -0.75429583 0.96533114 0.97160500
-1.52389109 5.50924444 2.29495811 -0.77206796 0.97006226 0.97771847
-1.41657591 4.96305752 1.47763407 -0.71769756 0.87389022 0.62951481
-1.56246495 5.51382923 2.30100012 -0.79161114 0.97086954 0.98029256
-1.45622909 4.98356819 1.48663366 -0.73778754 0.87750173 0.63334888
-1.59911740 5.51102495 2.30402112 -0.81018084 0.97037578 0.98157960
-1.63475430 5.50442266 2.30553174 -0.82823598 0.96921325 0.98222315
-1.55569685 5.48775148 1.95776892 -0.78818214 0.96627784 0.83406615
-1.66771078 5.48872137 2.30326581 -0.84493315 0.96644861 0.98125780
-1.89437830 5.45414209 2.04408360 -0.95977253 0.96035993 0.87083870
-1.71411550 5.51708412 2.31988168 -0.86844373 0.97144270 0.98833668
-1.97377837 5.59580374 2.10169482 -1.00000000 0.98530352 0.89538276
-1.86033440 5.43801785 1.97294402 -0.94252449 0.95752078 0.84053117
-1.90124178 5.44585371 1.98020172 -0.96324986 0.95890051 0.84362316
