-21.05401993 5.81555986 -0.46200228 -0.97489238 1.00000000 -0.24496296
-21.10366249 5.68678951 -0.46221000 -0.97719103 0.97785759 -0.24507309
-20.94551659 5.50344229 -0.45924234 -0.96986818 0.94633061 -0.24349958
-21.17539597 5.42164516 -0.46223968 -0.98051262 0.93226540 -0.24508883
-21.20070839 5.32179832 -0.46223968 -0.98168468 0.91509646 -0.24508883
-21.31379509 4.97427893 1.77781165 -0.98692107 0.85533965 0.94263172
-21.32116508 5.20976591 -0.46357512 -0.98726237 0.89583224 -0.24579692
-21.22818756 4.90240669 0.26188976 -0.98295707 0.84298104 0.13885924
-21.12696075 4.79111576 1.75827503 -0.97826988 0.82384431 0.93227303
-21.03413963 4.71880341 0.25767031 -0.97397184 0.81141001 0.13662201
-21.28704071 4.68685913 1.76996219 -0.98568225 0.80591708 0.93846977
-21.06106567 5.71967840 -0.59090275 -0.97521859 0.98351294 -0.31330860
-21.24707603 4.62636948 0.26111925 -0.98383170 0.79551578 0.13845071
-21.26776314 4.85392904 1.02434516 -0.98478961 0.83464521 0.54312855
-21.24968529 4.76989555 -0.46105263 -0.98395252 0.82019544 -0.24445944
-20.69850349 5.48140955 -0.58235216 -0.95843041 0.94254202 -0.30877489
-21.17107391 4.69223356 1.01742804 -0.98031247 0.80684125 0.53946096
-21.22451401 4.62441730 -0.46022168 -0.98278701 0.79518008 -0.24401885
-20.90480614 5.39588928 -0.58604634 -0.96798313 0.92783660 -0.31073362
-21.59625053 4.59857607 -0.46553379 -1.00000000 0.79073662 -0.24683544
-21.11023521 5.34311485 -0.58990657 -0.97749537 0.91876191 -0.31278041
-21.25449944 4.98640394 1.66157258 -0.98417544 0.85742456 0.88099939
-21.14144897 5.20989037 -0.58986509 -0.97894073 0.89585364 -0.31275842
-21.18503952 4.90424442 0.13889939 -0.98095918 0.84329706 0.07364727
-21.22129250 4.83807993 1.65614963 -0.98263782 0.83191991 0.87812406
-21.03207016 4.72962236 0.13650687 -0.97387600 0.81327033 0.07237870
-21.22014046 4.69772530 1.65352035 -0.98258448 0.80778557 0.87672997
-21.21960068 4.63207674 0.13856851 -0.98255950 0.79649711 0.07347183
-21.26216888 4.89109755 0.90203285 -0.98453057 0.84103638 0.47827607
-21.24173927 4.81181240 -0.58998960 -0.98358458 0.82740313 -0.31282443
-21.06418610 5.58435678 -0.67732835 -0.97536314 0.96024406 -0.35913318
-21.10145378 4.71453905 0.89270020 -0.97708875 0.81067675 0.47332770
-21.17197609 4.65625525 -0.58787268 -0.98035425 0.80065471 -0.31170198
-21.13951874 5.46236372 -0.67836767 -0.97885132 0.93926704 -0.35968426
-21.29905319 4.65359068 0.90127105 -0.98623848 0.80019653 0.47787213
-21.30460358 5.39791298 -0.68193120 -0.98649549 0.92818457 -0.36157373
-21.24501801 4.97371340 1.53846431 -0.98373640 0.85524243 0.81572491
-21.32450676 5.26060724 -0.68158478 -0.98741710 0.90457451 -0.36139005
-21.21945000 4.82735443 1.53402042 -0.98255253 0.83007562 0.81336868
-21.06310654 4.74285078 0.05593473 -0.97531313 0.81554502 0.02965773
-21.23377991 4.69050789 1.53279448 -0.98321605 0.80654448 0.81271863
-21.17065811 4.62742329 0.05665275 -0.98029321 0.79569697 0.03003844
-21.11498642 4.84880924 0.79407412 -0.97771537 0.83376485 0.42103416
-21.22094536 4.81281805 -0.67653644 -0.98262173 0.82757604 -0.35871330
-21.03993988 5.59702253 -0.81759143 -0.97424042 0.96242195 -0.43350351
-21.14698601 4.71647835 0.79416007 -0.97919708 0.81101018 0.42107973
-21.14530373 4.65626955 -0.67386383 -0.97911918 0.80065715 -0.35729623
-20.95281410 5.43299055 -0.81365979 -0.97020608 0.93421626 -0.43141890
-21.17962265 5.38561487 -0.82015008 -0.98070830 0.92606992 -0.43486017
-21.19946289 5.24905825 -0.81971323 -0.98162699 0.90258867 -0.43462855
-21.24958801 4.87202263 1.40166414 -0.98394805 0.83775640 0.74319071
-21.20870972 5.11011457 -0.81896436 -0.98205519 0.87869692 -0.43423149
-21.21104813 4.79272842 -0.08794279 -0.98216343 0.82412159 -0.04662905
-21.14544106 4.70836735 1.39194107 -0.97912556 0.80961549 0.73803532
-21.16652298 4.64300823 -0.08811720 -0.98010176 0.79837680 -0.04672153
-21.19072151 4.89575529 0.65818363 -0.98122227 0.84183729 0.34898227
-21.17770958 4.82181215 -0.81596887 -0.98061973 0.82912260 -0.43264320
-21.16452026 4.74976921 0.65606195 -0.98000902 0.81673467 0.34785733
-21.13538170 4.67261982 -0.81365979 -0.97865975 0.80346859 -0.43141890
-21.26278877 4.66676283 0.65891528 -0.98455930 0.80246150 0.34937021
-21.24264526 4.87576675 1.28470731 -0.98362654 0.83840024 0.68117779
-21.11857605 4.82856417 -0.20987941 -0.97788161 0.83028364 -0.11128231
-21.16391563 5.68297529 -0.31232312 -0.97998101 0.97720176 -0.16560005
-21.13842583 4.71236277 1.27571738 -0.97880071 0.81030250 0.67641115
-21.09967613 4.68498564 -0.20971316 -0.97700644 0.80559492 -0.11119416
-21.03285789 5.50617313 -0.31095374 -0.97391248 0.94680017 -0.16487396
-21.13115692 4.89840984 0.55119455 -0.97846413 0.84229380 0.29225451
-21.28596687 5.42997599 -0.31275305 -0.98563254 0.93369788 -0.16582799
-21.04838371 4.74017715 0.54751128 -0.97463137 0.81508529 0.29030156
-21.19105530 5.29941368 -0.31176582 -0.98123771 0.91124737 -0.16530454
-21.21693230 4.67304754 0.55227417 -0.98243594 0.80354214 0.29282695
-21.14039421 5.14574623 -0.31108111 -0.97889185 0.88482386 -0.16494150
-21.13144875 5.00310183 -0.31074673 -0.97847766 0.86029583 -0.16476421
-21.11875916 4.87145519 1.15314674 -0.97789007 0.83765882 0.61142176
-21.13323975 4.86347580 -0.31050789 -0.97856057 0.83628678 -0.16463757
-21.16842842 4.74305010 1.15433609 -0.98018998 0.81557930 0.61205238
-21.08532524 4.71307230 -0.30987096 -0.97634196 0.81042451 -0.16429985
-21.09710884 4.90029716 0.40335357 -0.97688758 0.84261829 0.21386622
-21.29923630 4.63210869 1.16052115 -0.98624694 0.79650265 0.61533177
-21.22675323 4.85319185 1.88600874 -0.98289067 0.83451843 1.00000000
-21.17037964 4.77736712 0.40445277 -0.98028034 0.82148015 0.21444905
-21.16972542 4.73521233 1.87841761 -0.98025006 0.81423157 0.99597502
-21.12824249 4.66327047 0.40280396 -0.97832918 0.80186099 0.21357481
