-9.80068493 -10.49006367 2.46765089 -0.98476487 -0.88287830 0.99986082
-9.73591423 -10.55288601 2.46799445 -0.97825676 -0.88816565 1.00000000
-9.81256676 -10.60329533 1.12647390 -0.98595876 -0.89240825 0.45643291
-9.78334427 -10.35168743 -0.34923077 -0.98302251 -0.87123209 -0.14150387
-9.75246048 -10.67210293 1.12734604 -0.97991931 -0.89819932 0.45678630
-9.67996407 -10.37196255 -0.34839982 -0.97263491 -0.87293851 -0.14116718
-9.43542671 -10.37012196 0.11938207 -0.94806403 -0.87278360 0.04837210
-9.92518234 -10.65778828 1.63857663 -0.99727428 -0.89699459 0.66393042
-9.70387077 -10.75390339 1.12978816 -0.97503704 -0.90508395 0.45777580
-9.75126934 -10.58129883 -0.35139716 -0.97979963 -0.89055693 -0.14238167
-9.65161419 -10.74347019 0.12712386 -0.96978635 -0.90420586 0.05150897
-9.79689217 -10.61969852 1.62452340 -0.98438376 -0.89378881 0.65823627
-9.77304745 -10.63169575 0.63144821 -0.98198789 -0.89479852 0.25585479
-9.70478916 -10.85751820 1.13659108 -0.97512937 -0.91380447 0.46053228
-9.69860649 -10.62417507 -0.35133779 -0.97450811 -0.89416558 -0.14235760
-9.82061863 -10.51995182 2.39852810 -0.98676777 -0.88539380 0.97185314
-9.77607536 -10.98626423 0.13196707 -0.98229212 -0.92464018 0.05347138
-9.73130798 -10.68251324 1.62476563 -0.97779393 -0.89907551 0.65833437
-9.75698376 -10.74915695 0.63549209 -0.98037380 -0.90468442 0.25749332
-9.63834572 -10.69233894 -0.35148618 -0.96845317 -0.89990246 -0.14241773
-9.78511524 -10.61475372 2.40619469 -0.98320043 -0.89337265 0.97495949
-9.69631100 -11.03543949 0.13167354 -0.97427750 -0.92877895 0.05335245
-9.84119987 -10.42442322 0.04459862 -0.98883581 -0.87735379 0.01807079
-9.67860508 -10.79833698 0.63464075 -0.97249842 -0.90882361 0.25714839
-9.68380928 -10.87981606 -0.35400870 -0.97302133 -0.91568118 -0.14343983
-9.82194328 -10.53571987 0.04546399 -0.98690093 -0.88672090 0.01842143
-9.87424374 -10.66519928 1.05995750 -0.99215603 -0.89761829 0.42948133
-9.68643379 -11.02165890 -0.35561123 -0.97328502 -0.92761910 -0.14408916
-9.89279938 -10.44668770 -0.43653566 -0.99402046 -0.87922764 -0.17687871
-9.76393414 -10.68001556 1.05469894 -0.98107219 -0.89886528 0.42735061
-9.78579903 -11.27737617 -0.35943955 -0.98326916 -0.94914114 -0.14564034
-9.43683434 -10.38194370 0.04070441 -0.94820547 -0.87377858 0.01649291
-9.90341759 -10.68013859 1.55667090 -0.99508739 -0.89887565 0.63074327
-9.69797516 -10.74263000 1.05486333 -0.97444469 -0.90413511 0.42741722
-9.73943043 -11.36752605 -0.36000341 -0.97861010 -0.95672846 -0.14586881
-9.95230961 -10.77703953 -0.44238824 -1.00000000 -0.90703112 -0.17925009
-9.56809807 -10.65952301 0.04444590 -0.96139473 -0.89714056 0.01800892
-9.75607300 -10.62148476 1.54002106 -0.98028231 -0.89393914 0.62399697
-9.82110786 -10.66724014 0.55319995 -0.98681694 -0.89779007 0.22414958
-9.69914341 -10.84608555 1.06127214 -0.97456205 -0.91284227 0.43001398
-9.78522873 -11.53083611 -0.36228850 -0.98321187 -0.97047317 -0.14679471
-9.75948620 -10.66910076 -0.43802992 -0.98062527 -0.89794666 -0.17748415
-9.80391407 -11.02540779 0.04991814 -0.98508936 -0.92793465 0.02022620
-9.71855164 -10.71490479 1.54510856 -0.97651219 -0.90180171 0.62605834
-9.74446869 -10.71840382 0.55253333 -0.97911632 -0.90209615 0.22387949
-9.76387596 -11.65347290 -0.36347559 -0.98106635 -0.98079467 -0.14727569
-9.63453484 -10.66648579 -0.43624508 -0.96807027 -0.89772660 -0.17676097
-9.79920197 -11.16033649 0.05116531 -0.98461586 -0.93929070 0.02073153
-9.69297123 -10.79723454 0.55367613 -0.97394186 -0.90873080 0.22434254
-9.68463516 -10.85796356 -0.43989778 -0.97310430 -0.91384196 -0.17824098
-9.95076847 -10.68276787 1.99271250 -0.99984515 -0.89909691 0.80742180
-9.67935753 -10.91913986 0.55758059 -0.97257400 -0.91899079 0.22592457
-9.83934498 -10.61678791 0.97408766 -0.98864943 -0.89354384 0.39468795
-9.76398087 -10.57979012 -0.00863258 -0.98107690 -0.89042997 -0.00349781
-9.78312206 -10.63569736 1.97103703 -0.98300016 -0.89513534 0.79863918
-9.77782059 -10.68429279 0.97470063 -0.98246747 -0.89922529 0.39493632
-9.67379189 -10.44489765 2.27011847 -0.97201478 -0.87907702 0.91982317
-9.62871838 -10.56544590 -0.00954804 -0.96748585 -0.88922274 -0.00386875
-9.69581223 -10.72922230 0.97301501 -0.97422737 -0.90300667 0.39425331
-9.63293457 -10.70462608 -0.00859668 -0.96790946 -0.90093660 -0.00348326
-9.82077503 -10.60308456 1.48670936 -0.98678350 -0.89239055 0.60239577
-9.77284908 -10.60221577 0.48236877 -0.98196793 -0.89231741 0.19544969
-9.69560623 -10.83132458 0.97883809 -0.97420663 -0.91159993 0.39661276
-9.79098225 -10.98458195 -0.00577847 -0.98378998 -0.92449862 -0.00234136
-9.75128174 -10.66164303 1.48626232 -0.97980088 -0.89731902 0.60221463
-9.73021412 -10.69004345 0.48391613 -0.97768402 -0.89970928 0.19607668
-9.72461224 -10.73950100 -0.49652925 -0.97712117 -0.90387177 -0.20118734
-9.79564857 -11.13005638 -0.00477326 -0.98425883 -0.93674219 -0.00193406
-9.70671082 -10.74780846 1.49006224 -0.97532243 -0.90457094 0.60375428
-9.69352722 -10.78519249 0.48589328 -0.97399777 -0.90771735 0.19687778
-9.65295124 -10.79591274 -0.49638078 -0.96992069 -0.90861958 -0.20112719
-9.82860374 -10.53622723 1.89202178 -0.98757011 -0.88676357 0.76662320
-9.66794682 -10.89376736 0.48864412 -0.97142744 -0.91685534 0.19799238
-9.87464523 -10.63860035 0.88704717 -0.99219632 -0.89537966 0.35942024
-9.76804161 -10.58831787 -0.10478689 -0.98148489 -0.89114773 -0.04245831
-9.79983616 -10.63850594 1.89983881 -0.98467958 -0.89537168 0.76979053
-9.78060436 -10.67105770 0.88422889 -0.98274720 -0.89811134 0.35827830
-9.61094189 -10.55055046 -0.10509440 -0.96569967 -0.88796908 -0.04258291
-9.72746086 -10.69401741 1.89872217 -0.97740740 -0.90004373 0.76933813
-9.69459248 -10.71161842 0.88225609 -0.97410476 -0.90152508 0.35747895
-9.59804726 -10.67013073 -0.10491081 -0.96440399 -0.89803332 -0.04250853
-9.84915543 -10.62490559 1.39151549 -0.98963517 -0.89422703 0.56382442
-9.84382915 -10.67072201 0.39348614 -0.98909998 -0.89808309 0.15943559
-9.68135548 -10.79872417 0.88620168 -0.97277474 -0.90885621 0.35907766
-9.80352306 -11.00157833 -0.10402960 -0.98505002 -0.92592907 -0.04215147
-9.68670845 -10.58254910 1.37660110 -0.97331262 -0.89066219 0.55778128
-9.74423695 -10.69694614 0.39173028 -0.97909302 -0.90029019 0.15872413
-9.72851372 -10.74557877 -0.59043139 -0.97751319 -0.90438330 -0.23923530
-9.71946239 -10.47438812 2.14827895 -0.97660369 -0.88155901 0.87045532
-9.73817539 -11.06745720 -0.10401583 -0.97848397 -0.93147367 -0.04214589
-9.83467770 -10.32822037 -0.18526727 -0.98818046 -0.86925703 -0.07506794
-9.69750023 -10.72867393 1.38878477 -0.97439694 -0.90296054 0.56271797
-9.68085003 -10.76241207 0.39194974 -0.97272396 -0.90580004 0.15881306
-9.67148113 -10.81839943 -0.59093064 -0.97178257 -0.91051215 -0.23943760
-9.72435951 -10.61240673 2.16428137 -0.97709578 -0.89317513 0.87693930
-9.82978058 -10.45400429 -0.18555987 -0.98768836 -0.87984341 -0.07518650
-9.93608856 -10.63065910 1.82993984 -0.99837011 -0.89471126 0.74146837
-9.66488266 -10.88123131 0.39480305 -0.97111958 -0.91580027 0.15996918
-9.81541157 -10.63454723 1.81921220 -0.98624462 -0.89503855 0.73712170
-9.79717064 -10.66316891 0.80719858 -0.98441178 -0.89744741 0.32706660
-9.75639725 -10.70480919 1.82082129 -0.98031491 -0.90095198 0.73777366
-9.74202919 -10.73783588 0.80837119 -0.97887117 -0.90373164 0.32754174
-9.64768982 -10.62228203 -0.18555987 -0.96939206 -0.89400625 -0.07518650
-9.78943443 -10.53887081 1.30963016 -0.98363441 -0.88698608 0.53064549
-9.68466091 -10.77619267 0.80771977 -0.97310686 -0.90695989 0.32727778
-9.70074749 -10.81686211 -0.18615839 -0.97472322 -0.91038275 -0.07542901
-9.77674580 -10.65890598 1.31764400 -0.98235947 -0.89708865 0.53389263
-9.75528145 -10.67243862 0.32143220 -0.98020279 -0.89822757 0.13024025
-9.73055458 -10.98853683 -0.18665050 -0.97771823 -0.92483145 -0.07562841
-9.84232044 -10.32686710 -0.25143275 -0.98894840 -0.86914313 -0.10187735
-9.70824814 -10.71864796 1.31744361 -0.97547692 -0.90211672 0.53381139
-9.68134594 -10.72609234 0.32111466 -0.97277379 -0.90274328 0.13011158
-9.79670143 -11.20472431 -0.18733546 -0.98436463 -0.94302648 -0.07590595
-9.73468590 -10.34341717 -0.25093913 -0.97813332 -0.87053603 -0.10167735
-9.65625477 -10.83452415 0.32314685 -0.97025263 -0.91186923 0.13093500
-9.79135132 -11.34184074 -0.18766797 -0.98382705 -0.95456666 -0.07604068
-9.79359055 -10.53751183 -0.25238815 -0.98405206 -0.88687170 -0.10226447
-9.81739616 -10.63224602 1.71678078 -0.98644400 -0.89484483 0.69561774
-9.79443932 -10.65684891 0.72423607 -0.98413730 -0.89691550 0.29345125
-9.69603825 -10.56499290 -0.25202191 -0.97425008 -0.88918459 -0.10211608
-9.73299599 -10.67468739 1.71347368 -0.97796357 -0.89841688 0.69427776
-9.75147629 -10.74475574 0.72637707 -0.97982043 -0.90431404 0.29431877
-9.76377201 -11.60185814 -0.18826647 -0.98105592 -0.97645062 -0.07628318
-9.35641193 -10.32526016 -0.24878950 -0.94012469 -0.86900789 -0.10080635
-9.80660152 -10.58043003 1.20281112 -0.98535937 -0.89048386 0.48736379
-9.65441418 -10.77314472 0.72376031 -0.97006768 -0.90670335 0.29325849
-9.77802944 -11.73079109 -0.18862559 -0.98248845 -0.98730201 -0.07642869
-9.60337257 -10.69771957 -0.25230855 -0.96493912 -0.90035534 -0.10223222
-9.77821636 -10.64996529 1.20577347 -0.98250723 -0.89633614 0.48856410
-9.71623135 -10.64022064 0.22218582 -0.97627902 -0.89551604 0.09002687
-9.66858578 -10.89158916 0.72958857 -0.97149163 -0.91667199 0.29562002
-9.77772141 -11.88166428 -0.18901129 -0.98245752 -1.00000000 -0.07658497
-9.77779770 -11.02988815 -0.25520656 -0.98246521 -0.92831171 -0.10340645
-9.71110821 -10.71119308 1.20577347 -0.97576427 -0.90148932 0.48856410
-9.80340099 -10.87160110 0.22793162 -0.98503780 -0.91498977 0.09235500
-9.79273796 -11.18730068 -0.25622565 -0.98396635 -0.94156009 -0.10381938
-9.79615593 -11.00158596 0.23022994 -0.98430979 -0.92592973 0.09328625
-9.91742134 -11.47379303 -0.25859821 -0.99649447 -0.96567219 -0.10478071
-9.81675148 -11.16489887 0.23362747 -0.98637921 -0.93967468 0.09466288
-9.78661919 -11.46750164 -0.25788167 -0.98335159 -0.96514273 -0.10449038
-9.77891159 -11.60514832 -0.25867781 -0.98257709 -0.97672749 -0.10481296
-9.75772381 -11.84147644 -0.26001537 -0.98044819 -0.99661767 -0.10535493
