-10.53017044 8.31318665 2.30387449 -0.96229649 0.92375278 1.00000000
-10.57877636 8.16446304 2.29460406 -0.96673828 0.90722680 0.99597615
-10.65340328 8.11570740 2.29975438 -0.97355807 0.90180910 0.99821168
-10.20920849 8.18216705 -0.33201826 -0.93296546 0.90919405 -0.14411299
-10.37347221 8.20702171 -0.33415499 -0.94797665 0.91195583 -0.14504045
-10.63812256 8.13003349 1.03384924 -0.97216165 0.90340102 0.44874373
-10.46743870 8.17484951 -0.33495626 -0.95656371 0.90838093 -0.14538825
-10.65863800 8.10851288 0.10786110 -0.97403646 0.90100968 0.04681727
-10.68899536 8.06303215 1.03384924 -0.97681063 0.89595586 0.44874373
-10.56457996 8.14425755 -0.33581689 -0.96544099 0.90498155 -0.14576180
-10.56049252 7.92994499 0.10444885 -0.96506745 0.88116735 0.04533617
-10.68593216 8.21976185 1.50652480 -0.97653067 0.91337150 0.65390921
-10.66946983 8.17702484 0.57823896 -0.97502631 0.90862262 0.25098544
-10.74104500 7.99689960 1.03402364 -0.98156714 0.88860732 0.44881943
-10.66015434 8.11155701 -0.33664784 -0.97417498 0.90134794 -0.14612247
-10.69696140 7.92759705 0.10643016 -0.97753859 0.88090646 0.04619616
-10.60123253 8.04941940 1.48568726 -0.96879047 0.89444327 0.64486468
-10.64728546 8.05451202 0.57334369 -0.97299898 0.89500916 0.24886064
-10.82804775 7.95633221 1.03803563 -0.98951787 0.88409948 0.45056084
-10.67409134 8.01685238 -0.33596528 -0.97544861 0.89082444 -0.14582621
-10.79018688 7.89203739 0.10742082 -0.98605800 0.87695509 0.04662616
-10.68511581 8.03390217 1.49271381 -0.97645611 0.89271897 0.64791453
-10.70112514 8.01619816 0.57440788 -0.97791910 0.89075172 0.24932255
-10.70050526 7.95812607 -0.33575752 -0.97786248 0.88429880 -0.14573602
-10.71567154 8.15290451 2.24186563 -0.97924840 0.90594238 0.97308499
-10.76889992 7.99140072 1.49780214 -0.98411268 0.88799626 0.65012312
-10.76092720 7.95591211 0.57504642 -0.98338407 0.88405281 0.24959971
-10.74778557 8.07117653 2.23786569 -0.98218316 0.89686090 0.97134876
-10.62025642 8.17453003 0.03271239 -0.97052896 0.90834540 0.01419886
-10.87020779 7.96103954 1.50555563 -0.99337065 0.88462257 0.65348858
-10.89145947 7.94687986 0.58036733 -0.99531275 0.88304913 0.25190926
-10.68183041 8.16338444 0.97006857 -0.97615588 0.90710694 0.42105964
-10.81411076 8.01525402 2.24119902 -0.98824424 0.89064682 0.97279561
-10.73821163 8.15855408 0.03378139 -0.98130822 0.90657020 0.01466286
-10.67728043 8.05401134 0.96431702 -0.97574008 0.89495349 0.41856319
-10.72319794 7.66566896 -0.33347243 -0.97993624 0.85180128 -0.14474419
-10.52210236 8.12461376 -0.41383094 -0.96155918 0.90279877 -0.17962390
-10.89923573 7.97281647 2.24853206 -0.99602336 0.88593119 0.97597855
-10.61666298 7.96108341 0.03103254 -0.97020054 0.88462746 0.01346972
-10.79243565 8.99936295 -0.48573971 -0.98626345 1.00000000 -0.21083601
-10.69811916 8.18894291 1.42948461 -0.97764438 0.90994698 0.62046981
-10.70851040 7.97245264 0.96234506 -0.97859401 0.88589078 0.41770723
-10.70571518 7.55213404 -0.33228534 -0.97833854 0.83918542 -0.14422892
-10.62695026 8.09963512 -0.41524220 -0.97114062 0.90002316 -0.18023646
-10.73551655 7.94548273 0.03212699 -0.98106194 0.88289392 0.01394477
-10.76376820 8.86160469 -0.48301756 -0.98364371 0.98469245 -0.20965447
-10.24072075 8.19307613 -0.02013873 -0.93584520 0.91040623 -0.00874125
-10.70027924 8.08436489 1.42231596 -0.97784179 0.89832634 0.61735827
-10.71165371 8.11256123 0.50253683 -0.97888124 0.90145952 0.21812683
-10.80492020 7.93931007 0.96711063 -0.98740441 0.88220799 0.41977575
-10.78297234 8.11220264 -0.41798171 -0.98539871 0.90141964 -0.18142556
-10.70273209 8.69938946 -0.47930557 -0.97806597 0.96666723 -0.20804326
-10.36899376 8.18918896 -0.01925917 -0.94756740 0.90997428 -0.00835947
-10.72077942 8.02073383 1.41977227 -0.97971523 0.89125574 0.61625415
-10.68910122 8.01635456 0.49891803 -0.97682029 0.89076912 0.21655607
-10.66891670 7.94758654 -0.41403848 -0.97497576 0.88312769 -0.17971399
-10.68435574 8.60130119 -0.47742483 -0.97638661 0.95576781 -0.20722693
-10.50367832 8.21524715 -0.01816420 -0.95987546 0.91286987 -0.00788420
-10.83002758 7.99696684 1.42832839 -0.98969883 0.88861477 0.61996800
-10.74727821 7.95499039 0.49939418 -0.98213679 0.88395041 0.21676275
-10.77979183 7.92549706 -0.41561577 -0.98510802 0.88067311 -0.18039861
-10.60580444 8.18812084 -0.01758979 -0.96920824 0.90985560 -0.00763487
-10.63276958 8.18102264 1.81988657 -0.97167248 0.90906686 0.78992432
-10.85344601 7.92863703 0.50272727 -0.99183887 0.88102204 0.21820949
-10.70612431 8.19416714 0.89777499 -0.97837597 0.91052747 0.38968050
-10.73348331 8.17939091 -0.01672817 -0.98087615 0.90888554 -0.00726089
-10.69658470 8.12361050 1.82219863 -0.97750419 0.90268731 0.79092789
-10.66819382 8.05955791 0.88919365 -0.97490966 0.89556980 0.38595578
-10.54071999 8.16379261 -0.46792209 -0.96326053 0.90715230 -0.20310225
-10.58985424 8.09966087 2.12377429 -0.96775067 0.90002602 0.92182726
-10.78261852 8.98804665 -0.57614028 -0.98536634 0.99874252 -0.25007451
-10.67425728 8.02900696 -0.01796674 -0.97546381 0.89217502 -0.00779849
-10.72997665 8.04321098 1.81901956 -0.98055571 0.89375335 0.78954804
-10.72182369 7.99474859 0.88950014 -0.97981066 0.88836831 0.38608879
-10.69517231 8.17617512 -0.47113916 -0.97737509 0.90852821 -0.20449862
-10.70679283 8.08282471 2.13719440 -0.97843707 0.89815521 0.92765224
-10.77258682 8.86540222 -0.57345676 -0.98444963 0.98511440 -0.24890973
-10.71484852 7.95464230 -0.01807445 -0.97917318 0.88391173 -0.00784524
-10.24846077 8.19135857 -0.10773805 -0.93655252 0.91021538 -0.04676385
-10.64272785 8.11430264 1.36645281 -0.97258246 0.90165299 0.59311080
-10.82011986 8.00500011 1.82624471 -0.98879337 0.88950741 0.79268414
-10.67895603 8.10141659 0.43869907 -0.97589320 0.90022111 0.19041796
-10.81204128 7.95671177 0.89333111 -0.98805511 0.88414168 0.38775164
-10.77189827 8.12804508 -0.47193107 -0.98438668 0.90318006 -0.20484236
-10.74627209 8.00715160 2.13495779 -0.98204482 0.88974649 0.92668146
-10.94275093 8.89098930 -0.57807487 -1.00000000 0.98795766 -0.25091422
-10.36715794 8.18017960 -0.10754069 -0.94739962 0.90897316 -0.04667819
-10.70621967 8.05681324 1.36824107 -0.97838467 0.89526486 0.59388697
-10.62076092 7.95288467 0.43285352 -0.97057503 0.88371640 0.18788068
-10.66222095 7.94102144 -0.46698174 -0.97436386 0.88239819 -0.20269409
-10.84413910 7.97449064 2.14454365 -0.99098837 0.88611722 0.93084222
-10.76788044 8.63660812 -0.56883866 -0.98401952 0.95969105 -0.24690522
-10.48296356 8.16536808 -0.10735252 -0.95798248 0.90732735 -0.04659651
-10.74406815 8.00627232 1.36824107 -0.98184341 0.88964880 0.59388697
-10.74810505 7.96925640 0.43766752 -0.98221236 0.88553560 0.18997021
-10.74785233 7.92621613 -0.46846652 -0.98218924 0.88075304 -0.20333856
-10.90226555 8.66051197 -0.57258308 -0.99630028 0.96234721 -0.24853051
-10.59408569 8.17218018 -0.10714139 -0.96813732 0.90808427 -0.04650487
-10.85186386 7.98091125 1.37628794 -0.99169433 0.88683069 0.59737974
-10.66375732 8.21345043 1.75829315 -0.97450423 0.91267020 0.76318961
-10.85608101 7.94395828 0.44076222 -0.99207968 0.88272452 0.19131348
-10.58269024 8.10866642 0.80348533 -0.96709597 0.90102673 0.34875396
-10.75220490 8.43118095 -0.56447023 -0.98258698 0.93686420 -0.24500911
-10.71356678 8.15765762 -0.10694403 -0.97905606 0.90647054 -0.04641921
-10.62381840 8.07663155 1.74210060 -0.97085446 0.89746702 0.75616121
-10.65250206 8.05648327 0.80517632 -0.97347569 0.89522815 0.34948793
-10.76865101 8.33525944 -0.56303489 -0.98408991 0.92620552 -0.24438609
-10.65761280 8.00951385 -0.10725154 -0.97394276 0.89000899 -0.04655268
-10.73606300 8.05617142 1.75298870 -0.98111188 0.89519352 0.76088727
-10.69332981 7.98221827 0.80433083 -0.97720671 0.88697594 0.34912094
-10.69229126 8.16893768 -0.55797994 -0.97711182 0.90772402 -0.24219199
-10.71414566 7.94716787 -0.10723318 -0.97910899 0.88308114 -0.04654472
-10.19619274 8.20824528 -0.18137029 -0.93177599 0.91209179 -0.07872403
-10.62439919 8.10340309 1.27262008 -0.97090751 0.90044188 0.55238253
-10.80395603 8.00154781 1.75605965 -0.98731625 0.88912380 0.76222020
-10.55373764 8.00901127 0.34702873 -0.96445012 0.88995314 0.15062831
-10.76733780 7.93265963 0.80644453 -0.98396993 0.88146901 0.35003838
-10.66847706 8.04491329 -0.55504680 -0.97493559 0.89394253 -0.24091884
-10.30051994 8.21236897 -0.18164960 -0.94130993 0.91255003 -0.07884526
-10.69258785 8.07606888 1.27661133 -0.97713894 0.89740449 0.55411494
-10.89578056 7.99044800 1.76555192 -0.99570763 0.88789040 0.76634032
-10.65200806 8.00490952 0.34980887 -0.97343057 0.88949734 0.15183504
-10.68227005 7.97657251 -0.55411071 -0.97619605 0.88634855 -0.24051253
-10.54150677 8.07500839 1.99399137 -0.96333241 0.89728665 0.86549479
-10.42115116 8.20180607 -0.18194219 -0.95233375 0.91137630 -0.07897227
-10.74630547 8.01110840 1.27703142 -0.98204792 0.89018619 0.55429733
-10.71652508 7.94856071 0.35046732 -0.97932643 0.88323593 0.15212084
-10.77075577 7.93781853 -0.55560851 -0.98428226 0.88204229 -0.24116266
-10.67867088 8.07433033 2.01059771 -0.97586715 0.89721131 0.87270278
-10.73286343 7.67690897 -0.10756364 -0.98081952 0.85305029 -0.04668815
-10.54521561 8.19249821 -0.18224810 -0.96367133 0.91034204 -0.07910505
-10.84283543 7.97768211 1.28312325 -0.99086922 0.88647187 0.55694145
-10.82424927 7.92365885 0.35310110 -0.98917079 0.88046885 0.15326403
-10.66990376 8.19988155 0.74036044 -0.97506595 0.91116244 0.32135451
-10.74660206 8.02010822 2.01391888 -0.98207498 0.89118624 0.87414438
-10.69437981 7.54806328 -0.10780689 -0.97730267 0.83873308 -0.04679373
-10.66162682 8.17587948 -0.18252076 -0.97430956 0.90849537 -0.07922339
-10.70937061 8.16196632 1.68297029 -0.97867262 0.90694934 0.73049563
-10.65435505 8.08212185 0.73488826 -0.97364503 0.89807713 0.31897929
-10.68796253 7.67101717 -0.54861897 -0.97671622 0.85239559 -0.23812884
-10.83971405 7.98415041 2.02207112 -0.99058402 0.88719064 0.87768286
-10.66808414 8.07499981 -0.18233456 -0.97489965 0.89728570 -0.07914257
-10.67481709 8.03030872 1.66848791 -0.97551495 0.89231968 0.72420955
-10.64734840 7.97204638 0.73019791 -0.97300476 0.88584566 0.31694344
-10.67048931 7.97197390 -0.18213505 -0.97511947 0.88583755 -0.07905597
-10.62948608 8.12824535 1.20865607 -0.97137237 0.90320230 0.52461886
-10.77604103 8.00080872 1.67707002 -0.98476529 0.88904166 0.72793460
-10.67897224 8.13681221 0.28859994 -0.97589469 0.90415424 0.12526721
-10.76150227 7.95233583 0.73540944 -0.98343664 0.88365543 0.31920552
-10.71476841 7.48790550 -0.54599786 -0.97916591 0.83204842 -0.23699115
-10.27868462 8.19856548 -0.24253169 -0.93931448 0.91101623 -0.10527122
-10.67243671 8.08166122 1.20925713 -0.97529739 0.89802593 0.52487975
-10.86318111 7.98625660 1.68538404 -0.99272853 0.88742465 0.73154336
-10.64051533 8.02872181 0.28555167 -0.97238028 0.89214337 0.12394410
-10.87302876 7.95563364 0.74140275 -0.99362844 0.88402188 0.32180691
-10.64430332 7.77178574 -0.18166955 -0.97272646 0.86359286 -0.07885393
-10.38492298 8.17720985 -0.24308899 -0.94902307 0.90864319 -0.10551313
-10.72459984 8.01563454 1.20945740 -0.98006433 0.89068913 0.52496672
-10.70038128 7.96885681 0.28593269 -0.97785109 0.88549119 0.12410949
-10.73678398 7.73625278 -0.18184909 -0.98117775 0.85964447 -0.07893186
-10.50706768 8.16713905 -0.24380554 -0.96018523 0.90752411 -0.10582414
-10.81643391 7.97874212 1.21466637 -0.98845655 0.88658965 0.52722764
-10.79700279 7.93572855 0.28777435 -0.98668087 0.88181001 0.12490886
-10.63646793 8.17314720 0.66107702 -0.97201043 0.90819174 0.28694141
-10.62853336 7.55762005 -0.18121068 -0.97128534 0.83979499 -0.07865475
-10.63583279 8.16073227 -0.24458578 -0.97195238 0.90681219 -0.10616281
-10.57284260 8.05756283 1.56567514 -0.96619606 0.89534813 0.67958355
-10.63994503 8.06988907 0.65750873 -0.97232819 0.89671779 0.28539261
-10.73645115 7.53309870 -0.18145674 -0.98114735 0.83707023 -0.07876156
-10.63434696 8.05381966 -0.24406031 -0.97181660 0.89493221 -0.10593472
-10.68026638 8.03398991 1.57483304 -0.97601295 0.89272875 0.68355852
-10.61540794 7.94653034 0.65191835 -0.97008586 0.88301033 0.28296608
-10.61273861 7.93285084 -0.24334377 -0.96984190 0.88149029 -0.10562371
-10.60803413 8.11626720 1.10338640 -0.96941203 0.90187132 0.47892645
-10.76871681 7.99516487 1.58093834 -0.98409593 0.88841456 0.68620855
-10.56045437 8.03447437 0.19370660 -0.96506393 0.89278257 0.08407862
-10.73890781 7.93436098 0.65738976 -0.98137188 0.88165808 0.28534096
-10.68580532 8.06989765 1.10653400 -0.97651911 0.89671874 0.48029265
-10.86669064 7.96259356 1.58857000 -0.99304926 0.88479525 0.68952107
-10.64586067 7.99442959 0.19480580 -0.97286880 0.88833284 0.08455574
-10.85461426 7.91505814 0.66226649 -0.99194568 0.87951314 0.28745770
-10.66705799 7.79203701 -0.24302530 -0.97480589 0.86584318 -0.10548548
-10.69185543 7.99555206 1.10283101 -0.97707200 0.88845754 0.47868538
-10.69783878 7.95493317 0.19525547 -0.97761875 0.88394403 0.08475091
-10.70932388 7.72017241 -0.24296160 -0.97866833 0.85785764 -0.10545783
-10.80910015 7.97798634 1.11060727 -0.98778635 0.88650566 0.48206067
-10.79430103 7.92193651 0.19670442 -0.98643392 0.88027745 0.08537983
-10.67459869 7.59347963 -0.24214952 -0.97549498 0.84377968 -0.10510534
-10.71719360 7.52280474 -0.24210176 -0.97938752 0.83592635 -0.10508461
