12.34357834 -7.61618233 0.12826128 0.90267003 -0.97861141 0.05332490
12.67997169 -7.74090052 0.13471889 0.92727005 -0.99463660 0.05600967
12.80723381 -7.70840502 0.13640667 0.93657660 -0.99046123 0.05671137
12.87778854 -7.64101791 0.13688366 0.94173616 -0.98180258 0.05690968
12.99464226 -7.60024309 0.13835129 0.95028150 -0.97656339 0.05751985
12.92597675 -7.45169020 0.13589300 0.94526011 -0.95747566 0.05649781
12.46714020 -7.68582153 0.04854372 0.91170597 -0.98755944 0.02018216
13.16383076 -7.43512440 1.18525827 0.96265405 -0.95534712 0.49277368
12.57315922 -7.66978216 0.04958726 0.91945899 -0.98549855 0.02061601
13.10226917 -7.29233980 1.17444336 0.95815212 -0.93700057 0.48827738
13.18884087 -7.52220249 -0.36317882 0.96448302 -0.96653587 -0.15099238
12.86021805 -7.12095737 0.13185699 0.94045126 -0.91497946 0.05481983
12.84884262 -7.72802973 0.05297242 0.93961936 -0.99298280 0.02202340
13.16729259 -7.46082592 0.66837537 0.96290720 -0.95864952 0.27787849
13.21839809 -7.42941189 -0.36288205 0.96664447 -0.95461309 -0.15086900
13.08740902 -7.13935757 0.13567285 0.95706540 -0.91734374 0.05640628
12.91948986 -7.66043615 0.05330330 0.94478571 -0.98429763 0.02216096
13.15157700 -7.37392759 1.70133150 0.96175796 -0.94748384 0.70733225
13.20867538 -7.37503290 0.66805613 0.96593350 -0.94762588 0.27774578
13.32061958 -7.15801287 0.13959879 0.97411984 -0.91974074 0.05803850
13.06742764 -7.63777494 0.05477954 0.95560420 -0.98138589 0.02277471
13.19938755 -7.29210615 1.70157385 0.96525431 -0.93697053 0.70743299
13.51800919 -7.37546873 -0.36638388 0.98855466 -0.94768190 -0.15232489
12.98529530 -7.48047400 0.05287061 0.94959801 -0.96117413 0.02198107
13.46537113 -7.23750019 -0.36472201 0.98470533 -0.92995417 -0.15163396
12.33095360 -7.62260437 -0.00773506 0.90174681 -0.97943664 -0.00321587
13.17857838 -7.44936562 1.10974979 0.96373254 -0.95717698 0.46138087
13.06850338 -7.33822536 0.05289606 0.95568287 -0.94289643 0.02199165
12.53578281 -7.66748714 -0.00595798 0.91672570 -0.98520362 -0.00247704
13.09636211 -7.29446840 1.09758925 0.95772016 -0.93727404 0.45632511
13.17334080 -7.53354788 -0.45288968 0.96334952 -0.96799362 -0.18828987
13.39761639 -7.41319704 0.05701934 0.97975051 -0.95252961 0.02370591
12.61970615 -7.61021042 -0.00558102 0.92286295 -0.97784412 -0.00232032
12.53329563 -7.73690319 0.49569318 0.91654384 -0.99412298 0.20608550
13.20823097 -7.44374037 -0.45259914 0.96590096 -0.95645416 -0.18816906
12.70684338 -7.55421972 -0.00516816 0.92923516 -0.97064978 -0.00214868
13.16654682 -7.34698439 1.61633289 0.96285266 -0.94402188 0.67199391
13.05128288 -7.30236149 0.57491273 0.95442355 -0.93828827 0.23902121
12.56970215 -7.65074635 0.49509144 0.91920620 -0.98305261 0.20583533
13.50731945 -7.25374174 0.05727386 0.98777294 -0.93204105 0.02381173
12.82658482 -7.51660109 -0.00441425 0.93799168 -0.96581614 -0.00183523
12.71526623 -7.63008738 0.49999139 0.92985111 -0.98039812 0.20787250
13.67451859 -7.23341179 0.05903007 1.00000000 -0.92942882 0.02454188
12.96541691 -7.48875141 -0.00346288 0.94814432 -0.96223772 -0.00143970
13.50689125 -7.33659983 0.59472090 0.98774165 -0.94268757 0.24725650
12.79221535 -7.56729984 0.50145274 0.93547827 -0.97233045 0.20848006
12.90367413 -7.55123615 0.50523520 0.94362915 -0.97026640 0.21005262
13.18166447 -7.45780802 1.02557576 0.96395820 -0.95826173 0.42638534
13.19521618 -7.42893791 -0.00193711 0.96494925 -0.95455217 -0.00080536
12.56499672 -7.68302917 -0.10404795 0.91886210 -0.98720068 -0.04325816
13.19427299 -7.39986944 2.06987715 0.96488023 -0.95081717 0.86055589
12.31564426 -7.71716928 0.39407143 0.90062726 -0.99158734 0.16383605
13.14459705 -7.32834148 1.01822031 0.96124750 -0.94162643 0.42332730
12.82010078 -7.72915936 -0.10349260 0.93751752 -0.99312800 -0.04302727
13.14516926 -7.26430464 2.05398178 0.96128935 -0.93339831 0.85394734
13.18308258 -7.44871616 -0.51271355 0.96406192 -0.95709354 -0.21316177
13.13375950 -7.31637621 2.39920807 0.96045500 -0.94008905 0.99747592
12.93540668 -7.68839979 -0.10331360 0.94594967 -0.98789072 -0.04295285
12.67938995 -7.72543812 0.40555775 0.92722750 -0.99264985 0.16861151
13.21237850 -7.25171471 2.40527916 0.96620429 -0.93178058 1.00000000
13.03346252 -7.63636065 -0.10318051 0.95312041 -0.98120415 -0.04289752
13.09851074 -7.27066374 1.54616714 0.95787728 -0.93421537 0.64282233
12.84922409 -7.71885872 0.41075221 0.93964726 -0.99180442 0.17077112
13.15213966 -7.59542179 -0.10299233 0.96179909 -0.97594386 -0.04281928
12.93527317 -7.66042948 0.41236174 0.94593996 -0.98429680 0.17144029
12.32872581 -7.69973469 -0.18617833 0.90158391 -0.98934716 -0.07740404
13.05049229 -7.64597082 0.41572717 0.95436573 -0.98243898 0.17283946
13.21221924 -7.43756580 -0.10305199 0.96619266 -0.95566082 -0.04284409
12.37515640 -7.62107325 -0.18617168 0.90497929 -0.97923988 -0.07740128
12.99450779 -7.50371313 0.41133749 0.95027167 -0.96416014 0.17101446
13.17510891 -7.36037445 0.92777127 0.96347880 -0.94574243 0.38572291
12.75472450 -7.74408054 -0.18746181 0.93273664 -0.99504519 -0.07793765
13.17547131 -7.29529524 1.98387289 0.96350533 -0.93738031 0.82479942
13.16802120 -7.44085026 -0.61008942 0.96296048 -0.95608282 -0.25364599
12.80828285 -7.66686249 -0.18748176 0.93665332 -0.98512340 -0.07794595
13.17162800 -7.42895317 1.45852554 0.96322423 -0.95455414 0.60638511
12.46312904 -7.62200022 0.32619509 0.91141266 -0.97935897 0.13561632
13.51547432 -7.27655506 -0.10262056 0.98836929 -0.93497235 -0.04266472
12.84585857 -7.58015060 -0.18744186 0.93940115 -0.97398168 -0.07792936
13.10512733 -7.28309345 1.44487143 0.95836115 -0.93581247 0.60070843
12.83996296 -7.09465647 0.39904639 0.93897003 -0.91159999 0.16590440
12.61699867 -7.60739088 0.33013242 0.92266494 -0.97748178 0.13725327
13.03337765 -7.58054781 -0.18798052 0.95311421 -0.97403270 -0.07815330
13.07723522 -7.11922455 0.40709415 0.95632142 -0.91475677 0.16925026
12.76945305 -7.59012699 0.33400625 0.93381369 -0.97526354 0.13886382
13.13591862 -7.30928326 2.26180553 0.96061289 -0.93917763 0.94035053
12.44705200 -7.78264189 -0.25472885 0.91023695 -1.00000000 -0.10590407
13.40959835 -7.21897888 0.41953155 0.98062670 -0.92757434 0.17442115
12.86543751 -7.56525040 0.33622894 0.94083291 -0.97206712 0.13978791
13.19444847 -7.26067781 2.26603270 0.96489310 -0.93293226 0.94210798
13.18906689 -7.47811604 -0.18825983 0.96449953 -0.96087116 -0.07826943
12.52972412 -7.72532082 -0.25504732 0.91628265 -0.99263477 -0.10603648
13.05810833 -7.56827068 0.34156340 0.95492274 -0.97245520 0.14200573
13.13533211 -7.35712957 0.84472179 0.96056998 -0.94532549 0.35119492
13.31966114 -7.44181108 -0.18857904 0.97404975 -0.95620626 -0.07840214
12.72486019 -7.73599052 -0.25641674 0.93055272 -0.99400574 -0.10660581
13.16583252 -7.30487442 1.89832902 0.96280044 -0.93861115 0.78923440
13.43628979 -7.39646101 -0.18884504 0.98257864 -0.95037919 -0.07851274
12.86748600 -7.71256351 -0.25729251 0.94098276 -0.99099553 -0.10696992
12.46652412 -7.61623240 0.22718216 0.91166091 -0.97861785 0.09445147
13.47897911 -7.30999088 -0.18883173 0.98570043 -0.93926859 -0.07850720
12.77117348 -7.54590654 -0.25595495 0.93393952 -0.96958160 -0.10641383
13.10718346 -7.29995346 1.37193763 0.95851153 -0.93797886 0.57038605
12.79648685 -7.70836258 0.23542616 0.93579066 -0.99045575 0.09787893
13.44520473 -7.18285370 -0.18853249 0.98323059 -0.92293257 -0.07838279
12.90985489 -7.51898575 -0.25679889 0.94408113 -0.96612257 -0.10676470
13.28279591 -7.25876665 0.34296051 0.97135383 -0.93268669 0.14258657
12.89963341 -7.66055155 0.23702498 0.94333363 -0.98431247 0.09854364
13.01613712 -7.49909639 -0.25745174 0.95185339 -0.96356696 -0.10703612
13.42596912 -7.25486660 0.34689784 0.98182392 -0.93218559 0.14422353
12.97520733 -7.62302637 0.23817414 0.94886029 -0.97949082 0.09902141
13.11687088 -7.44785118 -0.25794536 0.95921993 -0.95698237 -0.10724134
13.11620617 -7.59558201 0.24087217 0.95917135 -0.97596449 0.10014313
13.17140293 -7.38197613 0.76146543 0.96320778 -0.94851804 0.31658089
13.25583935 -7.41717052 -0.25878927 0.96938252 -0.95304018 -0.10759220
13.17754173 -7.31687450 1.79385984 0.96365672 -0.94015306 0.74580109
13.43168831 -7.40536213 -0.25996760 0.98224211 -0.95152295 -0.10808209
13.47795200 -7.32082272 -0.25996760 0.98562533 -0.94066036 -0.10808209
13.17998791 -7.35090923 1.26465070 0.96383560 -0.94452620 0.52578127
12.84463692 -7.11773539 0.22908078 0.93931180 -0.91456544 0.09524083
13.46905804 -7.20667267 -0.25947398 0.98497492 -0.92599308 -0.10787687
13.07848740 -7.14062595 0.23447685 0.95641303 -0.91750669 0.09748425
13.42573643 -7.22162104 0.24307057 0.98180687 -0.92791384 0.10105711
13.49666214 -7.17803860 0.24411981 0.98699361 -0.92231387 0.10149334
