-7.57430077 -7.85426044 2.44341493 -0.94653380 -0.94469839 0.95835322
-7.51272058 -7.88896227 2.43942904 -0.93883836 -0.94887227 0.95678985
-7.55768013 -8.03706360 2.47087407 -0.94445682 -0.96668565 0.96912318
-7.59901381 -7.89950609 1.87606430 -0.94962215 -0.95014048 0.73582762
-7.55356455 -7.92665434 1.87400424 -0.94394249 -0.95340580 0.73501962
-7.50226355 -7.97252083 1.87366080 -0.93753159 -0.95892256 0.73488492
-7.74533510 -7.76397085 0.06335497 -0.96790737 -0.93383849 0.02484901
-7.82526493 -7.94377756 0.06673054 -0.97789592 -0.95546538 0.02617297
-7.88236046 -8.10335159 0.06955574 -0.98503095 -0.97465873 0.02728107
-7.86322927 -7.98065615 -0.30412215 -0.98264021 -0.95990109 -0.11928242
-7.78704548 -8.10649014 0.06838163 -0.97311980 -0.97503620 0.02682056
-7.59289694 -7.88437462 2.38796186 -0.94885772 -0.94832051 0.93660349
-7.90758371 -8.12753963 -0.30614015 -0.98818302 -0.97756797 -0.12007391
-7.62744617 -8.04044914 0.06548304 -0.95317525 -0.96709287 0.02568368
-7.52568007 -7.91356325 2.38234425 -0.94045788 -0.95183122 0.93440014
-7.47139978 -7.94005442 0.81615520 -0.93367463 -0.95501757 0.32011139
-7.75540876 -8.07161331 -0.30397376 -0.96916628 -0.97084129 -0.11922421
-7.59724236 -8.11014271 0.06603341 -0.94940078 -0.97547555 0.02589954
-7.49991894 -7.98626995 2.39012265 -0.93723857 -0.96057630 0.93745095
-7.48270845 -8.02773190 0.82243484 -0.93508786 -0.96556330 0.32257438
-7.66912317 -8.05728340 -0.30293506 -0.95838344 -0.96911770 -0.11881682
-7.47070265 -8.05041599 0.06364850 -0.93358755 -0.96829170 0.02496414
-7.69100857 -7.72977543 0.00092247 -0.96111840 -0.92972553 0.00036181
-7.54435253 -7.94233847 1.19808078 -0.94279128 -0.95529228 0.46990976
-7.55056477 -7.97730875 0.44723782 -0.94356763 -0.95949847 0.17541507
-7.57050371 -8.05422306 -0.30189639 -0.94605935 -0.96874958 -0.11840943
-7.58812237 -7.90852880 1.81854367 -0.94826108 -0.95122570 0.71326697
-7.44558954 -8.12525558 0.06434563 -0.93044925 -0.97729325 0.02523756
-7.75041771 -7.88758421 0.00288230 -0.96854252 -0.94870651 0.00113049
-7.47125721 -7.96492577 1.19396174 -0.93365681 -0.95800906 0.46829420
-7.48259926 -8.00559235 0.44585437 -0.93507421 -0.96290034 0.17487246
-7.49938250 -8.07960701 -0.30145124 -0.93717158 -0.97180271 -0.11823484
-7.53692293 -7.95462084 1.81821036 -0.94186288 -0.95676959 0.71313626
-7.42518616 -8.20603657 0.06518952 -0.92789948 -0.98700947 0.02556855
-7.89883661 -8.13956356 0.00649652 -0.98708993 -0.97901422 0.00254806
-7.49107599 -8.08757782 1.20656121 -0.93613350 -0.97276145 0.47323596
-7.45242882 -8.07450008 0.44745067 -0.93130392 -0.97118849 0.17549855
-7.44037819 -8.11770725 -0.30127320 -0.92979801 -0.97638535 -0.11816500
-7.78933382 -7.90270138 -0.36821398 -0.97340578 -0.95052481 -0.14442043
-7.52594376 -8.04350758 1.82787681 -0.94049084 -0.96746075 0.71692759
-7.25115824 -8.11511612 0.06181395 -0.90615183 -0.97607374 0.02424459
-7.79901981 -8.13858318 0.00560569 -0.97461617 -0.97889632 0.00219866
-7.40797520 -8.18508816 -0.30168867 -0.92574871 -0.98448986 -0.11832796
-7.80380249 -8.01728153 -0.37012333 -0.97521383 -0.96430629 -0.14516932
-7.16438198 -8.11996365 0.06082329 -0.89530772 -0.97665679 0.02385604
-7.71743202 -8.15552330 0.00504574 -0.96442044 -0.98093385 0.00197904
-7.50712395 -7.96403170 0.76399779 -0.93813896 -0.95790154 0.29965428
-7.36532497 -8.21543217 -0.30159962 -0.92041886 -0.98813957 -0.11829303
-7.84519672 -8.13586903 -0.37248927 -0.98038673 -0.97856987 -0.14609729
-7.10371590 -8.12799644 0.06019955 -0.88772649 -0.97762293 0.02361139
-7.65424871 -8.16558266 0.00458760 -0.95652467 -0.98214376 0.00179934
-8.00214481 -7.90877199 -0.03686843 -1.00000000 -0.95125496 -0.01446049
-7.58721685 -7.93600798 1.13926864 -0.94814789 -0.95453089 0.44684255
-7.47870922 -8.03434658 0.76662707 -0.93458807 -0.96635890 0.30068552
-7.35985804 -8.31404018 -0.30263832 -0.91973567 -1.00000000 -0.11870043
-7.75109673 -8.14018822 -0.37120253 -0.96862739 -0.97908938 -0.14559260
-7.04468489 -8.16337204 0.05997940 -0.88034958 -0.98187786 0.02352505
-7.95652771 -7.96314669 -0.03681458 -0.99429941 -0.95779508 -0.01443937
-7.44155312 -7.88258314 1.12308121 -0.92994481 -0.94810504 0.44049352
-7.57154465 -8.00116825 0.38711625 -0.94618940 -0.96236825 0.15183426
-7.54060125 -8.02003574 -0.36638764 -0.94232249 -0.96463758 -0.14370410
-7.43206644 -8.13143921 0.00234780 -0.92875928 -0.97803706 0.00092085
-7.76753139 -7.87179422 -0.03859166 -0.97068119 -0.94680732 -0.01513638
-7.49529028 -7.78452682 2.27696562 -0.93666017 -0.93631095 0.89306867
-7.48968935 -8.01506996 0.38492593 -0.93596023 -0.96404034 0.15097518
-7.49824047 -8.07603264 -0.36663669 -0.93702883 -0.97137284 -0.14380179
-7.82240009 -8.02806187 -0.03724539 -0.97753793 -0.96560299 -0.01460834
-7.51482439 -7.90388155 2.29829884 -0.93910128 -0.95066673 0.90143597
-7.46768904 -8.09274960 0.38692579 -0.93321091 -0.97338349 0.15175955
-7.41485357 -8.08767319 -0.36564052 -0.92660826 -0.97277290 -0.14341107
-7.25330210 -8.13922787 0.00089702 -0.90641975 -0.97897387 0.00035183
-7.86116505 -7.94262600 -0.41451880 -0.98238224 -0.95532686 -0.16258205
-7.64724016 -7.94712496 -0.03886092 -0.95564878 -0.95586801 -0.01524198
-7.48371935 -7.97093868 2.30415487 -0.93521416 -0.95873231 0.90373278
-7.41499090 -8.19033623 -0.36721781 -0.92662543 -0.98512107 -0.14402972
-7.18480825 -8.16515541 0.00056614 -0.89786029 -0.98209238 0.00022205
-7.87806129 -8.06061745 -0.41689450 -0.98449373 -0.96951872 -0.16351385
-7.65215397 -8.05310917 -0.03814291 -0.95626289 -0.96861559 -0.01496036
-7.50829983 -7.90233994 1.45255935 -0.93828595 -0.95048136 0.56972104
-7.53000689 -7.96573734 0.70408177 -0.94099855 -0.95810670 0.27615410
-7.38969040 -8.24004936 -0.36763287 -0.92346370 -0.99110049 -0.14419252
-7.86358738 -8.12211418 -0.41773587 -0.98268497 -0.97691542 -0.16384386
-7.57284689 -7.91634798 1.73906136 -0.94635212 -0.95216620 0.68209249
-7.66337109 -8.14159584 -0.03749670 -0.95766461 -0.97925866 -0.01470691
-7.51120472 -8.00574398 1.46383059 -0.93864894 -0.96291858 0.57414186
-7.48252439 -8.01581287 0.70438826 -0.93506485 -0.96412969 0.27627429
-7.78895569 -8.14675236 -0.41689450 -0.97335851 -0.97987890 -0.16351385
-7.49724913 -7.93645620 1.73299038 -0.93690497 -0.95458478 0.67971134
-7.94933271 -7.97160435 -0.11201103 -0.99340028 -0.95881236 -0.04393283
-7.55753517 -7.92449379 1.09285796 -0.94443870 -0.95314598 0.42863941
-7.68281651 -8.13727856 -0.41491476 -0.96009463 -0.97873938 -0.16273735
-7.46605158 -8.00365257 1.73746371 -0.93300629 -0.96266705 0.68146586
-7.42954254 -8.09409332 -0.03923788 -0.92844391 -0.97354513 -0.01538983
-7.75990725 -7.88056660 -0.11246541 -0.96972841 -0.94786245 -0.04411105
-7.46679783 -7.92834091 1.08615220 -0.93309957 -0.95360869 0.42600927
-7.44068384 -7.93868446 0.33012658 -0.92983621 -0.95485282 0.12948184
-7.60432148 -8.15609360 -0.41392490 -0.95028543 -0.98100245 -0.16234912
-7.36111498 -8.12131882 -0.03947123 -0.91989273 -0.97681975 -0.01548136
-7.83177042 -8.05369091 -0.11206611 -0.97870892 -0.96868557 -0.04395443
-7.47221756 -8.03487301 1.09531677 -0.93377686 -0.96642220 0.42960379
-7.45296431 -8.05285168 0.33408093 -0.93137085 -0.96858466 0.13103281
-7.91000223 -8.00640202 -0.48927027 -0.98848528 -0.96299773 -0.19190098
-7.28731537 -8.14203358 -0.03977638 -0.91067028 -0.97931129 -0.01560104
-7.75186777 -8.07249928 -0.11216249 -0.96872377 -0.97094780 -0.04399224
-7.39280319 -8.08917904 0.33347917 -0.92385274 -0.97295403 0.13079679
-7.94625139 -8.14450073 -0.49313948 -0.99301517 -0.97960806 -0.19341856
-7.23337078 -8.18465805 -0.03981229 -0.90392900 -0.98443812 -0.01561513
-7.66376591 -8.08193016 -0.11228641 -0.95771396 -0.97208214 -0.04404084
-7.56063938 -7.88645601 2.20394754 -0.94482660 -0.94857085 0.86442959
-7.53744841 -7.93606138 1.40373099 -0.94192851 -0.95453727 0.55056965
-7.53332901 -7.97150755 0.63650256 -0.94141376 -0.95880067 0.24964826
-7.32339859 -8.13149452 -0.40877759 -0.91517949 -0.97804368 -0.16033025
-7.87159634 -8.14454842 -0.49151689 -0.98368579 -0.97961378 -0.19278215
-7.60227251 -8.09321594 -0.11236443 -0.95002937 -0.97343957 -0.04407144
-7.52339172 -7.92199659 2.20394754 -0.94017190 -0.95284557 0.86442959
-7.49015093 -7.98614788 1.40428936 -0.93601793 -0.96056163 0.55078864
-7.27683449 -8.14013290 0.33175990 -0.90936053 -0.97908270 0.13012245
-7.47081947 -8.00557899 0.63523436 -0.93360215 -0.96289879 0.24915084
-7.17935038 -8.07259083 -0.40531304 -0.89717823 -0.97095883 -0.15897138
-7.79261208 -8.16497326 -0.49026877 -0.97381544 -0.98207045 -0.19229262
-7.47631741 -8.06031227 -0.11261687 -0.93428922 -0.96948200 -0.04417045
-7.52449989 -8.02332497 2.21920061 -0.94031036 -0.96503323 0.87041211
-7.57076120 -7.94608450 1.02054489 -0.94609147 -0.95574284 0.40027687
-7.20971107 -8.16768742 0.33072832 -0.90097231 -0.98239690 0.12971786
-7.14165211 -8.13258934 -0.40580800 -0.89246726 -0.97817534 -0.15916552
-7.72055149 -8.19198990 -0.48933268 -0.96481025 -0.98531997 -0.19192547
-7.42958641 -8.11154556 -0.11260310 -0.92844939 -0.97564423 -0.04416505
-7.60053778 -7.65535688 -0.17371598 -0.94981259 -0.92077458 -0.06813467
-7.50839520 -7.98048115 1.01865435 -0.93829787 -0.95988005 0.39953536
-7.14645910 -8.19924736 0.32995465 -0.89306796 -0.98619288 0.12941441
-7.47592115 -7.98460627 0.26245430 -0.93423969 -0.96037620 0.10293950
-7.12439442 -8.21664047 -0.40709481 -0.89031059 -0.98828489 -0.15967022
-7.53656912 -8.09863186 -0.48327923 -0.94181865 -0.97409099 -0.18955119
-7.54781008 -7.91378927 1.63620114 -0.94322336 -0.95185846 0.64174879
-7.75631952 -7.91184902 -0.17468689 -0.96928006 -0.95162505 -0.06851548
-7.44327927 -8.05046558 0.26340538 -0.93016052 -0.96829766 0.10331254
-7.23615789 -7.87544966 -0.47179642 -0.90427732 -0.94724703 -0.18504742
-7.49657917 -7.95962048 1.63589919 -0.93682122 -0.95737094 0.64163035
-7.27901077 -8.15065289 -0.11276833 -0.90963244 -0.98034805 -0.04422985
-7.79670477 -8.05399418 -0.17511916 -0.97432685 -0.96872205 -0.06868502
-7.20246935 -8.16777229 -0.11285553 -0.90006733 -0.98240709 -0.04426406
-7.67852879 -8.00677681 -0.17473345 -0.95955884 -0.96304286 -0.06853373
-7.58307695 -7.95419216 1.34799755 -0.94763058 -0.95671803 0.52870995
-7.56942034 -7.97598553 0.57971424 -0.94592392 -0.95933932 0.22737481
-7.62395191 -8.05049992 -0.17471349 -0.95273858 -0.96830177 -0.06852591
-7.51261187 -7.97999716 1.34397471 -0.93882477 -0.95982182 0.52713209
-7.24704313 -8.11536026 0.26033261 -0.90563756 -0.97610307 0.10210734
-7.47148609 -7.97233152 0.57515413 -0.93368542 -0.95889980 0.22558625
-7.16017389 -8.06796074 -0.47466710 -0.89478183 -0.97040194 -0.18617335
-7.04546547 -8.16935635 -0.11308961 -0.88044715 -0.98259765 -0.04435587
-7.62775373 -8.15677357 -0.17497951 -0.95321363 -0.98108423 -0.06863025
-7.05814505 -8.00508499 0.25272384 -0.88203168 -0.96283937 0.09912304
-7.47671318 -8.07927704 0.58049595 -0.93433863 -0.97176307 0.22768141
-7.15159035 -8.16082001 -0.47666413 -0.89370918 -0.98157090 -0.18695661
-7.45447874 -8.07207680 -0.17438099 -0.93156010 -0.97089702 -0.06839550
-7.89075089 -7.95395184 -0.22705431 -0.98607951 -0.95668912 -0.08905496
-7.49639750 -7.93709755 0.96062827 -0.93679851 -0.95466191 0.37677643
-7.05242634 -8.10044193 0.25521132 -0.88131702 -0.97430873 0.10009867
-7.54239368 -8.01371479 0.21169494 -0.94254649 -0.96387732 0.08303073
-7.13032341 -8.24030590 -0.47809947 -0.89105153 -0.99113137 -0.18751958
-7.41840744 -8.13503838 -0.17445414 -0.92705238 -0.97846991 -0.06842419
-7.55517864 -7.85834408 2.09491539 -0.94414419 -0.94518960 0.82166517
-7.96821594 -8.13314629 -0.22850333 -0.99576002 -0.97824234 -0.08962329
-7.48566103 -8.02631664 0.96643829 -0.93545681 -0.96539307 0.37905523
-7.46201420 -8.02867794 0.21029782 -0.93250179 -0.96567708 0.08248276
-7.02765512 -8.22576427 -0.47566563 -0.87822145 -0.98938233 -0.18656498
-7.38718081 -8.20381927 -0.17455390 -0.92315012 -0.98674279 -0.06846332
-7.50025940 -7.89995527 2.09338188 -0.93728113 -0.95019448 0.82106370
-7.78181934 -8.04386997 -0.22695878 -0.97246671 -0.96750432 -0.08901750
-7.43839979 -8.10490990 0.21156794 -0.92955077 -0.97484612 0.08298092
-7.19698715 -8.06811142 -0.17379577 -0.89938229 -0.97042006 -0.06816597
-7.50052738 -7.97531843 2.10411620 -0.93731463 -0.95925909 0.82527387
-7.72164488 -8.05738926 -0.22670400 -0.96494693 -0.96913040 -0.08891757
-7.54916430 -7.92955112 1.26499033 -0.94339263 -0.95375425 0.49615297
-7.54447889 -7.96145868 0.51537114 -0.94280708 -0.95759201 0.20213823
-7.12504625 -8.08911896 -0.17368938 -0.89039207 -0.97294682 -0.06812423
-7.61164236 -8.04339218 -0.22601931 -0.95120031 -0.96744686 -0.08864901
-7.48557806 -7.96239901 1.26244640 -0.93544644 -0.95770514 0.49515519
-7.30752277 -8.14001751 0.20959927 -0.91319549 -0.97906882 0.08220877
-7.46423674 -7.97668982 0.51275438 -0.93277949 -0.95942402 0.20111190
-7.09372520 -8.15639973 -0.17378913 -0.88647801 -0.98103923 -0.06816336
-7.53222275 -8.06042576 -0.22568493 -0.94127548 -0.96949565 -0.08851787
-7.21521330 -8.13932228 0.20763060 -0.90165991 -0.97898519 0.08143662
-7.43162012 -8.04246044 0.51430064 -0.92870355 -0.96733481 0.20171836
-7.44201851 -8.06504154 -0.22522314 -0.93000299 -0.97005081 -0.08833674
-7.50247765 -7.95018339 0.87787569 -0.93755835 -0.95623589 0.34431931
-6.97737217 -7.97055531 0.19861284 -0.87193775 -0.95868617 0.07789969
-7.50754976 -7.99871445 0.13624856 -0.93819219 -0.96207309 0.05343924
-7.37635088 -8.09540749 -0.22504799 -0.92179674 -0.97370321 -0.08826805
-7.45917940 -8.00443745 0.87880147 -0.93214750 -0.96276146 0.34468243
-7.44761133 -8.03548050 0.13589881 -0.93070191 -0.96649528 0.05330206
-7.35483027 -8.17424774 -0.22539830 -0.91910738 -0.98318601 -0.08840545
-7.45919657 -8.14984703 0.13819712 -0.93214965 -0.98025107 0.05420351
-7.30689430 -8.19838238 -0.22528684 -0.91311699 -0.98608887 -0.08836173
-7.30632782 -8.05921268 0.13395023 -0.91304618 -0.96934974 0.05253780
-7.57500458 -7.87094307 1.99890816 -0.94662178 -0.94670498 0.78400928
-7.27291870 -8.12429333 0.13459976 -0.90887117 -0.97717756 0.05279255
-7.10207319 -8.17350006 -0.22406074 -0.88752121 -0.98309606 -0.08788083
-7.52404356 -7.91696024 1.99854219 -0.94025338 -0.95223981 0.78386575
-7.14211082 -8.08009720 0.13160194 -0.89252454 -0.97186172 0.05161675
-7.49167871 -7.98268461 2.00329924 -0.93620884 -0.96014506 0.78573155
-7.11887026 -8.15639305 0.13265118 -0.88962024 -0.98103845 0.05202828
-7.02300739 -8.14954948 0.13095242 -0.87764060 -0.98021531 0.05136200
-7.50000715 -7.81157494 2.54265213 -0.93724960 -0.93956423 0.99727589
-7.45480156 -7.86277246 2.54404116 -0.93160045 -0.94572222 0.99782068
-7.43368244 -7.91480398 2.54959750 -0.92896128 -0.95198047 1.00000000
