-4.15710926 9.15138149 2.24810052 -0.94088382 1.00000000 0.91609788
-4.08803701 8.85266209 2.17989540 -0.92525059 0.96735799 0.88830441
-4.20018578 8.94673729 2.21001196 -0.95063335 0.97763789 0.90057683
-4.26053429 8.92896271 2.21222639 -0.96429211 0.97569561 0.90147924
-4.13210011 9.06702328 1.70233071 -0.93522346 0.99078190 0.69369745
-4.32338858 8.91604233 2.21576953 -0.97851801 0.97428375 0.90292305
-4.16814804 9.03315258 1.69958401 -0.94338220 0.98708075 0.69257814
-4.37657261 8.91830826 2.22152710 -0.99055523 0.97453135 0.90526927
-4.20465326 8.96401405 1.69134367 -0.95164448 0.97952580 0.68922025
-4.25578308 8.92675877 1.68928361 -0.96321678 0.97545475 0.68838078
-4.32127666 8.91932774 1.69306040 -0.97804004 0.97464275 0.68991983
-4.41830254 8.97500038 1.70919764 -1.00000000 0.98072630 0.69649571
-4.13310480 8.95694542 0.72527492 -0.93545085 0.97875339 0.29554853
-4.14794397 8.93727303 0.04291810 -0.93880939 0.97660369 0.01748907
-4.11605024 8.88699150 2.13300180 -0.93159086 0.97110927 0.86919534
-4.15493870 8.89408875 0.72108847 -0.94039255 0.97188485 0.29384255
-4.14132977 8.81456661 0.04082672 -0.93731242 0.96319520 0.01663683
-4.20822954 8.97545147 2.15936208 -0.95245391 0.98077559 0.87993711
-4.05190420 8.89141655 1.05367184 -0.91707259 0.97159284 0.42936984
-4.04790592 8.84119606 0.38008776 -0.91616768 0.96610504 0.15488525
-4.20644808 8.85881710 0.72021633 -0.95205069 0.96803057 0.29348716
-4.20615101 8.80820084 0.04123032 -0.95198345 0.96249956 0.01680130
-4.26537704 8.95059776 2.15979433 -0.96538818 0.97805971 0.88011324
-4.13870907 8.93236637 1.06263673 -0.93671924 0.97606754 0.43302301
-4.11099577 8.83186817 0.38104552 -0.93044686 0.96508580 0.15527552
-4.26985264 8.84834576 0.72178620 -0.96640116 0.96688634 0.29412690
-4.13727903 8.80855751 -0.28228009 -0.93639559 0.96253854 -0.11502875
-4.05972338 8.86817551 1.61454916 -0.91884232 0.96905321 0.65792656
-4.23510885 8.72768307 0.04012959 -0.95853752 0.95370114 0.01635275
-4.33000565 8.94121361 2.16411567 -0.98001564 0.97703427 0.88187420
-4.18540478 8.88644886 1.05997145 -0.94728798 0.97104996 0.43193692
-4.16898060 8.81127453 0.38136479 -0.94357067 0.96283543 0.15540563
-4.34738493 8.86602020 0.72614706 -0.98394912 0.96881771 0.29590392
-4.21157932 8.82205200 -0.28293297 -0.95321208 0.96401316 -0.11529480
-4.18163252 8.98566151 1.64121521 -0.94643420 0.98189127 0.66879296
-4.41185570 8.96644783 2.17707968 -0.99854088 0.97979170 0.88715702
-4.24201775 8.86176491 1.06021380 -0.96010125 0.96835268 0.43203568
-4.22339153 8.78310776 0.38125837 -0.95588553 0.95975757 0.15536226
-4.25991344 8.78103638 -0.28269556 -0.96415162 0.95953125 -0.11519805
-4.22037649 8.92173862 1.63421535 -0.95520318 0.97490621 0.66594052
-4.30546284 8.85098839 1.06239450 -0.97446084 0.96717513 0.43292430
-4.28641796 8.77253151 0.38221613 -0.97015041 0.95860189 0.15575255
-4.11858988 8.89958191 0.67016488 -0.93216568 0.97248507 0.27309129
-4.28996229 8.92350960 1.63954854 -0.97095257 0.97509974 0.66811377
-4.36913633 8.87508392 1.06845188 -0.98887217 0.96980810 0.43539268
-4.35793447 8.81304073 0.38583437 -0.98633683 0.96302843 0.15722698
-4.14701176 8.85116768 0.66753560 -0.93859839 0.96719468 0.27201983
-4.15632868 8.33501720 -0.27607766 -0.94070715 0.91079330 -0.11250127
-4.33712053 8.91384506 1.64154851 -0.98162597 0.97404367 0.66892880
-4.16002893 8.81385040 -0.01381441 -0.94154459 0.96311694 -0.00562935
-4.08240795 8.87566662 0.99843866 -0.92397654 0.96987176 0.40686238
-4.20766211 8.83574486 0.66852158 -0.95232546 0.96550941 0.27242163
-4.22222948 8.33546829 -0.27652282 -0.95562255 0.91084260 -0.11268267
-4.13199377 8.93537521 -0.34223017 -0.93519938 0.97639632 -0.13945833
-4.15484858 8.88586712 1.00306356 -0.94037211 0.97098643 0.40874705
-4.10666513 8.80902004 0.32531103 -0.92946672 0.96258909 0.13256380
-4.26395988 8.81092834 0.66868591 -0.96506745 0.96279764 0.27248859
-4.21059799 8.85958672 1.00306356 -0.95299000 0.96811467 0.40874705
-4.19174147 8.84629154 0.32864413 -0.94872212 0.96666187 0.13392204
-4.35426903 8.85558414 0.67525917 -0.98550719 0.96767730 0.27516720
-4.08430910 8.54683113 -0.33450973 -0.92440683 0.93393892 -0.13631226
-4.16368389 8.40558147 -0.01847218 -0.94237185 0.91850412 -0.00752739
-4.08988714 8.83810997 2.04857588 -0.92566931 0.96576786 0.83479190
-4.27134228 8.84369946 1.00445104 -0.96673828 0.96637863 0.40931243
-4.26881647 8.86482239 0.33102491 -0.96616662 0.96868682 0.13489220
-4.20925474 8.36494732 -0.01867580 -0.95268595 0.91406387 -0.00761036
-4.21390533 8.95721436 2.08287621 -0.95373851 0.97878277 0.84876919
-4.35732746 8.87917042 1.01254475 -0.98619944 0.97025466 0.41261059
-4.10092783 8.96406937 1.30025291 -0.92816818 0.97953182 0.52985132
-4.33055162 8.85039902 0.33169153 -0.98013920 0.96711069 0.13516384
-4.11241007 8.92933178 0.61719567 -0.93076700 0.97573596 0.25150639
-4.10946226 8.32789135 -0.33064952 -0.93009979 0.91001469 -0.13473924
-4.27010155 8.93056107 2.08287621 -0.96645749 0.97587025 0.84876919
-4.13978243 8.93746948 1.29909682 -0.93696219 0.97662514 0.52938020
-4.14597845 8.89179707 0.61566329 -0.93836457 0.97163439 0.25088194
-4.15132856 8.31380653 -0.33077404 -0.93957543 0.90847558 -0.13478997
-4.06962252 8.86537457 1.54478776 -0.92108279 0.96874714 0.62949890
-4.13484240 8.81984520 -0.05042093 -0.93584412 0.96377200 -0.02054646
-4.32069397 8.92792606 2.08705902 -0.97790813 0.97558230 0.85047370
-4.18654251 8.89160633 1.29591775 -0.94754547 0.97161359 0.52808470
-4.21463156 8.89257526 0.61796188 -0.95390290 0.97171944 0.25181863
-4.22239590 8.32504940 -0.33164570 -0.95566022 0.90970409 -0.13514517
-4.16214514 8.91827202 1.55884707 -0.94202358 0.97452742 0.63522804
-4.16339159 8.73777866 -0.05097739 -0.94230568 0.95480430 -0.02077322
-4.39836979 8.94443512 2.09751654 -0.99548858 0.97738630 0.85473514
-4.09201336 8.87830162 0.96075457 -0.92615056 0.97015971 0.39150617
-4.25176430 8.88474274 1.29909682 -0.96230721 0.97086358 0.52938020
-4.17735052 9.00576401 0.28912178 -0.94546503 0.98408794 0.11781673
-4.25651646 8.83720207 0.61551005 -0.96338278 0.96566862 0.25081950
-4.10203695 8.78506756 -0.37789375 -0.92841923 0.95997173 -0.15399119
-4.22149706 8.89907360 1.56012523 -0.95545679 0.97242951 0.63574892
-4.17312574 8.90635395 0.96746033 -0.94450885 0.97322506 0.39423877
-4.31358862 8.87029839 1.30111992 -0.97629994 0.96928519 0.53020459
-4.14826536 8.79878235 0.28052539 -0.93888217 0.96147037 0.11431371
-4.33660698 8.86038303 0.61980075 -0.98150975 0.96820170 0.25256795
-4.02971697 8.49205875 -0.37056875 -0.91205096 0.92795372 -0.15100627
-4.27646685 8.87059689 1.55980563 -0.96789813 0.96931779 0.63561869
-4.22900295 8.87995815 0.96746033 -0.95715559 0.97034073 0.39423877
-4.24682760 8.86255169 0.28482357 -0.96118987 0.96843868 0.11606521
-4.00709677 8.31005669 -0.36626282 -0.90693128 0.90806580 -0.14925160
-4.35566711 8.89137459 1.56843293 -0.98582363 0.97158825 0.63913429
-4.27860212 8.87602711 0.96947211 -0.96838140 0.96991116 0.39505857
-4.10044098 8.98629856 1.25325143 -0.92805797 0.98196089 0.51069826
-4.29817677 8.86219788 0.28576919 -0.97281176 0.96840000 0.11645056
-4.09433508 8.91346169 0.55463165 -0.92667603 0.97400177 0.22601163
-4.14272356 8.94728374 -0.11521921 -0.93762785 0.97769761 -0.04695167
-4.08030939 8.94091606 1.97916853 -0.92350161 0.97700179 0.80650848
-4.34657764 8.87393188 0.97260141 -0.98376644 0.96968222 0.39633375
-4.12944126 8.90101624 1.24403834 -0.93462169 0.97264183 0.50694394
-4.13933420 8.86403847 0.55279976 -0.93686074 0.96860111 0.22526515
-4.02926397 8.55881214 -0.11613715 -0.91194838 0.93524808 -0.04732573
-4.16431856 8.97558880 1.99281585 -0.94251549 0.98079056 0.81206971
-4.09936857 9.02150631 0.90795135 -0.92781526 0.98580813 0.36998895
-4.20210648 8.91075420 1.24962211 -0.95106804 0.97370589 0.50921929
-4.18217039 8.81079483 0.55068606 -0.94655591 0.96278304 0.22440381
-4.06663322 8.49901295 -0.11622435 -0.92040622 0.92871368 -0.04736126
-4.21647072 8.94037724 1.99080884 -0.95431918 0.97694290 0.81125188
-4.11860037 8.91424370 0.89849854 -0.93216801 0.97408724 0.36613694
-4.25801086 8.88417625 1.24962211 -0.96372098 0.97080165 0.50921929
-4.09366465 8.80376625 0.21746011 -0.92652428 0.96201497 0.08861470
-4.25902367 8.82931042 0.55420893 -0.96395022 0.96480632 0.22583939
-4.02710772 8.59059143 -0.43410283 -0.91146040 0.93872070 -0.17689632
-4.10470819 9.04596710 1.48312128 -0.92902380 0.98848104 0.60436988
-4.05291176 8.33465290 -0.11657775 -0.91730064 0.91075355 -0.04750527
-4.28268003 8.93493080 1.99562550 -0.96930438 0.97634774 0.81321466
-4.16695261 8.87197208 0.89660800 -0.94311166 0.96946806 0.36536655
-4.32497263 8.88041592 1.25325143 -0.97887653 0.97039074 0.51069826
-4.18461132 8.85383987 0.22053288 -0.94710839 0.96748668 0.08986685
-4.31966114 8.81313610 0.55505443 -0.97767437 0.96303886 0.22618392
-4.05874872 8.51815033 -0.43248025 -0.91862172 0.93080485 -0.17623511
-4.12270975 8.93554211 1.46893036 -0.93309814 0.97641456 0.59858710
-4.12813091 8.35569382 -0.11645842 -0.93432510 0.91305274 -0.04745665
-4.34471512 8.92018890 1.99843526 -0.98334485 0.97473687 0.81435966
-4.23711681 8.87615871 0.90017903 -0.95899200 0.96992552 0.36682174
-4.24791336 8.84360313 0.22119133 -0.96143562 0.96636808 0.09013516
-4.02892637 8.31957722 -0.42648920 -0.91187203 0.90910614 -0.17379376
-4.17292070 8.89692020 1.46681690 -0.94446242 0.97219419 0.59772587
-4.18858814 8.34569645 -0.11641712 -0.94800848 0.91196030 -0.04743982
-4.27372837 8.84533787 0.89891869 -0.96727836 0.96655768 0.36630815
-4.09807110 9.03546333 1.20344174 -0.92752159 0.98733324 0.49040088
-4.31216383 8.87026882 0.22309352 -0.97597748 0.96928191 0.09091031
-4.09145403 8.96713924 0.50531930 -0.92602396 0.97986728 0.20591693
-4.06896257 8.30229568 -0.42655161 -0.92093343 0.90721774 -0.17381920
-4.21311140 8.87358189 1.46621299 -0.95355880 0.96964395 0.59747982
-4.25762415 8.38477802 -0.11626565 -0.96363348 0.91623086 -0.04737810
-4.37198830 8.90588379 0.90921175 -0.98951763 0.97317368 0.37050256
-4.12308216 8.94120979 1.19325042 -0.93318242 0.97703385 0.48624793
-4.11903381 8.87975883 0.50088948 -0.93226612 0.97031897 0.20411178
-4.13346577 8.30164623 -0.42742532 -0.93553251 0.90714675 -0.17417523
-4.27648163 8.86297703 1.46893036 -0.96790147 0.96848512 0.59858710
-4.16735077 8.89002800 1.18949568 -0.94320178 0.97144109 0.48471788
-4.17389059 8.85189915 0.50075918 -0.94468194 0.96727461 0.20405869
-4.20979881 8.32372856 -0.42911029 -0.95280910 0.90955979 -0.17486186
-4.36068487 8.89457321 1.47889423 -0.98695934 0.97193778 0.60264736
-4.05649042 8.58113384 -0.16940670 -0.91811061 0.93768728 -0.06903300
-4.10577822 8.94142723 0.85204101 -0.92926598 0.97705764 0.34720555
-4.23939323 8.89762974 1.19459140 -0.95950723 0.97227174 0.48679438
-4.10121298 8.89119625 0.17314720 -0.92823273 0.97156876 0.07055725
-4.23115826 8.82909584 0.50101972 -0.95764339 0.96478283 0.20416485
-4.15257740 8.89563847 0.84983724 -0.93985808 0.97205418 0.34630752
-4.29261255 8.86547184 1.19378674 -0.97155243 0.96875775 0.48646647
-4.15017700 8.85078716 0.17263916 -0.93931478 0.96715313 0.07035022
-4.30146694 8.83280849 0.50323468 -0.97355646 0.96518856 0.20506744
-4.06089449 8.31942368 -0.16862862 -0.91910738 0.90908939 -0.06871593
-4.12189817 9.03783226 1.90591228 -0.93291444 0.98759210 0.77665663
-4.20324707 8.85859489 0.84863514 -0.95132625 0.96800631 0.34581766
-4.37634516 8.89517498 1.20236897 -0.99050373 0.97200352 0.48996371
-4.19793177 8.80831146 0.17206761 -0.95012319 0.96251166 0.07011732
-4.37909889 8.85028076 0.50649190 -0.99112701 0.96709776 0.20639476
-4.11073017 8.32168865 -0.16870843 -0.93038678 0.90933686 -0.06874845
-4.14543056 8.97735882 1.89709473 -0.93824053 0.98098397 0.77306354
-4.25446320 8.85840130 0.85083896 -0.96291804 0.96798515 0.34671572
-4.08634377 8.98353195 1.12660396 -0.92486733 0.98165858 0.45908958
-4.26992273 8.85138416 0.17429030 -0.96641701 0.96721834 0.07102306
-4.03479958 8.81505775 0.43948510 -0.91320127 0.96324885 0.17908958
-4.18275595 8.33497906 -0.16885473 -0.94668841 0.91078913 -0.06880807
-4.19589090 8.93870926 1.89441109 -0.94966131 0.97676063 0.77196991
-4.33107281 8.87437248 0.85564727 -0.98025721 0.96973038 0.34867510
-4.12281227 8.91442585 1.12049878 -0.93312132 0.97410715 0.45660171
-4.12113094 8.85657024 0.44388601 -0.93274075 0.96778506 0.18088295
-4.27426529 8.38506889 -0.16914068 -0.96739990 0.91626263 -0.06892460
-4.25366879 8.91570854 1.89517784 -0.96273822 0.97424728 0.77228236
-3.96820188 8.51036739 -0.21261196 -0.89812815 0.92995441 -0.08663908
-4.16613722 8.86139107 1.11668289 -0.94292712 0.96831185 0.45504674
-4.15174627 9.09704971 2.45399594 -0.93966997 0.99406302 1.00000000
-4.16819811 8.81243706 0.44269657 -0.94339353 0.96296251 0.18039826
-4.32078362 8.91174507 1.90016174 -0.97792840 0.97381419 0.77431333
-3.95594358 8.34596729 -0.21138588 -0.89535373 0.91198987 -0.08613946
-4.09285736 8.89361286 0.77178568 -0.92634159 0.97183281 0.31450161
-4.24642801 8.88699818 1.12406015 -0.96109945 0.97110999 0.45805299
-4.17436314 8.99691200 2.43371010 -0.94478887 0.98312062 0.99173355
-4.06680441 8.77379704 0.10377226 -0.92044497 0.95874017 0.04228706
-4.22606897 8.79147720 0.44305342 -0.95649153 0.96067214 0.18054366
-4.01435232 8.33357239 -0.21149734 -0.90857345 0.91063547 -0.08618487
-4.13605452 8.84063816 0.76900846 -0.93611842 0.96604413 0.31336990
-4.30563354 8.86728668 1.12507772 -0.97449946 0.96895605 0.45846763
-4.23662996 8.98278236 2.43709111 -0.95888180 0.98157662 0.99311131
-4.17020941 8.85126686 0.10662019 -0.94384879 0.96720552 0.04344758
-4.29954624 8.80246067 0.44555125 -0.97312176 0.96187234 0.18156153
-4.07276106 8.32077312 -0.21160880 -0.92179316 0.90923685 -0.08623029
-4.20003414 8.83247852 0.77085996 -0.95059901 0.96515250 0.31412438
-4.28371906 8.93675327 2.43177819 -0.96953952 0.97654688 0.99094629
-4.22316170 8.81947517 0.10647029 -0.95583355 0.96373159 0.04338650
-4.12076378 8.31942940 -0.21176803 -0.93265766 0.90908998 -0.08629519
-4.24848890 8.82695770 0.77234113 -0.96156585 0.96454918 0.31472796
-4.34790373 8.96182251 2.44433618 -0.98406655 0.97928631 0.99606365
-4.26380730 8.79767513 0.10642033 -0.96503288 0.96134943 0.04336614
-4.21859980 8.38458633 -0.21258011 -0.95480102 0.91620988 -0.08662611
-4.33087301 8.85560226 0.77808070 -0.98021197 0.96767926 0.31706682
-4.05385303 8.89116955 1.78447354 -0.91751367 0.97156584 0.72717053
-4.15162134 8.95658875 1.80313587 -0.93964171 0.97871441 0.73477542
-4.20364285 8.92142487 1.80130625 -0.95141578 0.97487193 0.73402983
-4.24816561 8.90684605 1.80240405 -0.96149272 0.97327882 0.73447716
-4.13097572 9.07087994 2.33753061 -0.93496895 0.99120337 0.95254052
-4.32624722 8.92602825 1.81191814 -0.97916502 0.97537494 0.73835415
-4.17649364 9.02000427 2.33104825 -0.94527107 0.98564398 0.94989896
-4.22236013 8.97067738 2.32502890 -0.95565212 0.98025388 0.94744611
-4.28282118 8.95275497 2.32734418 -0.96933633 0.97829545 0.94838959
-4.36355305 8.97646427 2.34077191 -0.98760849 0.98088622 0.95386136
