0.01015489 -12.74823093 2.18747997 0.01829933 -0.94363719 0.87979943
-0.46271145 -13.32535744 -0.33572784 -0.83381540 -0.98635668 -0.13502897
0.09009983 -12.73018265 2.18438983 0.16236171 -0.94230121 0.87855661
-0.38021436 -13.37398052 -0.33641040 -0.68515396 -0.98995584 -0.13530350
0.16978891 -12.70966530 2.18095636 0.30596307 -0.94078255 0.87717569
-0.29522794 -13.33012009 -0.33572784 -0.53200674 -0.98670924 -0.13502897
0.25014439 -12.73198509 2.18507648 0.45076525 -0.94243467 0.87883276
-0.12220271 -12.82984447 0.09755094 -0.22021176 -0.94967830 0.03923476
-0.21401836 -13.50967407 -0.33836907 -0.38566542 -1.00000000 -0.13609126
-0.04148918 -12.77036953 0.09645022 -0.07476434 -0.94527590 0.03879206
0.01908724 -12.90040112 0.09883513 0.03439559 -0.95490098 0.03975126
-0.06485404 -13.32923126 -0.33566850 -0.11686829 -0.98664343 -0.13500510
0.10059015 -12.94801617 0.09971571 0.18126549 -0.95842552 0.04010543
0.15140079 -12.80041981 0.98239112 0.27282730 -0.94750029 0.39511546
0.01900856 -13.36737156 -0.33623236 0.03425382 -0.98946661 -0.13523188
0.18212985 -12.95912457 0.09993586 0.32820168 -0.95924777 0.04019397
0.03053141 -12.75694466 1.41808641 0.05501821 -0.94428217 0.57035112
0.23013711 -12.71356010 0.97489047 0.41471174 -0.94107080 0.39209872
0.11168363 -12.85377407 1.42995894 0.20125617 -0.95144963 0.57512623
0.31203237 -12.78954029 0.98169339 0.56228864 -0.94669497 0.39483485
0.17587858 -12.65024281 -0.32560807 0.31693676 -0.93638402 -0.13095883
0.04003105 -12.79996586 2.12953544 0.07213676 -0.94746667 0.85649431
0.32844663 -12.37014484 0.08918541 0.59186751 -0.91565084 0.03587017
-0.11272053 -12.85951996 0.02581482 -0.20312467 -0.95187491 0.01038266
0.19007742 -12.70989895 1.41251361 0.34252337 -0.94079983 0.56810975
0.21172324 -12.65785980 0.53652292 0.38152957 -0.93694782 0.21578829
0.39457005 -12.85503292 0.98762417 0.71102321 -0.95154279 0.39722019
0.25121853 -12.45895386 -0.32278880 0.45270088 -0.92222458 -0.12982492
0.12005325 -12.74819088 2.12086892 0.21633840 -0.94363421 0.85300863
0.40699056 -12.39181805 0.08962569 0.73340523 -0.91725516 0.03604725
-0.03243206 -12.98596287 0.02741831 -0.05844324 -0.96123433 0.01102758
0.26993179 -12.70845318 1.41251361 0.48642257 -0.94069278 0.56810975
0.29503515 -12.81001568 0.54471713 0.53165931 -0.94821054 0.21908398
0.19998272 -12.73535347 2.11886907 0.36037290 -0.94268399 0.85220432
0.48500505 -12.39301300 0.08969908 0.87398893 -0.91734362 0.03607677
0.04895707 -12.89391804 0.02624751 0.08822164 -0.95442110 0.01055669
0.33276883 -12.81420422 1.42559755 0.59965616 -0.94852060 0.57337207
0.35574880 -12.82046032 0.54535568 0.64106655 -0.94898367 0.21934080
0.38517824 -12.36349773 -0.32142368 0.69409901 -0.91515887 -0.12927587
0.26125580 -12.80130672 2.13020205 0.47078824 -0.94756591 0.85676241
0.10992540 -12.92354107 0.02662929 0.19808781 -0.95661384 0.01071024
0.15327281 -12.79731941 0.91682541 0.27620071 -0.94727075 0.36874509
0.48027194 -12.80644417 -0.32804158 0.86545974 -0.94794619 -0.13193758
0.19146726 -12.94859123 0.02696017 0.34502786 -0.95846808 0.01084332
0.06283849 -12.74725246 1.34507918 0.11323624 -0.94356477 0.54098779
0.23347782 -12.78414536 0.91583943 0.42073175 -0.94629562 0.36834854
0.55329233 -12.63936043 -0.32560807 0.99704403 -0.93557847 -0.13095883
0.08967127 -12.85953903 -0.40482378 0.16158944 -0.95187634 -0.16281921
0.14369428 -12.82606602 1.35432911 0.25894001 -0.94939864 0.54470807
0.31411809 -12.79637527 0.91698974 0.56604713 -0.94720089 0.36881119
0.16813345 -12.65877819 -0.40067300 0.30297989 -0.93701583 -0.16114977
0.33766767 -12.30542755 0.01881544 0.60848397 -0.91086042 0.00756753
0.22194208 -12.67792034 1.33721673 0.39994413 -0.93843275 0.53782552
0.20993111 -12.86194611 0.47520539 0.37830010 -0.95205450 0.19112653
0.39678577 -12.87185192 0.92339867 0.71501601 -0.95278776 0.37138882
0.24838519 -12.69745731 -0.40150315 0.44759515 -0.93987888 -0.16148365
0.41824755 -12.40500164 0.02011351 0.75369054 -0.91823101 0.00808961
-0.05225053 -12.81673908 -0.02281333 -0.09415651 -0.94870824 -0.00917547
0.30344567 -12.75969219 1.34692919 0.54681522 -0.94448555 0.54173183
0.28922862 -12.78847122 0.47177705 0.52119583 -0.94661582 0.18974765
0.32467061 -12.55171871 -0.39851460 0.58506304 -0.92909116 -0.16028166
0.49572167 -12.39013958 0.01996079 0.89330047 -0.91713089 0.00802818
0.02862889 -12.90880966 -0.02198762 0.05158985 -0.95552337 -0.00884337
0.35036334 -12.82091618 0.47339597 0.63136184 -0.94901741 0.19039878
0.39024076 -12.77190876 -0.40312195 0.70322174 -0.94538987 -0.16213472
0.55263960 -12.35369968 0.01952810 0.99586779 -0.91443360 0.00785416
0.08951072 -12.91453075 -0.02193377 0.16130012 -0.95594686 -0.00882171
0.11017755 -12.85729408 1.73838675 0.19854218 -0.95171016 0.69917518
0.14240275 -12.82518673 0.84735960 0.25661266 -0.94933355 0.34080610
0.06505494 -12.64899635 2.01321721 0.11723032 -0.93629175 0.80971134
0.17106687 -12.94170952 -0.02168246 0.30826595 -0.95795870 -0.00872064
0.18874814 -12.72179317 1.71873426 0.34012797 -0.94168025 0.69127101
0.22154491 -12.74827576 0.84153652 0.39922842 -0.94364053 0.33846408
0.54646939 -12.66410637 -0.40100506 0.98474890 -0.93741024 -0.16128331
0.14545549 -12.71940708 2.02472019 0.26211375 -0.94150364 0.81433785
0.08547360 -12.78466892 1.29917169 0.15402517 -0.94633436 0.52252388
0.27141944 -12.84104538 1.73636377 0.48910332 -0.95050740 0.69836152
0.30259657 -12.78450871 0.84444809 0.54528517 -0.94632250 0.33963510
0.14811832 -12.70578194 -0.45243070 0.26691222 -0.94049507 -0.18196659
0.22548489 -12.72416401 2.02567887 0.40632835 -0.94185573 0.81472343
0.31956640 -12.42275238 -0.02631364 0.57586515 -0.91954494 -0.01058329
0.16591556 -12.79182816 1.30006588 0.29898322 -0.94686431 0.52288353
0.19716518 -12.82323837 0.41376951 0.35529566 -0.94918931 0.16641715
0.38480389 -12.84214878 0.84904522 0.69342440 -0.95058906 0.34148404
0.22732256 -12.67261600 -0.45163879 0.40963987 -0.93804008 -0.18164809
0.30699486 -12.78367901 2.03558421 0.55321097 -0.94626111 0.81870735
0.39687416 -12.39851189 -0.02651110 0.71517527 -0.91775066 -0.01066270
0.24313718 -12.63951874 1.28307796 0.43813813 -0.93559021 0.51605099
0.27536312 -12.71986866 0.40938535 0.49620992 -0.94153780 0.16465385
0.30998790 -12.78886223 -0.45455891 0.55860448 -0.94664478 -0.18282256
0.47420925 -12.38178539 -0.02663675 0.85453469 -0.91651249 -0.01071324
-0.51384169 -13.35571766 -0.18228801 -0.92595315 -0.98860401 -0.07331582
0.30711484 -12.81108570 1.30252457 0.55342716 -0.94828975 0.52387244
0.33803758 -12.81630039 0.41359758 0.60915059 -0.94867575 0.16634801
0.36567199 -12.63737583 -0.45084691 0.65894836 -0.93543160 -0.18132959
0.53210539 -12.36942387 -0.02672650 0.95886469 -0.91559750 -0.01074934
-0.43095759 -13.39266586 -0.18240106 -0.77659428 -0.99133891 -0.07336129
0.10542344 -12.85572243 1.67314243 0.18997519 -0.95159382 0.67293406
0.42013079 -12.85985470 0.41557476 0.75708419 -0.95189971 0.16714323
0.13739552 -12.83456230 0.76839781 0.24758950 -0.95002753 0.30904785
0.17265433 -12.52661800 -0.10909659 0.31112659 -0.92723316 -0.04387840
-0.34631374 -13.37511539 -0.18233456 -0.62406439 -0.99003983 -0.07333454
0.18517372 -12.77559566 1.66197515 0.33368680 -0.94566274 0.66844261
0.03551498 -12.79886150 0.33056745 0.06399871 -0.94738489 0.13295348
0.21717380 -12.77759075 0.76445222 0.39135158 -0.94581044 0.30746093
0.24955027 -12.42730331 -0.10932148 0.44969463 -0.91988182 -0.04396885
-0.26277545 -13.40502262 -0.18242766 -0.47352669 -0.99225360 -0.07337199
0.26566893 -12.78606033 1.66365016 0.47874078 -0.94643736 0.66911632
0.11712559 -12.95827389 0.33642036 0.21106268 -0.95918477 0.13530751
0.29745296 -12.77597427 0.76445222 0.53601629 -0.94569081 0.30746093
0.15816411 -13.08495331 -0.54643470 0.28501493 -0.96856171 -0.21977478
0.32708398 -12.40349674 -0.10937197 0.58941197 -0.91811961 -0.04398916
-0.17934696 -13.47440434 -0.18265375 -0.32318687 -0.99738932 -0.07346293
0.16493484 -12.75629520 1.20876110 0.29721594 -0.94423413 0.48616096
0.19815718 -12.92930317 0.33539608 0.35708326 -0.95704037 0.13489553
0.37905940 -12.82171535 0.76783413 0.68307275 -0.94907659 0.30882114
0.24279584 -13.22761154 -0.55092800 0.43752304 -0.97912145 -0.22158198
0.07828904 -12.80020618 1.92092359 0.14107844 -0.94748443 0.77259105
0.41121113 -12.60109997 -0.10891300 0.74101079 -0.93274641 -0.04380456
-0.09354532 -13.26926899 -0.18196879 -0.16857056 -0.98220497 -0.07318743
0.24297889 -12.63568974 1.19615734 0.43785289 -0.93530679 0.48109174
0.27610657 -12.76394558 0.32939687 0.49754962 -0.94480044 0.13248268
0.31565195 -12.78215885 -0.53707373 0.56881124 -0.94614857 -0.21600983
0.15809321 -12.74212933 1.91216755 0.28488716 -0.94318557 0.76906943
0.49775949 -12.79612923 -0.10845862 0.89697272 -0.94718266 -0.04362181
-0.49629310 -13.35469627 -0.24425139 -0.89433020 -0.98852837 -0.09823735
0.32626367 -12.79695988 1.21338248 0.58793372 -0.94724417 0.48801968
0.35766631 -12.81390667 0.33129907 0.64452195 -0.94849861 0.13324773
0.39542931 -12.76194000 -0.53651208 0.71257162 -0.94465196 -0.21578394
0.23811693 -12.73890781 1.91186559 0.42909154 -0.94294709 0.76894796
0.05184565 -13.17549801 -0.18165624 0.09342691 -0.97526395 -0.07306173
-0.43111479 -13.29092598 -0.24372593 -0.77687758 -0.98380804 -0.09802601
0.08835322 -12.85830212 1.60090327 0.15921430 -0.95178479 0.64387965
0.45815337 -12.83585358 -0.53888351 0.82560164 -0.95012313 -0.21673772
0.29952425 -12.80089569 1.92152750 0.53974879 -0.94753551 0.77283400
0.13401657 -13.12291527 -0.18148334 0.24150059 -0.97137171 -0.07299218
0.16738975 -12.73859024 1.58481169 0.30163974 -0.94292361 0.63740766
0.00945564 -12.99986458 0.27507329 0.01703926 -0.96226341 0.11063385
0.19666491 -12.76273918 0.69515020 0.35439417 -0.94471109 0.27958784
0.55493271 -13.23220158 -0.55136484 1.00000000 -0.97946119 -0.22175768
0.20434159 -12.44992733 -0.17924890 0.36822769 -0.92155647 -0.07209349
-0.26505020 -13.34128284 -0.24409215 -0.47762585 -0.98753554 -0.09817331
0.24867451 -12.79673195 1.59285748 0.44811651 -0.94722730 0.64064366
0.09043269 -12.91759300 0.27246958 0.16296154 -0.95617354 0.10958664
0.27810577 -12.81512165 0.69866794 0.50115222 -0.94858849 0.28100264
0.28134596 -12.39841270 -0.17908263 0.50699115 -0.91774327 -0.07202663
-0.18357603 -13.49866199 -0.24533416 -0.33080775 -0.99918485 -0.09867284
0.14765957 -12.79323578 1.14955413 0.26608554 -0.94696850 0.46234804
0.33058825 -12.85039043 1.60036695 0.59572673 -0.95119917 0.64366394
0.17209890 -12.95074940 0.27354917 0.31012571 -0.95862782 0.11002085
0.35891452 -12.82309628 0.69931942 0.64677125 -0.94917881 0.28126466
0.35465047 -12.24647141 -0.17858388 0.63908732 -0.90649647 -0.07182603
-0.09829964 -13.44755268 -0.24492016 -0.17713794 -0.99540174 -0.09850633
0.22506382 -12.63885880 1.13412750 0.40556955 -0.93554133 0.45614350
0.25055110 -12.81151295 0.26916730 0.45149818 -0.94832140 0.10825848
0.43704894 -12.39190006 -0.17907599 0.78757107 -0.91726124 -0.07202395
0.11381491 -12.73200035 2.45260239 0.20509678 -0.94243580 0.98643106
-0.01332241 -13.25791073 -0.24340746 -0.02400726 -0.98136419 -0.09789792
0.30845934 -12.79235935 1.14975441 0.55584997 -0.94690365 0.46242860
0.33005607 -12.77371693 0.26802421 0.59476775 -0.94552368 0.10779873
-0.12022116 -12.74295998 0.18056621 -0.21664096 -0.94324702 0.07262331
0.49668714 -12.41967678 -0.17917573 0.89504027 -0.91931731 -0.07206407
0.17372178 -12.72543430 2.45145226 0.31305015 -0.94194978 0.98596847
0.04941040 -13.37582302 -0.24434693 0.08903854 -0.99009222 -0.09827578
0.37097695 -12.86435699 1.15716720 0.66850799 -0.95223296 0.46540999
0.08953698 -12.73545551 1.49419260 0.16134745 -0.94269156 0.60096085
-0.06059973 -12.81136227 0.18226495 -0.10920194 -0.94831026 0.07330655
0.25751993 -12.90267563 2.48633933 0.46405613 -0.95506936 1.00000000
0.12748151 -12.66929626 -0.23872603 0.22972426 -0.93779439 -0.09601507
0.16929825 -12.71282196 1.49139428 0.30507886 -0.94101620 0.59983540
0.46879843 -12.72537041 0.26662707 0.84478426 -0.94194502 0.10723680
0.01989346 -12.91745758 0.18491302 0.03584842 -0.95616353 0.07437160
0.19884802 -12.71765614 0.61968464 0.35832816 -0.94137400 0.24923575
0.20507751 -12.53226376 -0.23764326 0.36955383 -0.92765111 -0.09557957
0.24802883 -12.64803791 1.48325396 0.44695297 -0.93622082 0.59656137
0.10120523 -12.94106960 0.18551259 0.18237388 -0.95791131 0.07461274
0.28004897 -12.78002834 0.62349087 0.50465393 -0.94599086 0.25076661
0.14636526 -12.82625294 1.05413699 0.26375315 -0.94941247 0.42397150
0.33100957 -12.79100132 1.50182414 0.59648597 -0.94680309 0.60403025
0.18291472 -12.97216606 0.18631200 0.32961604 -0.96021312 0.07493427
0.36044839 -12.78200817 0.62372875 0.64953530 -0.94613743 0.25086227
0.35386023 -12.21082592 -0.23511146 0.63766330 -0.90385795 -0.09456129
0.22464199 -12.68171692 1.04080629 0.40480942 -0.93871373 0.41860992
0.25787187 -12.62293053 0.17761835 0.46469033 -0.93436235 0.07143769
0.43568009 -12.36027145 -0.23632163 0.78510433 -0.91492003 -0.09504802
0.30610210 -12.75969124 1.04821217 0.55160218 -0.94448549 0.42158854
0.33998829 -12.73299122 0.18041632 0.61266577 -0.94250911 0.07256303
0.49568284 -12.40404510 -0.23668785 0.89323050 -0.91816020 -0.09519532
0.36822397 -12.83176231 1.05506277 0.66354704 -0.94982028 0.42434382
0.40278804 -12.82517624 0.18276459 0.72583222 -0.94933277 0.07350750
0.02054954 -12.64437866 2.31909633 0.03703069 -0.93594992 0.93273526
0.47881708 -12.69651413 0.17961690 0.86283809 -0.93980908 0.07224151
0.10049107 -12.72264862 2.33373356 0.18108694 -0.94174355 0.93862230
0.18042731 -12.72176552 2.33373356 0.32513368 -0.94167823 0.93862230
0.26113540 -12.76166439 2.34141803 0.47057128 -0.94463158 0.94171298
