14.53322029 -9.32615089 1.37347293 0.94999766 -0.96297777 0.58005238
14.57131290 -9.22189045 1.37137973 0.95248765 -0.95221227 0.57916838
14.53830814 -9.41556072 -0.39490321 0.95033026 -0.97220987 -0.16677763
14.72655201 -9.27447033 0.18146318 0.96263522 -0.95764148 0.07663649
14.29009819 -9.26590252 1.93975174 0.93410540 -0.95675677 0.81920624
14.67037106 -9.18795490 1.37713599 0.95896286 -0.94870824 0.58159941
14.49995708 -9.29416466 -0.39344907 0.94782335 -0.95967501 -0.16616350
14.69536781 -9.15852070 0.17984878 0.96059680 -0.94566900 0.07595469
14.46519852 -9.25066566 1.95671248 0.94555128 -0.95518351 0.82636923
14.64934635 -9.33150101 0.78745764 0.95758849 -0.96353018 0.33256331
14.55468464 -9.20074272 -0.39338970 0.95140070 -0.95002866 -0.16613843
14.58689308 -9.19976425 1.96591985 0.95350611 -0.94992763 0.83025771
14.63153076 -9.19155502 0.78266883 0.95642394 -0.94907999 0.33054087
14.57484436 -9.08588219 -0.39273682 0.95271850 -0.93816870 -0.16586269
14.45490170 -9.48983765 0.08221711 0.94487816 -0.97987938 0.03472237
14.88055801 -9.14672852 -0.39706960 0.97270221 -0.94445139 -0.16769254
15.04919624 -8.98941994 0.18377471 0.98372561 -0.92820841 0.07761271
14.49245834 -9.31371593 1.28196847 0.94733316 -0.96169382 0.54140776
14.51743317 -9.27185917 0.08137719 0.94896567 -0.95737183 0.03436765
15.20794296 -9.15785027 0.80789000 0.99410248 -0.94559979 0.34119239
14.55910301 -9.22781944 1.28279006 0.95168954 -0.95282447 0.54175472
15.11285496 -9.02965355 -0.39911732 0.98788685 -0.93236274 -0.16855735
14.67168140 -9.53317738 -0.50108010 0.95904851 -0.98435444 -0.21161881
14.53313065 -9.15376568 0.08074088 0.94999182 -0.94517803 0.03409892
14.43389034 -9.32382774 1.86145556 0.94350475 -0.96273792 0.78613979
15.18053627 -9.04425335 0.80352688 0.99231094 -0.93387026 0.33934975
14.65135860 -9.18988132 1.28755569 0.95772004 -0.94890720 0.54376733
15.07599449 -8.91161823 -0.39775220 0.98547733 -0.92017496 -0.16798082
14.58199692 -9.37725258 -0.49775949 0.95318604 -0.96825433 -0.21021643
14.75926304 -9.19964123 0.08348973 0.96477348 -0.94991493 0.03525983
14.49721050 -9.23616219 1.86214936 0.94764382 -0.95368594 0.78643280
15.24753571 -8.88403606 -0.39974052 0.99669051 -0.91732693 -0.16882055
14.57482147 -9.24360275 -0.49614069 0.95271701 -0.95445424 -0.20953277
14.86274242 -9.13505268 0.08417694 0.97153765 -0.94324583 0.03555005
14.61210632 -9.18089294 1.87001181 0.95515424 -0.94797909 0.78975332
14.66706753 -9.23930359 0.68833345 0.95874691 -0.95401031 0.29070064
14.58687401 -9.12316227 -0.49502000 0.95350486 -0.94201803 -0.20905948
14.60220051 -9.60255909 0.01901092 0.95450670 -0.99151850 0.00802879
14.30664062 -9.37503529 2.35859466 0.93518674 -0.96802539 0.99609423
14.74687481 -9.16069508 0.68957144 0.96396369 -0.94589353 0.29122347
14.74765015 -9.09548092 -0.49755195 0.96401435 -0.93915981 -0.21012878
15.07414913 -9.00614357 0.08562772 0.98535675 -0.92993522 0.03616275
14.33532333 -9.26565838 2.35339260 0.93706167 -0.95673156 0.99389726
14.58573627 -9.37473774 1.19413793 0.95343047 -0.96799463 0.50431466
14.96328259 -9.09944630 -0.50141215 0.97810966 -0.93956923 -0.21175905
15.18898582 -8.94582653 0.08649310 0.99286330 -0.92370713 0.03652823
14.47675991 -9.22849560 2.36784291 0.94630700 -0.95289433 1.00000000
15.20943356 -9.18575001 0.70899868 0.99419993 -0.94848061 0.29942808
14.58704472 -9.24667645 1.18892777 0.95351601 -0.95477158 0.50211430
15.22588253 -8.83914852 0.08621313 0.99527514 -0.91269201 0.03640999
14.65481567 -9.53770351 -0.57071972 0.95794600 -0.98482180 -0.24102938
14.44569302 -9.40747452 1.80009174 0.94427621 -0.97137493 0.76022428
14.65412331 -9.19264221 1.19107306 0.95790076 -0.94919223 0.50302029
15.12945461 -8.97423172 -0.50303096 0.98897189 -0.92664015 -0.21244271
14.71403503 -9.18715096 0.01784415 0.96181703 -0.94862527 0.00753604
14.45765877 -9.28650475 1.79383302 0.94505841 -0.95888406 0.75758111
14.73224926 -9.41257668 0.61415154 0.96300763 -0.97190171 0.25937173
15.23384190 -8.90730953 -0.50419319 0.99579543 -0.91973007 -0.21293354
14.86179447 -9.14998531 0.01879552 0.97147566 -0.94478768 0.00793782
14.54428577 -9.21352959 1.79763293 0.95072097 -0.95134902 0.75918591
14.55763245 -9.17309856 0.60228848 0.95159340 -0.94717425 0.25436166
15.29816437 -8.81641960 -0.50440073 1.00000000 -0.91034514 -0.21302119
14.71710300 -9.68470001 -0.09741588 0.96201760 -1.00000000 -0.04114119
14.77463341 -9.18039322 0.61036909 0.96577817 -0.94792747 0.25777432
14.76140690 -9.11951923 -0.56740367 0.96491361 -0.94164187 -0.23962894
15.05287647 -9.00863457 0.01960328 0.98396617 -0.93019241 0.00827896
14.51280403 -9.41968727 -0.09814104 0.94866312 -0.97263592 -0.04144745
14.20791721 -9.20628262 2.24742150 0.92873347 -0.95060068 0.94914299
14.96878433 -9.11794662 -0.57175910 0.97846931 -0.94147950 -0.24146834
15.14020824 -8.93213367 0.01992639 0.98967481 -0.92229325 0.00841542
14.54140568 -9.30887032 -0.09822366 0.95053273 -0.96119344 -0.04148234
14.40554714 -9.20658207 2.27087283 0.94165200 -0.95063162 0.95904708
15.22770977 -9.19818020 0.62738997 0.99539459 -0.94976407 0.26496267
14.49621391 -9.21364117 1.07502615 0.94757867 -0.95136052 0.45401075
14.55581093 -9.20647430 2.28874063 0.95147437 -0.95062047 0.96659309
14.62215710 -9.19737339 1.08193088 0.95581120 -0.94968075 0.45692679
14.51576233 -9.06879139 -0.09856789 0.94885647 -0.93640393 -0.04162771
14.41419315 -9.27599716 1.67173910 0.94221717 -0.95779914 0.70601773
14.73683834 -9.43383121 0.50256962 0.96330762 -0.97409636 0.21224786
14.49427891 -9.21563148 -0.67411864 0.94745219 -0.95156604 -0.28469735
14.86001968 -9.15503311 -0.09779223 0.97135967 -0.94530892 -0.04130013
14.53259850 -9.22368813 1.67930138 0.94995701 -0.95239794 0.70921147
14.67760563 -9.26622581 0.49744833 0.95943576 -0.95679015 0.21008502
14.62635994 -9.17119408 -0.67686450 0.95608592 -0.94697762 -0.28585702
14.76266479 -9.19075489 0.49861890 0.96499580 -0.94899738 0.21057938
14.73126793 -9.10860538 -0.67861187 0.96294349 -0.94051498 -0.28659499
14.44310951 -9.43103313 -0.19520257 0.94410735 -0.97380745 -0.08243899
14.39872074 -9.34120178 2.18341780 0.94120580 -0.96453184 0.92211258
14.97582436 -9.13055325 -0.68547660 0.97892952 -0.94278121 -0.28949413
15.03682137 -8.87739372 -0.09777387 0.98291671 -0.91664106 -0.04129238
14.35122967 -9.27509594 -0.19466391 0.93810141 -0.95770609 -0.08221149
14.30905819 -9.18773746 2.16196251 0.93534476 -0.94868582 0.91305149
14.60957336 -9.33355141 0.99364197 0.95498866 -0.96374190 0.41964015
14.48686123 -9.23410034 -0.19496982 0.94696730 -0.95347303 -0.08234069
14.55920982 -9.21936035 2.19280457 0.95169652 -0.95195103 0.92607689
15.25167847 -9.13391209 0.51281220 0.99696136 -0.94312805 0.21657357
14.60540676 -9.20228386 0.98882127 0.95471627 -0.95018780 0.41760424
15.26933002 -9.08102417 -0.69252861 0.99811518 -0.93766707 -0.29247236
14.53273296 -9.13545799 -0.19492327 0.94996578 -0.94328767 -0.08232103
14.44494438 -9.30750942 1.59151638 0.94422728 -0.96105295 0.67213768
14.76391411 -9.47648430 0.41942096 0.96507752 -0.97850055 0.17713208
14.82119942 -9.18699932 -0.19582768 0.96882206 -0.94860959 -0.08270299
14.53843498 -9.23893738 1.59572363 0.95033854 -0.95397252 0.67391449
14.72343922 -9.32056618 0.41567415 0.96243173 -0.96240115 0.17554972
14.67381954 -9.19592571 1.60493946 0.95918822 -0.94953132 0.67780656
14.62389755 -9.12960911 0.40976813 0.95592499 -0.94268376 0.17305546
15.06746864 -9.07936001 -0.19633974 0.98492002 -0.93749523 -0.08291924
14.60157299 -9.55452442 -0.27678251 0.95446569 -0.98655862 -0.11689226
14.45925903 -9.39393711 2.07215881 0.94516301 -0.96997708 0.87512511
15.06539059 -8.98167896 -0.19616684 0.98478419 -0.92740911 -0.08284622
14.53237343 -9.41155052 -0.27569973 0.94994229 -0.97179580 -0.11643498
14.34497070 -9.22358227 2.04799199 0.93769228 -0.95238698 0.86491889
14.59916496 -9.33964348 0.89444435 0.95430827 -0.96437097 0.37774649
15.18709373 -8.92527485 -0.19641954 0.99273962 -0.92158508 -0.08295294
14.51037979 -9.26828575 -0.27493542 0.94850463 -0.95700288 -0.11611219
14.53823757 -9.21948338 2.06859732 0.95032561 -0.95196378 0.87362099
14.67105675 -9.25626850 0.89539593 0.95900768 -0.95576203 0.37814838
14.52436352 -9.14916515 -0.27452141 0.94941872 -0.94470298 -0.11593734
14.47331429 -9.34508991 1.46331489 0.94608176 -0.96493334 0.61799490
14.43636227 -9.26586056 0.29078573 0.94366628 -0.95675248 0.12280618
14.75094604 -9.17764187 0.89694220 0.96422982 -0.94764340 0.37880141
14.73943996 -9.15605450 -0.27600229 0.96347767 -0.94541436 -0.11656275
14.51328182 -9.24217987 1.46127832 0.94869435 -0.95430732 0.61713481
14.63947201 -9.26710987 0.29508260 0.95694304 -0.95688146 0.12462085
14.89552212 -9.12396812 -0.27692583 0.97368038 -0.94210124 -0.11695279
14.62667656 -9.18582439 1.46738815 0.95610666 -0.94848830 0.61971515
14.89570045 -9.29905319 0.30092832 0.97369200 -0.96017981 0.12708965
15.18432713 -9.18515491 0.91918463 0.99255878 -0.94841915 0.38819495
14.79560184 -9.10762024 0.29628173 0.96714884 -0.94041324 0.12512727
15.17662525 -9.05063534 0.91466480 0.99205530 -0.93452924 0.38628611
15.07253551 -8.97399902 -0.27751499 0.98525125 -0.92661613 -0.11720160
15.14909744 -8.92321205 -0.27783346 0.99025589 -0.92137206 -0.11733610
15.25325966 -8.85602474 -0.27827930 0.99706471 -0.91443461 -0.11752439
