-11.36001396 4.89688396 0.08911202 -0.95596659 0.97035795 0.04437618
-11.37213230 4.81764078 0.08874512 -0.95698637 0.95465529 0.04419347
-11.36772346 4.90170956 -0.32157207 -0.95661539 0.97131419 -0.16013709
-11.41510963 4.75145054 0.08900195 -0.96060300 0.94153917 0.04432137
-11.38908482 4.82630157 -0.32142368 -0.95841295 0.95637149 -0.16006319
-11.43177319 4.67435789 0.08874512 -0.96200526 0.92626262 0.04419347
-11.37115192 4.73474026 -0.32065207 -0.95690387 0.93822789 -0.15967895
-11.45534611 4.60021162 0.08863504 -0.96398896 0.91156989 0.04413866
-11.50254631 4.70467186 -0.32228431 -0.96796095 0.93226957 -0.16049178
-11.49333191 4.53179741 0.08881850 -0.96718556 0.89801306 0.04423001
-11.40582275 4.60271692 -0.32038498 -0.95982146 0.91206634 -0.15954594
-11.51455975 4.47758627 0.08881850 -0.96897191 0.88727069 0.04423001
-11.40062714 4.90255833 0.02008805 -0.95938426 0.97148240 0.01000349
-11.81607437 4.53893232 0.96983182 -0.99434495 0.89942688 0.48295876
-11.27080631 4.46640348 -0.31777343 -0.94845963 0.88505471 -0.15824544
-11.54246521 4.40515041 0.08881850 -0.97132021 0.87291694 0.04423001
-11.38702583 4.81207418 0.01947720 -0.95823967 0.95355225 0.00969929
-11.54668236 4.49151325 -0.32172045 -0.97167510 0.89003044 -0.16021098
-11.36178207 4.90654612 -0.39477891 -0.95611537 0.97227263 -0.19659278
-11.57366371 4.33393669 0.08889188 -0.97394562 0.85880530 0.04426655
-11.35981941 4.71656561 0.01868818 -0.95595020 0.93462640 0.00930637
-11.78308201 4.56887388 1.40354860 -0.99156857 0.90536004 0.69894189
-11.76116371 4.53639650 0.53364962 -0.98972410 0.89892441 0.26574790
-11.55224228 4.41035318 -0.32136431 -0.97214299 0.87394786 -0.16003364
-11.42549515 4.84917736 -0.39552605 -0.96147698 0.96090454 -0.19696485
-11.60442162 4.26250458 0.08896526 -0.97653395 0.84465045 0.04430310
-11.46139908 4.67467070 0.01968081 -0.96449834 0.92632461 0.00980069
-11.75585842 4.47365618 1.39627969 -0.98927766 0.88649189 0.69532210
-11.76700592 4.45396233 0.53237259 -0.99021572 0.88258940 0.26511195
-11.45979786 4.29298258 -0.31946501 -0.96436357 0.85068995 -0.15908782
-11.31926250 4.72011757 -0.39245448 -0.95253730 0.93533027 -0.19543526
-11.49054432 4.60256481 0.01968081 -0.96695095 0.91203618 0.00980069
-11.40971565 4.67401838 -0.39382422 -0.96014911 0.92619532 -0.19611736
-11.51551628 4.52880716 0.01962991 -0.96905243 0.89742053 0.00977534
-11.61543083 4.20602942 -0.32118624 -0.97746038 0.83345944 -0.15994497
-11.41679382 4.61418104 -0.39349216 -0.96074474 0.91433805 -0.19595200
-11.52927685 4.47158670 0.01952810 -0.97021037 0.88608181 0.00972464
-11.24204731 5.04647160 -0.44292799 -0.94603950 1.00000000 -0.22057016
-11.45546627 4.94916391 -0.02584694 -0.96399909 0.98071766 -0.01287131
-11.72471905 4.50118399 0.89710569 -0.98665720 0.89194673 0.44674248
-11.35455036 4.50606394 -0.39145830 -0.95550680 0.89291376 -0.19493918
-11.55154133 4.39691496 0.01945174 -0.97208399 0.87128496 0.00968662
-11.29183769 4.98377943 -0.44342291 -0.95022941 0.98757702 -0.22081661
-11.74963856 4.60620308 1.33027935 -0.98875421 0.91275716 0.66245514
-11.53345680 4.49368048 -0.39482042 -0.97056216 0.89045990 -0.19661346
-11.59017372 4.32846451 0.01960446 -0.97533494 0.85772097 0.00976267
-11.33577633 4.91828251 -0.44376937 -0.95392698 0.97459829 -0.22098915
-11.39669991 4.75496626 -0.02701371 -0.95905381 0.94223583 -0.01345234
-11.67829132 4.49360085 1.31779194 -0.98275024 0.89044410 0.65623665
-11.76904583 4.54439545 0.46339667 -0.99038738 0.90050948 0.23076318
-11.56892967 4.42399454 -0.39498645 -0.97354722 0.87665105 -0.19669613
-11.34621048 4.83836746 -0.44322494 -0.95480502 0.95876247 -0.22071803
-11.36709404 4.65909195 -0.02758812 -0.95656240 0.92323750 -0.01373839
-11.66667843 4.42059708 0.45673048 -0.98177296 0.87597781 0.22744355
-11.59088516 4.34910107 -0.39486194 -0.97539485 0.86181027 -0.19663413
-11.66998386 4.19198847 0.01996079 -0.98205113 0.83067709 0.00994011
-11.35977840 4.76005507 -0.44277951 -0.95594674 0.94324422 -0.22049622
-11.60673046 4.27202559 -0.39461288 -0.97672826 0.84653711 -0.19651011
-11.42276478 4.70223093 -0.44367039 -0.96124721 0.93178588 -0.22093986
-11.49546528 4.54370403 -0.02690600 -0.96736509 0.90037245 -0.01339871
-11.76223850 4.61317682 0.83264869 -0.98981452 0.91413909 0.41464403
-11.55158806 4.18988657 -0.39295256 -0.97208792 0.83026063 -0.19568330
-11.40030861 4.63036680 -0.44248253 -0.95935744 0.91754538 -0.22034833
-11.51115608 4.48731279 -0.02695986 -0.96868551 0.88919806 -0.01342552
-11.43375778 4.93119907 -0.10927100 -0.96217227 0.97715777 -0.05441499
-11.86398315 4.60172987 1.71902335 -0.99837655 0.91187078 0.85604262
-11.80961227 4.54631662 0.83418113 -0.99380112 0.90089017 0.41540718
-11.42731857 4.55790806 -0.44243306 -0.96163040 0.90318710 -0.22032370
-11.74802303 4.60294867 2.00810480 -0.98861831 0.91211230 1.00000000
-11.54473019 4.41703272 -0.02690600 -0.97151083 0.87527150 -0.01339871
-11.39458942 4.82948923 -0.10944541 -0.95887619 0.95700318 -0.05450184
-11.80247974 4.45869255 0.83126956 -0.99320090 0.88352674 0.41395727
-11.44082737 4.48021078 -0.44203711 -0.96276718 0.88779074 -0.22012651
-11.74167824 4.51563501 2.00203371 -0.98808438 0.89481038 0.99697673
-11.31245518 4.90049410 -0.52278262 -0.95196444 0.97107333 -0.26033634
-11.39518929 4.74544907 -0.10951884 -0.95892668 0.94034988 -0.05453841
-11.88327503 4.63480616 1.29581881 -1.00000000 0.91842508 0.64529443
-11.51730537 4.42680836 -0.44332394 -0.96920294 0.87720859 -0.22076733
-11.37610531 4.84346962 -0.52390593 -0.95732069 0.95977348 -0.26089570
-11.43772888 4.67908001 -0.10948671 -0.96250647 0.92719835 -0.05452241
-11.76915359 4.50556707 1.27860737 -0.99039644 0.89281529 0.63672340
-11.81437397 4.49032497 0.40577486 -0.99420184 0.88979495 0.20206857
-11.54863644 4.35576105 -0.44342291 -0.97183955 0.86313003 -0.22081661
-11.37129879 4.75718021 -0.52272022 -0.95691621 0.94267452 -0.26030526
-11.57135201 4.17903757 -0.02742656 -0.97375107 0.82811081 -0.01365793
-11.46133900 4.60487700 -0.10950048 -0.96449327 0.91249436 -0.05452927
-11.54387951 4.27137089 -0.44258153 -0.97143924 0.84640741 -0.22039762
-11.40835476 4.68869019 -0.52296984 -0.96003455 0.92910266 -0.26042956
-11.47517204 4.52687693 -0.10953720 -0.96565735 0.89703804 -0.05454755
-11.42476940 4.63261509 -0.52278262 -0.96141589 0.91799092 -0.26033634
-11.55039501 4.49386978 -0.10940410 -0.97198755 0.89049739 -0.05448127
-11.31818008 4.93079758 -0.17889644 -0.95244622 0.97707826 -0.08908720
-11.73907757 4.55759239 1.63601112 -0.98786551 0.90312457 0.81470406
-11.69011211 4.50484800 0.74669707 -0.98374498 0.89267284 0.37184167
-11.47592258 4.56965113 -0.52353150 -0.96572053 0.90551406 -0.26070926
-11.56719971 4.41690922 -0.10943164 -0.97340167 0.87524700 -0.05449498
-11.27718449 4.82900190 -0.17863707 -0.94899637 0.95690656 -0.08895804
-11.79278183 4.45965624 0.75233364 -0.99238485 0.88371772 0.37464860
-11.46347523 4.48137617 -0.52215856 -0.96467304 0.88802165 -0.26002556
-11.55541706 4.32934380 -0.10952802 -0.97241014 0.85789520 -0.05454298
-11.39769459 4.79591036 -0.17896293 -0.95913750 0.95034921 -0.08912031
-11.74443817 4.58088493 1.19279623 -0.98831660 0.90774018 0.59399104
-11.51751804 4.41933012 -0.52303225 -0.96922088 0.87572676 -0.26046064
-11.60490417 4.26496983 -0.10947295 -0.97657454 0.84513897 -0.05451556
-11.45164680 4.73409557 -0.17904939 -0.96367764 0.93810010 -0.08916337
-11.77298927 4.50700283 1.19279623 -0.99071926 0.89309978 0.59399104
-11.82570839 4.49451494 0.32515350 -0.99515563 0.89062524 0.16192058
-11.51701355 4.33626461 -0.52209616 -0.96917838 0.85926664 -0.25999448
-11.73328876 4.58360863 1.88982451 -0.98737836 0.90827990 0.94109857
-11.51488686 4.14973640 -0.10975751 -0.96899945 0.82230455 -0.05465726
-11.43851757 4.64481354 -0.17889644 -0.96257281 0.92040813 -0.08908720
-11.61711979 4.29094839 -0.52452999 -0.97760254 0.85028684 -0.26120648
-11.76923656 4.51263952 1.89103234 -0.99040347 0.89421678 0.94170004
-11.39711380 4.56567717 -0.17867033 -0.95908862 0.90472662 -0.08897460
-11.51310825 4.52823877 -0.17898288 -0.96884978 0.89730787 -0.08913025
-11.41554832 4.97354794 -0.23699041 -0.96063989 0.98554957 -0.11801695
-11.75882244 4.58410454 1.56872022 -0.98952711 0.90837812 0.78119439
-11.72800827 4.54158878 0.68290299 -0.98693401 0.89995331 0.34007338
-11.55440140 4.46083212 -0.17902943 -0.97232467 0.88395071 -0.08915343
-11.34736538 4.85904884 -0.23613055 -0.95490217 0.96286064 -0.11758876
-11.80591488 4.51718473 1.57140207 -0.99348998 0.89511746 0.78252989
-11.79178047 4.48122358 0.68537849 -0.99230057 0.88799143 0.34130615
-11.54477310 4.37403584 -0.17889644 -0.97151440 0.86675131 -0.08908720
-11.35556602 4.77831125 -0.23593947 -0.95559227 0.94686180 -0.11749361
-11.57390308 4.30210543 -0.17890309 -0.97396576 0.85249770 -0.08909051
-11.40568161 4.71530676 -0.23611462 -0.95980960 0.93437696 -0.11758082
-11.81005383 4.54048920 1.13532960 -0.99383831 0.89973539 0.56537366
-11.68452549 4.46932650 0.25951448 -0.98327488 0.88563395 0.12923354
-11.64394855 4.24498463 -0.17905603 -0.97986025 0.84117872 -0.08916668
-11.45174885 4.65034962 -0.23625794 -0.96368629 0.92150515 -0.11765219
-11.77979183 4.42100000 0.26180068 -0.99129170 0.87605762 0.13037202
-11.46054840 4.59110594 -0.23614646 -0.96442676 0.90976554 -0.11759669
-11.47428989 4.51312590 -0.23601909 -0.96558315 0.89431316 -0.11753325
-11.67103100 4.54697800 1.46722758 -0.98213929 0.90102124 0.73065287
-11.73370075 4.54018354 0.61147755 -0.98741305 0.89967483 0.30450481
-11.47258759 4.42936802 -0.23576431 -0.96543986 0.87771583 -0.11740638
-11.71722889 4.44928741 0.60862291 -0.98602688 0.88166302 0.30308324
-11.53570271 4.37071848 -0.23606685 -0.97075111 0.86609393 -0.11755703
-11.55731678 4.29605198 -0.23601909 -0.97257000 0.85129815 -0.11753325
-11.67314434 4.48882055 1.02432811 -0.98231709 0.88949686 0.51009697
-11.79085445 4.49768782 0.17746846 -0.99222261 0.89125395 0.08837610
-11.61412621 4.23436069 -0.23627385 -0.97735059 0.83907354 -0.11766012
-11.79455376 4.41436529 0.17681894 -0.99253392 0.87474293 0.08805265
-11.73461342 4.32884979 0.17467050 -0.98748982 0.85779732 0.08698276
