1.80211973 13.18919373 2.28567719 0.94819200 0.96596873 0.88150805
1.74936569 13.26983070 2.29838109 0.92043525 0.97187454 0.88640749
1.69526947 13.51715851 2.33992600 0.89197230 0.98998868 0.90243000
1.41287673 13.28608608 2.29426074 0.74339032 0.97306508 0.88481843
1.33960223 13.39862537 2.31245828 0.70483667 0.98130739 0.89183658
1.27810240 13.42244434 2.31554842 0.67247832 0.98305190 0.89302838
1.71902871 13.20140362 1.48592949 0.90447330 0.96686298 0.57307255
1.53110492 13.40150547 1.04257095 0.80559653 0.98151833 0.40208420
1.81623316 13.35348415 2.24386573 0.95561779 0.97800130 0.86538279
1.63387978 13.19420910 1.48374891 0.85967189 0.96633607 0.57223153
1.44560683 13.39897346 1.04152441 0.76061141 0.98133290 0.40168059
1.72870517 13.33725834 2.23919916 0.90956461 0.97681290 0.86358303
1.53951752 13.10561085 1.47163403 0.81002283 0.95984715 0.56755924
1.65097499 13.39677811 2.24753213 0.86866659 0.98117208 0.86679679
1.46449292 13.18212318 1.47987211 0.77054840 0.96545088 0.57073641
1.51470375 13.51209259 2.26419830 0.79696697 0.98961765 0.87322438
1.42514873 13.47820568 2.25686526 0.74984729 0.98713583 0.87039626
1.68231297 13.16681290 1.40635979 0.88515520 0.96432960 0.54238522
1.34597862 13.54183197 2.26619840 0.70819163 0.99179578 0.87399572
1.59688413 13.15543461 1.40381610 0.84020650 0.96349627 0.54140419
1.51442516 13.16718102 1.40404737 0.79682040 0.96435654 0.54149336
1.46387124 13.46868229 1.43827200 0.77022129 0.98643833 0.55469269
1.79670000 13.29698849 1.82017565 0.94534039 0.97386354 0.70197994
1.72466695 13.23268414 1.80948234 0.90743989 0.96915394 0.69785589
1.74525344 13.04228210 2.09565568 0.91827154 0.95520902 0.80822319
1.63860476 13.21968651 1.80601430 0.86215800 0.96820199 0.69651836
1.68669283 13.23908234 2.12601089 0.88745970 0.96962255 0.81993020
1.75858915 13.29921436 1.37002921 0.92528820 0.97402656 0.52837372
1.56007302 13.26903725 1.81179440 0.82083821 0.97181642 0.69874758
1.60652137 13.27490330 2.13016486 0.84527719 0.97224605 0.82153225
1.66249013 13.20941448 1.35862947 0.87472534 0.96744972 0.52397722
1.49544013 13.44972515 1.83693802 0.78683138 0.98504990 0.70844460
1.54260838 13.45737362 2.15828323 0.81164914 0.98561007 0.83237654
1.57946062 13.21959877 1.35862947 0.83103907 0.96819556 0.52397722
1.45236504 13.41379547 2.14965606 0.76416725 0.98241842 0.82904935
1.52318096 13.28021622 1.36466467 0.80142730 0.97263515 0.52630478
1.82979453 13.33323002 1.75801396 0.96275318 0.97651786 0.67800629
1.38753557 13.40477753 2.14709973 0.73005700 0.98175800 0.82806343
1.73090994 13.23059273 1.74182141 0.91072470 0.96900076 0.67176133
1.65071666 13.26478577 1.74517155 0.86853069 0.97150505 0.67305338
1.57110274 13.30635834 1.74963844 0.82664156 0.97454983 0.67477614
1.67538273 13.29263401 1.27640116 0.88150883 0.97354466 0.49226457
1.77396536 13.34138870 2.02146721 0.93337846 0.97711539 0.77961123
1.58584738 13.25353527 1.27114964 0.83439946 0.97068107 0.49023923
1.67327154 13.22088146 2.00123763 0.88039804 0.96828955 0.77180940
1.53533435 13.36359215 1.28207290 0.80782187 0.97874159 0.49445197
1.61579108 13.26786423 2.00727630 0.85015446 0.97173053 0.77413827
1.24206722 13.18196774 1.72730386 0.65351826 0.96543950 0.66616243
1.75477314 13.28827572 1.67465627 0.92328042 0.97322547 0.64585805
1.54755282 13.40735817 2.02720404 0.81425065 0.98194695 0.78182375
1.66758430 13.26953602 1.67063344 0.87740564 0.97185296 0.64430654
1.46219540 13.40699100 2.02569437 0.76933950 0.98192006 0.78124154
1.58093214 13.25219536 1.66687870 0.83181334 0.97058296 0.64285851
1.40272927 13.65385151 2.06222820 0.73805124 1.00000000 0.79533136
1.90058529 13.31598282 2.59291697 1.00000000 0.97525471 1.00000000
1.50377870 13.31702042 1.67438805 0.79121876 0.97533071 0.64575458
1.81032658 13.27902889 2.58333278 0.95251006 0.97254819 0.99630368
1.61695707 13.37326813 1.21767163 0.85076797 0.97945023 0.46961460
1.40682697 13.20005512 1.65722382 0.74020725 0.96676421 0.63913494
1.72210741 13.25314999 2.57604861 0.90609318 0.97065288 0.99349445
1.53401625 13.39305115 1.21867335 0.80712831 0.98089916 0.47000092
1.32210970 13.19088268 1.65481007 0.69563293 0.96609241 0.63820404
1.66445041 13.30007935 2.58371615 0.87575674 0.97408992 0.99645156
1.47152865 13.40606594 1.21927440 0.77425027 0.98185235 0.47023273
1.74887788 13.24569607 1.57432425 0.92017859 0.97010696 0.60716337
1.66486788 13.25051975 1.57356119 0.87597638 0.97046024 0.60686910
1.56992137 13.16421604 1.56109619 0.82601994 0.96413940 0.60206175
1.48131335 13.12257767 1.55448210 0.77939850 0.96108979 0.59951097
1.53231514 13.34479046 1.11042213 0.80623329 0.97736454 0.42825210
1.89713788 13.17903519 2.44387817 0.99818611 0.96522474 0.94252080
1.47471273 13.39936161 1.11486566 0.77592558 0.98136133 0.42996582
1.82783949 13.28806877 2.46217465 0.96172452 0.97321028 0.94957715
1.33044517 13.18698406 2.43253446 0.70001864 0.96580690 0.93814594
1.26486671 13.37514782 2.46619987 0.66551429 0.97958791 0.95112950
1.09179008 13.33120251 2.45522213 0.57444942 0.97636938 0.94689578
