2.14330769 -11.10496902 1.93683672 0.78415358 -0.98539627 0.80367208
2.23443508 -11.19751740 1.95572078 0.81749356 -0.99360853 0.81150782
2.27867246 -11.05786896 1.93340325 0.83367831 -0.98121685 0.80224741
2.34355998 -11.02214241 1.92962635 0.85741818 -0.97804666 0.80068016
2.42084908 -11.04375267 1.93614995 0.88569528 -0.97996426 0.80338711
2.22581434 -11.24425411 0.86517125 0.81433958 -0.99775571 0.35899463
2.05524683 -10.92552185 1.21794915 0.75193548 -0.96947306 0.50537646
2.28997755 -11.19882679 0.86238033 0.83781439 -0.99372470 0.35783654
2.15869093 -11.08966064 1.23999810 0.78978169 -0.98403788 0.51452547
2.36320043 -11.19785881 0.86360133 0.86460382 -0.99363881 0.35834318
2.10602641 -11.12339497 1.87954211 0.77051377 -0.98703128 0.77989823
2.22911644 -11.07977009 1.24048269 0.81554770 -0.98316026 0.51472658
2.20291376 -11.24933052 1.90354145 0.80596113 -0.99820614 0.78985649
2.30316830 -11.08691883 1.24314797 0.84264040 -0.98379457 0.51583248
2.26347136 -11.18499470 1.89487505 0.82811683 -0.99249732 0.78626049
2.35684299 -10.99849224 1.23394072 0.86227793 -0.97594810 0.51201200
2.31011295 -11.05661964 1.87520885 0.84518117 -0.98110598 0.77810019
2.41467834 -10.93308449 1.22764099 0.88343763 -0.97014415 0.50939798
2.38612914 -11.07274246 1.88054204 0.87299258 -0.98253667 0.78031313
2.12304497 -11.10401058 1.17719328 0.77674025 -0.98531121 0.48846522
2.29081416 -11.17253017 0.80195820 0.83812052 -0.99139130 0.33276495
2.18398929 -11.04561234 1.17187452 0.79903740 -0.98012924 0.48625824
2.26201677 -11.07450771 1.17696202 0.82758462 -0.98269331 0.48836926
2.32261658 -11.01729584 1.17187452 0.84975576 -0.97761661 0.48625824
2.38049459 -10.95005131 1.16563082 0.87093109 -0.97164971 0.48366746
2.47207475 -11.03766251 1.17788696 0.90443677 -0.97942382 0.48875305
2.14177251 -11.11801243 1.79849374 0.78359193 -0.98655367 0.74626797
2.23969173 -11.13869762 1.51989782 0.81941676 -0.98838913 0.63066721
2.29338217 -11.25667763 0.74453670 0.83906001 -0.99885809 0.30893844
2.21614718 -11.21815968 1.81670690 0.81080276 -0.99544019 0.75382531
2.13818526 -11.10225677 1.13286901 0.78227949 -0.98515558 0.47007328
2.29705477 -11.06435966 1.51093864 0.84040368 -0.98179281 0.62694967
2.36116767 -11.22839069 0.74346405 0.86386013 -0.99634802 0.30849338
2.25194263 -11.03577900 1.78890789 0.82389891 -0.97925669 0.74229038
2.20594192 -11.07886028 1.13175142 0.80706900 -0.98307949 0.46960953
2.37655878 -11.09613419 1.51787484 0.86949116 -0.98461229 0.62982780
2.32123756 -11.02141190 1.78890789 0.84925127 -0.97798187 0.74229038
2.28075862 -11.09007931 1.13465714 0.83444154 -0.98407501 0.47081524
2.44881105 -11.09257317 1.51960886 0.89592546 -0.98429632 0.63054729
2.39424324 -11.02396679 1.79178369 0.87596118 -0.97820854 0.74348366
2.33957624 -11.02500153 1.12884557 0.85596067 -0.97830039 0.46840379
2.72222471 -11.09938049 2.40998387 0.99595696 -0.98490036 1.00000000
2.40580392 -10.99649811 1.12728083 0.88019079 -0.97577113 0.46775451
2.20921493 -11.25708866 2.31593585 0.80826646 -0.99889457 0.96097565
2.47771788 -11.07422066 1.13756299 0.90650135 -0.98266780 0.47202098
2.24163461 -11.14567661 1.46347606 0.82012761 -0.98900843 0.60725552
2.25879121 -11.22925949 2.31232333 0.82640451 -0.99642515 0.95947671
2.14590096 -11.12016964 1.05751598 0.78510237 -0.98674506 0.43880624
2.31082177 -11.12749290 1.46291769 0.84544051 -0.98739493 0.60702384
2.21534276 -11.10451603 1.05730593 0.81050843 -0.98535609 0.43871909
2.37534380 -11.08757019 1.45928836 0.86904663 -0.98385239 0.60551786
2.14455318 -11.14481354 1.69930506 0.78460926 -0.98893183 0.70511055
2.28785539 -11.10401917 1.05877638 0.83703798 -0.98531199 0.43932924
2.44962072 -11.09370708 1.46235943 0.89622170 -0.98439693 0.60679221
2.21950531 -11.15633678 1.70323014 0.81203133 -0.98995435 0.70673925
2.34609532 -11.03493118 1.05289459 0.85834575 -0.97918147 0.43688864
2.27456808 -11.06855202 1.69175673 0.83217669 -0.98216480 0.70197845
2.42045093 -11.04329586 1.05541527 0.88554960 -0.97992373 0.43793458
2.34162855 -11.04243374 1.68994510 0.85671151 -0.97984719 0.70122671
2.22421479 -11.06965256 1.38876283 0.81375438 -0.98226249 0.57625401
2.41263866 -11.03523159 1.69115281 0.88269138 -0.97920811 0.70172787
2.71227741 -11.26954651 2.34042072 0.99231762 -1.00000000 0.97113544
2.29610515 -11.15413284 1.40190434 0.84005624 -0.98975879 0.58170694
2.47231627 -11.05848408 1.69658768 0.90452510 -0.98127145 0.70398301
2.72219300 -11.07960987 2.30309129 0.99594539 -0.98314601 0.95564592
2.19582248 -11.11060905 1.00169909 0.80336672 -0.98589671 0.41564557
2.36240554 -11.12204456 1.39949059 0.86431301 -0.98691148 0.58070540
2.29169106 -11.22327805 1.01472163 0.83844131 -0.99589437 0.42104915
2.43651438 -11.12633514 1.40217257 0.89142656 -0.98729217 0.58181822
2.18737435 -11.21986866 2.19842601 0.80027586 -0.99559188 0.91221607
2.34685230 -11.13663960 1.00730884 0.85862267 -0.98820657 0.41797328
2.07770801 -11.02209759 1.29933250 0.76015317 -0.97804266 0.53914571
2.26017404 -11.21744442 2.20072627 0.82691044 -0.99537677 0.91317052
2.41464901 -11.11195469 1.00630713 0.88342690 -0.98601615 0.41755763
2.16046286 -11.07894421 1.30849040 0.79043001 -0.98308694 0.54294568
2.22964239 -11.06320572 1.30823600 0.81574011 -0.98169041 0.54284012
2.27737832 -11.03119755 1.30543780 0.83320487 -0.97885019 0.54167908
2.21471643 -11.19015408 0.92212617 0.81027931 -0.99295515 0.38262752
2.33844829 -10.97785187 1.30035007 0.85554796 -0.97411656 0.53956795
2.27865529 -11.14478970 0.91916382 0.83367205 -0.98892975 0.38139832
2.41075349 -10.97844887 1.30238509 0.88200170 -0.97416955 0.54041237
2.57283115 -11.05518627 2.18270779 0.94129962 -0.98097879 0.90569395
2.35760355 -11.17313576 0.92323709 0.86255616 -0.99144500 0.38308850
2.65467143 -11.09032249 2.19305873 0.97124183 -0.98409659 0.90998894
2.73327541 -11.10962391 2.20034289 1.00000000 -0.98580933 0.91301143
2.14932680 -11.06314659 2.06331158 0.78635573 -0.98168516 0.85615164
2.24871874 -11.19984341 2.09185410 0.82271940 -0.99381489 0.86799508
2.36399341 -11.05144596 2.06916666 0.86489397 -0.98064691 0.85858113
2.43212485 -11.03061199 2.06806874 0.88982064 -0.97879821 0.85812557
2.50656724 -11.03813076 2.07245994 0.91705620 -0.97946537 0.85994762
2.58830428 -11.07579613 2.08270597 0.94696063 -0.98280764 0.86419916
