-4.45666265 -7.50993776 1.48773897 -0.99056941 -0.94301015 0.96826851
-4.38957071 -7.50373125 1.48087204 -0.97565711 -0.94223082 0.96379924
-4.32469368 -7.50039768 1.47469175 -0.96123707 -0.94181222 0.95977694
-4.29202366 -7.55315208 1.47984195 -0.95397562 -0.94843650 0.96312886
-4.27272511 -7.60253191 1.48567891 -0.94968617 -0.95463705 0.96692771
-4.28475428 -7.73795843 1.50730968 -0.95235986 -0.97164232 0.98100573
-4.31591988 -7.91193247 1.53649426 -0.95928693 -0.99348795 1.00000000
-4.39255142 -7.59153414 0.62951046 -0.97631961 -0.95325607 0.40970570
-4.25590706 -7.91977882 1.53271735 -0.94594806 -0.99447316 0.99754184
-4.40848923 -7.45551586 0.91822779 -0.97986209 -0.93617648 0.59761226
-4.33395338 -7.59991980 0.62759167 -0.96329522 -0.95430905 0.40845689
-4.49909163 -7.53858423 1.44988692 -1.00000000 -0.94660723 0.94363314
-4.32272625 -7.41608429 0.90877819 -0.96079975 -0.93122512 0.59146214
-4.27153587 -7.60091305 0.62497514 -0.94942182 -0.95443374 0.40675399
-4.41650057 -7.50729561 1.43822062 -0.98164272 -0.94267839 0.93604034
-4.33513451 -7.51903772 0.92040843 -0.96355772 -0.94415277 0.59903151
-4.24627209 -7.64013910 0.62689394 -0.94380653 -0.95935929 0.40800279
-4.37908220 -7.52462053 1.43755400 -0.97332585 -0.94485384 0.93560648
-4.34445667 -7.64637327 0.93446165 -0.96562976 -0.96014214 0.60817778
-4.31693983 -7.52636147 1.43255413 -0.95951366 -0.94507241 0.93235242
-4.35234690 -7.77411890 0.94851488 -0.96738350 -0.97618294 0.61732405
-4.29684925 -7.60134220 1.44188714 -0.95504820 -0.95448762 0.93842661
-4.40490198 -7.64098787 0.58882117 -0.97906476 -0.95946586 0.38322380
-4.29044056 -7.70217371 1.45622015 -0.95362371 -0.96714890 0.94775504
-4.40131283 -7.51232624 0.87472105 -0.97826701 -0.94331002 0.56929666
-4.32912445 -7.62005138 0.58421987 -0.96222192 -0.95683694 0.38022912
-4.37154293 -7.96379328 1.50155222 -0.97165012 -1.00000000 0.97725862
-4.34903765 -7.53124189 0.87356484 -0.96664792 -0.94568527 0.56854415
-4.29387140 -7.66968203 0.58635616 -0.95438629 -0.96306896 0.38161948
-4.28091574 -7.91660452 1.48721933 -0.95150667 -0.99407458 0.96793032
-4.35010529 -7.61539268 0.88212097 -0.96688527 -0.95625192 0.57411277
-4.33935452 -7.70827198 0.89090842 -0.96449572 -0.96791464 0.57983190
-4.44949722 -7.41600895 1.12366986 -0.98897678 -0.93121564 0.73132056
-4.40682745 -7.45064211 1.12482595 -0.97949272 -0.93556446 0.73207301
-4.48690081 -7.52799082 1.38438427 -0.99729037 -0.94527704 0.90100193
-4.40360737 -7.55351162 1.13754225 -0.97877699 -0.94848162 0.74034917
-4.41161966 -7.50830650 1.37543750 -0.98055786 -0.94280529 0.89517909
-4.36489868 -7.59649515 1.14014328 -0.97017330 -0.95387900 0.74204201
-4.34858942 -7.50850487 1.37032509 -0.96654832 -0.94283020 0.89185172
-4.42327356 -7.55471325 0.84586263 -0.98314816 -0.94863254 0.55051470
-4.31999588 -7.62894344 1.14101028 -0.96019292 -0.95795345 0.74260628
-4.28183270 -7.50134039 1.36393452 -0.95171046 -0.94193059 0.88769257
-4.37770319 -7.55825233 0.84362739 -0.97301936 -0.94907689 0.54905993
-4.31577730 -7.70626974 1.15054750 -0.95925528 -0.96766323 0.74881339
-4.29573202 -7.60923195 1.38023043 -0.95479983 -0.95547831 0.89829844
-4.34190226 -7.60634851 0.84630972 -0.96506196 -0.95511627 0.55080563
-4.43741369 -7.41556597 1.07904136 -0.98629105 -0.93116003 0.70227492
-4.28893518 -7.71035719 1.39397013 -0.95328915 -0.96817648 0.90724069
-4.34545517 -7.72540617 0.85815656 -0.96585166 -0.97006613 0.55851597
-4.38770199 -7.43819046 1.07820380 -0.97524172 -0.93400097 0.70172977
-4.33111334 -7.90357113 1.42464495 -0.96266395 -0.99243802 0.92720485
-4.38885641 -7.54767752 1.09160459 -0.97549832 -0.94774908 0.71045148
-4.34925652 -7.58883190 1.09383810 -0.96669656 -0.95291674 0.71190512
-4.31909180 -7.64700747 1.09886336 -0.95999199 -0.96022177 0.71517569
-4.39659023 -7.41782951 1.28293991 -0.97721732 -0.93144423 0.83497864
-4.37947607 -7.58622789 0.78653514 -0.97341341 -0.95258975 0.51190245
-4.36158562 -7.43846560 1.28293991 -0.96943694 -0.93403548 0.83497864
-4.32382345 -7.59978342 0.78485465 -0.96104366 -0.95429188 0.51080871
-4.36144924 -7.54606581 1.29713070 -0.96940660 -0.94754666 0.84421450
-4.26915073 -7.61467266 0.78338420 -0.94889170 -0.95616150 0.50985169
-4.43084764 -7.46241093 1.03528488 -0.98483163 -0.93704230 0.67379677
-4.32574129 -7.59390831 1.30075395 -0.96146995 -0.95355415 0.84657264
-4.38686419 -7.49524164 1.03608942 -0.97505552 -0.94116479 0.67432040
-4.30029297 -7.66053820 1.30769837 -0.95581359 -0.96192080 0.85109228
-4.36631536 -7.56907225 1.04333067 -0.97048819 -0.95043558 0.67903322
-4.36354446 -7.88783598 1.34272254 -0.96987236 -0.99046218 0.87388712
-4.33623075 -7.62741089 1.04815817 -0.96380138 -0.95776105 0.68217516
-4.41942406 -7.60550308 0.74705994 -0.98229253 -0.95501012 0.48621070
-4.32152176 -7.68581629 1.05405843 -0.96053207 -0.96509492 0.68601519
-4.34692621 -7.58989382 0.74205130 -0.96617866 -0.95305008 0.48295093
-4.30402231 -7.62573290 0.74305308 -0.95664251 -0.95755035 0.48360291
-4.39116859 -7.42400074 0.96710366 -0.97601229 -0.93221915 0.62942225
-4.27047110 -7.67874479 0.74605823 -0.94918519 -0.96420693 0.48555875
-4.36349678 -7.48396111 0.97193700 -0.96986175 -0.93974829 0.63256794
-4.31440306 -7.50779438 0.97142822 -0.95894980 -0.94274098 0.63223678
-4.29266787 -7.57957458 0.97804230 -0.95411879 -0.95175433 0.63654149
-4.36939049 -7.54263973 0.67199069 -0.97117168 -0.94711649 0.43735322
-4.32407331 -7.71898317 0.99559498 -0.96109921 -0.96925962 0.64796531
-4.30505896 -7.54058361 0.66884315 -0.95687294 -0.94685829 0.43530470
-4.27034187 -7.59001684 0.67125010 -0.94915646 -0.95306551 0.43687120
