-5.95222855 6.29390335 1.93276286 -0.92726123 0.93052125 0.88184357
-5.98895216 6.25356960 1.93187714 -0.93298221 0.92455810 0.88143945
-6.01995945 6.20743513 1.92921984 -0.93781263 0.91773736 0.88022703
-6.13847017 6.55574417 1.53100061 -0.95627469 0.96923310 0.69853532
-6.32322121 6.43743181 2.01469755 -0.98505592 0.95174122 0.91922718
-5.98207092 6.32956886 1.48361874 -0.93191022 0.93579423 0.67691684
-6.32733583 6.38130808 2.00628257 -0.98569691 0.94344360 0.91538775
-6.01489449 6.28475666 1.48190200 -0.93702358 0.92916900 0.67613351
-6.05976152 6.25248671 1.48327541 -0.94401318 0.92439801 0.67676014
-5.99690962 6.50630665 0.63631338 -0.93422186 0.96192402 0.29032475
-6.13766241 6.25357246 1.49288917 -0.95614886 0.92455858 0.68114656
-6.00360060 6.43216467 0.63195252 -0.93526417 0.95096248 0.28833506
-6.06079960 6.61684322 0.95626843 -0.94417489 0.97826624 0.43630764
-6.07270670 6.42465639 0.63561565 -0.94602978 0.94985241 0.29000640
-5.96171761 6.28300142 1.88236308 -0.92873949 0.92890948 0.85884815
-6.02165508 6.51257181 0.94366896 -0.93807679 0.96285027 0.43055898
-6.10980844 6.40315962 0.63648784 -0.95180964 0.94667423 0.29040435
-5.99395418 6.25766468 1.88322735 -0.93376142 0.92516357 0.85924250
-6.03389072 6.44424105 0.93858075 -0.93998289 0.95274794 0.42823744
-6.07568169 6.54309845 1.47521961 -0.94649327 0.96736348 0.67308462
-6.07113075 6.25921679 1.89532709 -0.94578433 0.92539304 0.86476314
-6.02770567 6.35732794 0.93034261 -0.93901938 0.93989825 0.42447871
-6.02368593 6.40545464 1.45222020 -0.93839318 0.94701356 0.66259092
-6.33012152 6.44575596 1.96490097 -0.98613089 0.95297188 0.89650697
-6.04685640 6.29789686 0.92670816 -0.94200277 0.93111169 0.42282045
-5.98919725 6.28876400 1.43388736 -0.93302041 0.92976141 0.65422636
-6.39934731 6.43499756 1.97397578 -0.99691516 0.95138133 0.90064740
-6.09324360 6.26688004 0.92791969 -0.94922912 0.92652601 0.42337322
-6.03675747 6.62244225 0.90432078 -0.94042951 0.97909403 0.41260597
-6.02280331 6.43219423 0.58816385 -0.93825567 0.95096684 0.26835600
-6.03132343 6.25385427 1.43455398 -0.93958294 0.92460024 0.65453047
-6.11853790 6.21435785 0.92549670 -0.95316958 0.91876090 0.42226771
-6.02313614 6.52440834 0.89483958 -0.93830752 0.96460027 0.40828007
-6.06857157 6.40002346 0.58882117 -0.94538563 0.94621056 0.26865593
-6.07599640 6.22149134 1.43588734 -0.94654232 0.91981554 0.65513885
-6.16178179 6.19950390 0.92791969 -0.95990628 0.91656476 0.42337322
-6.01598501 6.45517302 0.88836467 -0.93719351 0.95436418 0.40532583
-6.12891245 6.40310287 0.59243643 -0.95478576 0.94666588 0.27030542
-6.16187572 6.25049973 1.44955361 -0.95992088 0.92410427 0.66137421
-6.21472836 6.17462587 0.93034261 -0.96815449 0.91288668 0.42447871
-6.02922106 6.38828802 0.88373971 -0.93925548 0.94447553 0.40321565
-6.03974152 6.76384687 1.18493927 -0.94089437 1.00000000 0.54064113
-5.86686182 6.61613750 1.39716542 -0.91396248 0.97816193 0.63747156
-6.03774738 6.31717539 0.87842101 -0.94058371 0.93396193 0.40078890
-6.02490234 6.66277552 1.17251205 -0.93858266 0.98505712 0.53497106
-6.06629372 6.26766872 0.87657106 -0.94503075 0.92664260 0.39994487
-6.09612274 6.65683126 1.17887020 -0.94967765 0.98417830 0.53787208
-6.20399714 6.06004000 1.43188739 -0.96648276 0.89594579 0.65331382
-5.96279478 6.29493332 1.82018602 -0.92890733 0.93067354 0.83047920
-6.10139322 6.22516394 0.87587726 -0.95049870 0.92035848 0.39962831
-5.98539543 6.45477009 1.14621246 -0.93242812 0.95430458 0.52297163
-6.03791714 6.47817850 0.54226214 -0.94061017 0.95776540 0.24741286
-5.99001455 6.24466991 1.81642139 -0.93314773 0.92324233 0.82876158
-6.12926674 6.19492722 0.87564605 -0.95484096 0.91588813 0.39952281
-6.04784632 6.65009499 0.87223864 -0.94215697 0.98318237 0.39796814
-5.99947739 6.40919352 1.14274430 -0.93462187 0.94756633 0.52138925
-6.06289864 6.44385672 0.54164916 -0.94450188 0.95269108 0.24713318
-6.05614710 6.51359224 1.40547323 -0.94345009 0.96300113 0.64126211
-6.20212364 6.40421724 1.87247312 -0.96619087 0.94683063 0.85433578
-6.03282261 6.55069160 0.86285055 -0.93981653 0.96848607 0.39368472
-6.04099369 6.37280464 1.14303339 -0.94108945 0.94218642 0.52152115
-6.10326672 6.40563583 0.54164916 -0.95079058 0.94704032 0.24713318
-6.01826525 6.39222145 1.38694060 -0.93754870 0.94505709 0.63280636
-6.29988813 6.42363739 1.89004159 -0.98142099 0.94970179 0.86235154
-6.03853226 6.47494793 0.85703892 -0.94070601 0.95728779 0.39103311
-6.07679415 6.33044863 1.14216638 -0.94666660 0.93592429 0.52112556
-6.01565886 6.72380972 1.13264441 -0.93714267 0.99408072 0.51678103
-6.02143621 6.31578588 1.37831330 -0.93804270 0.93375647 0.62887007
-6.05173731 6.40804291 0.85256839 -0.94276309 0.94739622 0.38899338
-6.13304186 6.30913258 1.14563441 -0.95542908 0.93277282 0.52270788
-6.04054308 6.66676235 1.12901509 -0.94101924 0.98564655 0.51512516
-6.01426363 6.22964430 1.36744928 -0.93692535 0.92102087 0.62391329
-6.06296396 6.33979607 0.84787440 -0.94451207 0.93730628 0.38685170
-6.17673635 6.27469444 1.14650142 -0.96223593 0.92768133 0.52310348
-6.05292845 6.59650755 1.12287307 -0.94294870 0.97525972 0.51232278
-6.06988859 6.20863485 1.37128365 -0.94559079 0.91791475 0.62566274
-6.07773113 6.27593565 0.84385091 -0.94681251 0.92786485 0.38501593
-6.18102980 6.20080233 1.13927627 -0.96290481 0.91675675 0.51980692
-5.96381044 6.41732597 1.09579229 -0.92906553 0.94876868 0.49996689
-6.15333271 6.21516705 1.38150859 -0.95859003 0.91888052 0.63032800
-5.88889027 6.60930538 1.31796408 -0.91739416 0.97715181 0.60133511
-6.10584545 6.24580717 0.84362739 -0.95119232 0.92341048 0.38491395
-6.06814194 6.65506315 0.81258291 -0.94531870 0.98391688 0.37074959
-6.16234493 6.12428713 1.12945008 -0.95999402 0.90544438 0.51532358
-5.99533653 6.39059877 1.09607148 -0.93397677 0.94481719 0.50009423
-6.05281925 6.41981363 0.48502028 -0.94293165 0.94913644 0.22129565
-5.91367340 6.30260134 1.73632669 -0.92125499 0.93180722 0.79221749
-6.15057421 6.21295691 0.84452152 -0.95816034 0.91855377 0.38532192
-6.05330515 6.55530405 0.80376029 -0.94300735 0.96916801 0.36672416
-6.23043251 6.11448765 1.13551915 -0.97060096 0.90399557 0.51809269
-6.04217482 6.35999775 1.09746742 -0.94127345 0.94029295 0.50073117
-5.95046425 6.26247358 1.73552394 -0.92698640 0.92587453 0.79185122
-6.02932549 6.44726181 0.79367727 -0.93927169 0.95319450 0.36212370
-6.08475590 6.32476902 1.09802580 -0.94790691 0.93508458 0.50098592
-6.19323349 6.04327345 1.36649072 -0.96480596 0.89346695 0.62347591
-6.02899504 6.26599884 1.74716425 -0.93922025 0.92639571 0.79716223
-6.06835127 6.40780401 0.79346722 -0.94535130 0.94736087 0.36202785
-6.14919138 6.31200361 1.10305107 -0.95794487 0.93319732 0.50327879
-6.05419064 6.71785498 1.08463240 -0.94314533 0.99320036 0.49487504
-5.80372667 6.27530289 2.17669916 -0.90412706 0.92777127 0.99314213
-6.24390602 6.01654053 1.36936641 -0.97269988 0.88951463 0.62478799
-5.98642349 6.40792084 1.30528283 -0.93258828 0.94737816 0.59554917
-6.27557993 6.44178438 1.80817580 -0.97763419 0.95238471 0.82499939
-6.09063911 6.35084677 0.79073638 -0.94882339 0.93894005 0.36078188
-6.19844198 6.28313398 1.10500538 -0.96561736 0.92892909 0.50417042
-6.09226227 6.67530012 1.08382773 -0.94907624 0.98690879 0.49450791
-5.84832144 6.24437904 2.17870283 -0.91107422 0.92319936 0.99405634
-6.00488091 6.34715128 1.30045199 -0.93546367 0.93839371 0.59334505
-6.35437059 6.44136858 1.81941473 -0.98990852 0.95232326 0.83012730
-6.09724522 6.27813244 0.78569490 -0.94985253 0.92818964 0.35848165
-6.14982224 6.15559387 1.08741689 -0.95804316 0.91007292 0.49614552
-6.00732565 6.50035906 1.05861771 -0.93584448 0.96104467 0.48300558
-5.90870571 6.23003864 2.18671751 -0.92048109 0.92107922 0.99771309
-6.04191351 6.30643463 1.29984808 -0.94123274 0.93237394 0.59306949
-6.14065361 6.26356506 0.78779554 -0.95661485 0.92603588 0.35944009
-6.18858290 6.13632917 1.08937109 -0.96408147 0.90722471 0.49703714
-6.00807381 6.44016409 1.05271745 -0.93596107 0.95214516 0.48031351
-5.99889421 6.20240211 1.28384566 -0.93453103 0.91699326 0.58576822
-6.03068256 6.38359928 1.04923093 -0.93948311 0.94378233 0.47872275
-6.12055016 6.24953079 1.30196166 -0.95348305 0.92396098 0.59403384
-6.01044130 6.46340418 0.75006515 -0.93632984 0.95558107 0.34222519
-6.05831242 6.33272123 1.04681718 -0.94378740 0.93626028 0.47762147
-6.19858646 6.25034761 1.31041574 -0.96563983 0.92408180 0.59789109
-6.08922529 6.46598768 0.75567484 -0.94860315 0.95596308 0.34478468
-6.11457014 6.31157446 1.05003548 -0.95255148 0.93313384 0.47908986
-6.02870703 6.66954374 1.01391077 -0.93917537 0.98605776 0.46260756
-6.08980989 6.38592958 0.74986482 -0.94869423 0.94412684 0.34213379
-6.18610430 6.30549717 1.05620396 -0.96369535 0.93223536 0.48190427
-5.99032450 6.54355621 0.99864757 -0.93319601 0.96743119 0.45564356
-6.15989923 6.05663776 1.28535533 -0.95961303 0.89544278 0.58645701
-5.88906240 6.28693676 1.64828551 -0.91742098 0.92949128 0.75204778
-6.14921188 6.36753607 0.75266963 -0.95794809 0.94140750 0.34341350
-6.15559673 6.19636440 1.04279423 -0.95894277 0.91610062 0.47578594
-5.98288822 6.45330572 0.98948967 -0.93203753 0.95408809 0.45146519
-6.23604298 6.05509043 1.29350746 -0.97147495 0.89521402 0.59017652
-5.91727114 6.25769234 1.64790213 -0.92181545 0.92516768 0.75187284
-6.18332720 6.34275293 0.75327069 -0.96326268 0.93774343 0.34368774
-6.18050814 6.16309977 1.04198968 -0.96282351 0.91118264 0.47541887
-5.98889303 6.39891338 0.98491073 -0.93297297 0.94604647 0.44937599
-5.97416449 6.23877859 1.65288603 -0.93067855 0.92237133 0.75414681
-5.97023582 6.48459291 0.68106300 -0.93006653 0.95871371 0.31074223
-5.99903154 6.32941246 0.97931421 -0.93455243 0.93577111 0.44682252
-6.22967291 6.42325878 1.71345901 -0.97048259 0.94964582 0.78178388
-5.94041967 6.37105036 0.67143524 -0.92542166 0.94192708 0.30634946
-6.05238533 6.30593872 0.98185807 -0.94286406 0.93230063 0.44798318
-6.05124998 6.40905857 0.68106300 -0.94268721 0.94754636 0.31074223
-6.09878349 6.27491522 0.98313004 -0.95009214 0.92771399 0.44856352
-5.82657909 6.13992167 2.07194710 -0.90768713 0.90775585 0.94534791
-6.12709475 6.40841722 0.68587685 -0.95450258 0.94745153 0.31293860
-6.10754776 6.20529652 0.97753352 -0.95145750 0.91742122 0.44601005
-6.16972160 6.41872120 2.18110394 -0.96114320 0.94897497 0.99515188
-6.17016697 6.19074059 0.98185807 -0.96121258 0.91526920 0.44798318
-6.23978090 6.41035795 2.19172978 -0.97205728 0.94773847 1.00000000
-6.01991749 6.50263596 1.61504817 -0.93780613 0.96138132 0.73688287
-5.91309118 6.30655575 1.57479596 -0.92116427 0.93239188 0.71851736
-5.95259953 6.26927853 1.57479596 -0.92731905 0.92688060 0.71851736
-6.01090479 6.25164127 1.57991898 -0.93640208 0.92427301 0.72085482
-6.18690157 6.35494900 1.61651194 -0.96381950 0.93954653 0.73755074
-5.95443296 6.33591938 2.03471041 -0.92760468 0.93673313 0.92835826
-5.97754478 6.30071640 2.03239536 -0.93120509 0.93152857 0.92730200
-6.00894737 6.25459671 2.02961707 -0.93609715 0.92470998 0.92603433
-6.28092527 6.45713091 2.10925794 -0.97846693 0.95465362 0.96237135
-6.29957676 6.39531231 2.10184956 -0.98137254 0.94551408 0.95899117
-6.41914940 6.43568134 2.12870502 -1.00000000 0.95148242 0.97124428
