-6.25576210 7.20044661 2.13162041 -0.95778167 0.97580308 0.99401069
-6.07135916 7.06062222 1.58868289 -0.92954886 0.95685410 0.74082977
-6.42835045 7.12316513 2.14446425 -0.98420560 0.96532995 1.00000000
-6.23105526 7.15432358 1.61924076 -0.95399892 0.96955252 0.75507939
-6.30277538 7.07803535 1.61752403 -0.96497959 0.95921397 0.75427884
-6.26379633 6.94629049 1.59589326 -0.95901173 0.94135994 0.74419206
-6.41785717 7.02731609 1.62439096 -0.98259902 0.95234048 0.75748104
-6.26824713 7.19694519 2.07768846 -0.95969313 0.97532856 0.96886134
-6.17826509 7.02659988 0.68079418 -0.94591653 0.95224345 0.31746584
-6.31454563 7.34181929 1.04301071 -0.96678162 0.99496192 0.48637357
-6.30809736 7.10596991 0.69352788 -0.96579438 0.96299964 0.32340381
-6.04288769 7.08952141 1.54055119 -0.92518973 0.96077055 0.71838510
-6.36447191 7.30648184 1.04373765 -0.97442555 0.99017298 0.48671255
-6.38066006 7.09724951 0.69719100 -0.97690403 0.96181786 0.32511199
-6.20299768 7.18601322 1.57055032 -0.94970322 0.97384709 0.73237419
-6.44906569 7.15149832 2.09670234 -0.98737717 0.96916962 0.97772783
-6.29572058 7.13706684 1.02265775 -0.96389943 0.96721387 0.47688264
-6.36865997 6.99526310 0.68986475 -0.97506672 0.94799668 0.32169563
-6.26356316 7.16474628 1.57455027 -0.95897603 0.97096503 0.73423946
-6.50044107 7.11806059 2.09886312 -0.99524295 0.96463817 0.97873545
-6.32055235 7.07520390 1.01902330 -0.96770126 0.95883024 0.47518781
-6.29946518 6.96335363 1.00715077 -0.96447277 0.94367230 0.46965146
-6.16773129 7.08536816 0.63614839 -0.94430381 0.96020770 0.29664677
-6.33340120 7.06340647 1.56955040 -0.96966851 0.95723146 0.73190790
-6.31650734 7.36148930 0.99034500 -0.96708196 0.99762756 0.46181464
-6.24894476 7.08842039 0.64074969 -0.95673788 0.96062136 0.29879242
-6.37897873 7.02493620 1.56988370 -0.97664660 0.95201796 0.73206335
-6.24991608 7.21430922 0.97230762 -0.95688659 0.97768176 0.45340350
-6.30210781 7.08127117 0.64321464 -0.96487737 0.95965248 0.29994187
-6.24545527 7.11804628 0.96352023 -0.95620364 0.96463621 0.44930580
-6.35313225 7.04895163 0.64403629 -0.97268939 0.95527256 0.30032504
-6.27952480 7.06676197 0.96167022 -0.96141982 0.95768619 0.44844311
-6.19118547 7.11493778 1.98290336 -0.94789469 0.96421498 0.92466140
-6.30921936 7.01089239 0.95912653 -0.96596617 0.95011473 0.44725695
-6.25046730 7.33889627 1.26846218 -0.95697099 0.99456578 0.59150541
-6.32391167 7.17548370 2.01134753 -0.96821558 0.97242016 0.93792540
-6.31200457 7.31742811 1.27193022 -0.96639258 0.99165642 0.59312260
-6.06842852 7.08469009 1.47576952 -0.92910016 0.96011579 0.68817633
-6.31217623 7.22555733 1.26181507 -0.96641886 0.97920609 0.58840573
-6.19538498 7.05630350 0.58332998 -0.94853765 0.95626885 0.27201664
-6.22177076 7.17145729 1.50260997 -0.95257741 0.97187448 0.70069247
-6.47141981 7.15916729 2.02975249 -0.99079967 0.97020894 0.94650799
-6.28350735 7.33535480 0.94756663 -0.96202958 0.99408585 0.44186637
-6.28710890 7.12906599 1.24880970 -0.96258098 0.96612960 0.58234113
-6.29354000 7.10001183 0.59083867 -0.96356559 0.96219218 0.27551809
-6.26592827 7.15391731 1.50516629 -0.95933813 0.96949744 0.70188451
-6.53151178 7.15742970 2.03811836 -1.00000000 0.96997344 0.95040911
-6.21588707 7.16536045 0.92811990 -0.95167661 0.97104824 0.43279803
-6.33268499 7.05440426 0.59022570 -0.96955884 0.95601147 0.27523223
-6.19898224 7.05612087 0.91761422 -0.94908845 0.95624411 0.42789906
-6.31168652 7.02624035 1.49462175 -0.96634388 0.95219469 0.69696742
-6.28689623 7.06593800 0.92499059 -0.96254838 0.95757455 0.43133879
-6.18760204 7.25463820 1.20495284 -0.94734609 0.98314714 0.56188989
-6.36369896 6.99518967 1.49653900 -0.97430718 0.94798672 0.69786149
-6.32583427 7.02040243 0.92409647 -0.96850997 0.95140356 0.43092182
-6.32604313 7.32372141 1.22505403 -0.96854192 0.99250931 0.57126343
-6.23787737 7.22058725 1.92056537 -0.95504344 0.97853255 0.89559215
-6.27738285 7.19812775 1.20718622 -0.96109188 0.97548884 0.56293136
-6.22102070 7.09720755 0.52842170 -0.95246261 0.96181214 0.24641199
-6.26926470 7.18815327 1.91976261 -0.95984894 0.97413713 0.89521784
-6.33334112 7.37899542 0.88841552 -0.96965927 1.00000000 0.41428319
-6.26755667 7.09608364 1.19546056 -0.95958745 0.96165985 0.55746353
-6.25756359 7.04901123 0.52757621 -0.95805746 0.95528060 0.24601772
-6.19368792 7.31603098 1.42998111 -0.94827783 0.99146706 0.66682440
-6.26112461 7.20220947 0.86929983 -0.95860267 0.97604203 0.40536922
-6.33898640 7.05117655 0.53152180 -0.97052360 0.95557404 0.24785762
-6.05467606 7.06044960 1.38650274 -0.92699456 0.95683074 0.64654970
-6.28134203 7.13431120 0.86530864 -0.96169806 0.96684045 0.40350807
-6.21788836 7.15985584 1.41428053 -0.95198303 0.97030222 0.65950298
-6.42332172 7.09053326 1.92578340 -0.98343569 0.96090764 0.89802539
-6.28246784 7.04562140 0.85837656 -0.96187037 0.95482123 0.40027553
-6.20413828 7.05371475 1.40069366 -0.94987786 0.95591801 0.65316719
-6.30134630 6.97790766 0.85438538 -0.96476078 0.94564468 0.39841437
-6.32681990 7.35969877 1.17420876 -0.96866089 0.99738491 0.54755342
-6.30934286 7.27003860 1.16348100 -0.96598506 0.98523420 0.54255092
-6.29187202 6.99685574 1.40310907 -0.96331024 0.94821250 0.65429354
-6.29063034 7.15744400 1.15033960 -0.96312010 0.96997541 0.53642285
-6.35297441 6.97622490 1.40703416 -0.97266525 0.94541663 0.65612388
-6.29247046 7.27417374 0.82980269 -0.96340185 0.98579460 0.38695106
-6.31962681 7.10004663 1.14712119 -0.96755958 0.96219689 0.53492206
-6.28415775 7.17323923 0.82158852 -0.96212912 0.97211593 0.38312063
-6.17552233 7.17701721 1.81505287 -0.94549662 0.97262794 0.84638989
-6.32513237 7.12915659 0.82098746 -0.96840250 0.96614188 0.38284037
-6.24764347 7.16909218 1.82310379 -0.95653868 0.97155398 0.85014415
-6.32314157 7.03756618 0.81397539 -0.96809769 0.95372957 0.37957051
-6.34915876 7.36826944 1.10828817 -0.97208107 0.99854642 0.51681352
-6.34149408 6.99150944 0.81177157 -0.97090757 0.94748795 0.37854284
-6.27080727 7.20781994 1.08615661 -0.96008509 0.97680235 0.50649321
-6.27149010 7.11757660 1.07750738 -0.96018964 0.96457255 0.50245994
-6.37585020 7.06589365 1.82463717 -0.97616762 0.95756853 0.85085922
-6.28798437 7.25538254 0.75419658 -0.96271503 0.98324800 0.35169464
-6.29500532 7.05430412 1.07343721 -0.96378994 0.95599788 0.50056195
-6.44268322 7.05027914 1.83115458 -0.98640001 0.95545244 0.85389841
-6.24695444 7.11676741 0.74197680 -0.95643318 0.96446294 0.34599635
-6.29682636 7.08334112 0.74271739 -0.96406877 0.95993298 0.34634170
-6.34519529 7.04808617 0.74327284 -0.97147423 0.95515525 0.34660071
-6.02707577 7.09277964 1.69811416 -0.92276889 0.96121210 0.79185939
-6.17003107 7.16974020 1.72629070 -0.94465590 0.97164178 0.80499858
-6.21125793 6.94789124 1.70030975 -0.95096791 0.94157684 0.79288322
-6.38643599 7.05477667 1.73690271 -0.97778833 0.95606196 0.80994713
