1.85861838 6.04625273 2.10737276 0.97726262 0.97770500 0.88893515
1.82598591 6.07597017 2.11378956 0.96010441 0.98251045 0.89164186
1.78935754 6.09278059 2.11571479 0.94084519 0.98522878 0.89245397
1.73606157 6.05105114 2.09710574 0.91282213 0.97848094 0.88460428
1.65988684 6.07238865 2.09710574 0.87276942 0.98193127 0.88460428
1.59217715 5.76920652 1.32467508 0.83716762 0.93290544 0.55877644
1.62397885 6.05267620 2.08748031 0.85388899 0.97874373 0.88054407
1.55590808 5.74272966 1.31670308 0.81809735 0.92862403 0.55541366
1.59207153 6.08660460 2.09582233 0.83711213 0.98423010 0.88406289
1.53995645 5.82977295 1.33486152 0.80970997 0.94269931 0.56307328
1.60575461 5.67058325 0.99297607 0.84430671 0.91695762 0.41885865
1.50281692 5.83744335 1.33441865 0.79018199 0.94393963 0.56288648
1.45151269 5.84485674 2.00470233 0.76320618 0.94513839 0.84562653
1.59497464 5.77180386 1.00945675 0.83863854 0.93332547 0.42581055
1.46891773 5.85813046 1.33707595 0.77235776 0.94728482 0.56400740
1.49819136 5.59084606 1.60938370 0.78774989 0.90406382 0.67887264
1.41914773 5.87228870 2.01111937 0.74618870 0.94957429 0.84833336
1.55563974 5.77028656 1.00739658 0.81795627 0.93308008 0.42494154
1.43755424 5.88999987 1.34239066 0.75586683 0.95243824 0.56624925
1.49325776 5.71752453 1.64381468 0.78515577 0.92454827 0.69339639
1.37068915 5.83126211 1.99379361 0.72070915 0.94294012 0.84102499
1.78451180 6.13706017 2.08537340 0.93829733 0.99238896 0.87965530
1.51688135 5.77041054 1.00567985 0.79757708 0.93310016 0.42421737
1.40273893 5.90841150 1.34460509 0.73756093 0.95541549 0.56718332
1.49031711 5.81963015 1.67168736 0.78360957 0.94105917 0.70515364
1.74766362 6.11804819 2.07592559 0.91892254 0.98931462 0.87567002
1.49549735 5.80040979 1.00980008 0.78633332 0.93795115 0.42595538
1.38140869 5.94347334 1.35124850 0.72634548 0.96108514 0.56998569
1.44912982 5.81019688 1.66622210 0.76195329 0.93953377 0.70284832
1.69732630 6.08689117 2.06143880 0.89245510 0.98427641 0.86955917
1.46801805 5.84603071 1.01632369 0.77188474 0.94532824 0.42870718
1.36223757 6.03390217 1.37029278 0.71626526 0.97570789 0.57801896
1.60968828 5.74121618 1.28515136 0.84637499 0.92837930 0.54210448
1.42274547 5.89087009 2.37067103 0.74808037 0.95257896 1.00000000
1.41125238 5.81357384 1.66458261 0.74203730 0.94007981 0.70215672
1.65602243 6.08645535 2.05765963 0.87073755 0.98420596 0.86796504
1.44417667 5.90877390 1.02593732 0.75934893 0.95547408 0.43276241
1.32059729 6.02518368 1.36630678 0.69437081 0.97429806 0.57633758
1.57097471 5.74180794 1.28299069 0.82601941 0.92847496 0.54119307
1.37251842 5.81295681 1.66184998 0.72167099 0.93998003 0.70100403
1.61134183 6.07290936 2.04947138 0.84724444 0.98201549 0.86451107
1.41915500 5.96952724 1.03520775 0.74619251 0.96529818 0.43667287
1.55475473 5.82508039 1.29984391 0.81749094 0.94194049 0.54830211
1.31559610 5.76138592 2.31087708 0.69174117 0.93164080 0.97477764
1.34783792 5.87401009 1.67715263 0.70869392 0.94985265 0.70745903
1.57219064 6.07924128 2.04821181 0.82665873 0.98303938 0.86397976
1.64857638 5.81469345 0.98756605 0.86682236 0.94026089 0.41657659
1.52310503 5.85361576 1.30416524 0.80084950 0.94655478 0.55012494
1.30512059 5.88758278 2.35885978 0.68623316 0.95204741 0.99501777
1.35335433 6.07592201 1.73344445 0.71159446 0.98250264 0.73120415
1.53208411 6.08164263 2.04569221 0.80557066 0.98342770 0.86291695
1.60562086 5.80215120 0.98356616 0.84423637 0.93823272 0.41488934
1.49067175 5.88009119 1.30805457 0.78379607 0.95083600 0.55176556
1.27813673 5.89730358 2.36033630 0.67204499 0.95361930 0.99564058
1.53450322 5.65373135 1.58270729 0.80684268 0.91423261 0.66761994
1.45039225 5.87703419 1.97325838 0.76261705 0.95034164 0.83236277
1.57302701 5.79063988 0.98023289 0.82709849 0.93637133 0.41348329
1.46294606 5.88705063 1.30805457 0.76921785 0.95196134 0.55176556
1.23917711 5.89611626 2.35664511 0.65156001 0.95342731 0.99408358
1.52193809 5.74891138 1.60719275 0.80023593 0.92962366 0.67794847
1.40489829 5.85099030 1.96129096 0.73869634 0.94613022 0.82731467
1.53865838 5.80802727 0.98156619 0.80902743 0.93918294 0.41404572
1.43104720 5.91698790 1.31280804 0.75244540 0.95680231 0.55377066
1.20356536 5.91107655 2.35959792 0.63283533 0.95584643 0.99532914
1.50286818 5.82363796 1.62582302 0.79020894 0.94170725 0.68580711
1.37292409 5.88001966 1.96821952 0.72188425 0.95082438 0.83023733
1.51112592 5.85191965 0.98756605 0.79455084 0.94628054 0.41657659
1.39701593 5.93915796 1.31583297 0.73455179 0.96038735 0.55504662
1.50722623 5.97587919 2.36670256 0.79250038 0.96632528 0.99832600
1.47053456 5.84977865 1.63061357 0.77320790 0.94593430 0.68782783
1.33808303 5.89777851 1.97136879 0.70356482 0.95369607 0.83156574
1.48748970 5.91289091 0.99656582 0.78212291 0.95613980 0.42037287
1.37380028 6.00868845 1.32966125 0.72234493 0.97163069 0.56087971
1.45704019 5.93460274 2.34636164 0.76611257 0.95965075 0.98974580
1.43049860 5.84580564 1.62688756 0.75215697 0.94529188 0.68625617
1.45934272 5.95848322 1.00289893 0.76732320 0.96351230 0.42304432
1.34074485 6.03815603 1.33441484 0.70496440 0.97639573 0.56288487
1.40874970 5.89836645 2.32820010 0.74072140 0.95379114 0.98208487
1.39283466 5.85093021 1.62582302 0.73235327 0.94612050 0.68580711
1.44365728 6.05762482 1.01856518 0.75907582 0.97954392 0.42965269
1.38395166 5.91763067 2.33328533 0.72768259 0.95690626 0.98422992
1.36791122 5.86868525 1.62901676 0.71924847 0.94899160 0.68715429
1.69017029 6.08057785 2.00907373 0.88869250 0.98325551 0.84747046
1.59006429 5.74400043 1.24042726 0.83605671 0.92882949 0.52323890
1.34674299 5.92620945 2.33328533 0.70811820 0.95829350 0.98422992
1.37898099 6.08571100 1.68810117 0.72506899 0.98408556 0.71207738
1.65045547 6.08556366 2.00722480 0.86781043 0.98406178 0.84669060
1.55998421 5.77655602 1.24544680 0.82024056 0.93409389 0.52535623
1.31437230 5.95637369 2.34200287 0.69109768 0.96317118 0.98790717
1.60113394 6.05347109 1.99304938 0.84187710 0.97887224 0.84071106
1.51972568 5.77109957 1.24210048 0.79907262 0.93321157 0.52394468
1.56119156 6.05603600 1.99058402 0.82087541 0.97928703 0.83967113
1.51125705 5.89050436 1.26636171 0.79461980 0.95251983 0.53417861
1.52219510 6.06203175 1.98935139 0.80037105 0.98025656 0.83915120
1.59324133 5.86616468 0.94982499 0.83772719 0.94858402 0.40065661
1.46719980 5.87139845 1.26008725 0.77145451 0.94943035 0.53153187
1.54599702 5.91870022 0.75403059 0.81288612 0.95707923 0.31806630
1.54591167 5.75311470 1.56165195 0.81284124 0.93030334 0.65873837
1.43638003 5.87355661 1.92340493 0.75524944 0.94977933 0.81133354
1.55285823 5.86268806 0.94758832 0.81649375 0.94802183 0.39971313
1.42982423 5.87859917 1.25966895 0.75180238 0.95059472 0.53135544
1.51808870 5.92592001 0.75403059 0.79821187 0.95824671 0.31806630
1.50954700 5.72481203 1.55181599 0.79372066 0.92572665 0.65458935
1.39688575 5.83026171 1.90676427 0.73448330 0.94277835 0.80431414
1.53256536 5.89862823 0.95238125 0.80582374 0.95383352 0.40173489
1.40970278 5.91764021 1.26678002 0.74122250 0.95690781 0.53435504
1.47468054 5.91035891 0.75027353 0.77538788 0.95573038 0.31648150
1.49868977 5.83343649 1.57925308 0.78801191 0.94329172 0.66616291
1.36660671 5.86674118 1.91600919 0.71856260 0.94867724 0.80821389
1.50360036 5.94070578 0.95781326 0.79059392 0.96063763 0.40402621
1.37727726 5.94735575 1.27138126 0.72417313 0.96171296 0.53629595
1.63324893 5.73624229 1.18762481 0.85876322 0.92757499 0.50096565
1.43521285 5.90988445 0.74882847 0.75463575 0.95565367 0.31587195
1.44627917 5.77896595 1.56165195 0.76045442 0.93448359 0.65873837
1.33013189 5.87706900 1.91662550 0.69938409 0.95034724 0.80847383
1.47230268 5.97497654 0.96196711 0.77413756 0.96617937 0.40577841
1.36187267 6.05518579 1.29313266 0.71607339 0.97914952 0.54547113
1.59080160 5.72375965 1.18280804 0.83644438 0.92555648 0.49893385
1.44299638 5.88659906 2.27047849 0.75872833 0.95188832 0.95773661
1.85139799 6.12230682 2.33947730 0.97346610 0.99000329 0.98684180
1.40163970 5.93420553 0.75114053 0.73698294 0.95958650 0.31684723
1.40858805 5.78230381 1.56009889 0.74063641 0.93502331 0.65808326
1.45561421 6.07249403 0.97666544 0.76536280 0.98194832 0.41197848
1.56311512 5.76387024 1.18923032 0.82188684 0.93204254 0.50164294
1.40897417 5.90828753 2.27545762 0.74083942 0.95539546 0.95983696
1.81074560 6.12663317 2.33669233 0.95209104 0.99070287 0.98566705
1.36825395 5.96026802 0.75374156 0.71942872 0.96380091 0.31794441
1.55793881 5.88845301 0.71945387 0.81916511 0.95218813 0.30348110
1.37354624 5.79668379 1.56165195 0.72221136 0.93734866 0.65873837
1.53397238 5.80007219 1.19484985 0.80656356 0.93789655 0.50401336
1.37265587 5.92066813 2.27688026 0.72174323 0.95739746 0.96043706
1.51590097 5.87896538 0.71666205 0.79706156 0.95065391 0.30230346
1.35333025 5.87679243 1.58132386 0.71158183 0.95030254 0.66703641
1.58966708 6.09835768 1.94496024 0.83584785 0.98613060 0.82042605
1.51038194 5.85888195 1.20528603 0.79415965 0.94740635 0.50841558
1.34270287 5.91794968 2.27332377 0.70599395 0.95695788 0.95893681
1.48719656 5.88220644 0.71610367 0.78196877 0.95117801 0.30206794
1.35824835 6.03021336 1.62170303 0.71416777 0.97511137 0.68406922
1.55756187 6.09285164 1.94076383 0.81896693 0.98524028 0.81865591
1.48908103 5.89060736 1.21050406 0.78295964 0.95253646 0.51061666
1.45212770 5.89912033 0.71722043 0.76352954 0.95391309 0.30253899
1.56317818 5.70807695 1.49644852 0.82191998 0.92302054 0.63123417
1.48189449 5.95451641 1.89280391 0.77918094 0.96287084 0.79842538
1.60004258 5.95824385 0.90824139 0.84130329 0.96347362 0.38311574
1.45109081 5.89604568 1.20970130 0.76298440 0.95341587 0.51027799
1.41690493 5.91582537 0.71833712 0.74500942 0.95661432 0.30301005
1.53386199 5.74208212 1.50296056 0.80650550 0.92851931 0.63398105
1.41622376 5.84882879 1.85563493 0.74465126 0.94578069 0.78274667
1.55598271 5.94333696 0.90431631 0.81813657 0.96106309 0.38146007
1.42512023 5.95074034 1.21933472 0.74932903 0.96226025 0.51434159
1.38654125 5.95352077 0.72252488 0.72904420 0.96270984 0.30477652
1.51752734 5.82648945 1.52299738 0.79791671 0.94216835 0.64243305
1.38077772 5.86317873 1.85743344 0.72601372 0.94810116 0.78350532
1.51761913 5.94916821 0.90371239 0.79796499 0.96200603 0.38120532
1.39311087 5.98245811 1.22415137 0.73249847 0.96738917 0.51637334
1.47654557 5.81903315 1.51848912 0.77636850 0.94096261 0.64053136
1.35341477 5.91262531 1.87062240 0.71162623 0.95609689 0.78906876
1.47827756 5.95091724 0.90250468 0.77727920 0.96228886 0.38069588
1.37216508 6.06365681 1.23940420 0.72148520 0.98051929 0.52280736
1.47844088 5.91800785 2.22946858 0.77736503 0.95696723 0.94043779
1.56271052 5.94175768 0.69226640 0.82167405 0.96080768 0.29201284
1.43854225 5.82256126 1.51698637 0.75638634 0.94153315 0.63989747
1.43756127 5.94664717 0.90039116 0.75587052 0.96159834 0.37980434
1.44782519 5.91399145 2.22529101 0.76126730 0.95631778 0.93867558
1.52931738 5.92792749 0.68931627 0.80411595 0.95857131 0.29076841
1.41478360 5.84431791 1.52099371 0.74389404 0.94505125 0.64158785
1.63001764 5.76387262 1.13571560 0.85706419 0.93204296 0.47906926
1.40711439 5.90839243 2.21972108 0.73986155 0.95541239 0.93632609
1.90186179 6.18412781 2.29486179 1.00000000 1.00000000 0.96802205
1.48632145 5.91433430 0.68609798 0.78150868 0.95637321 0.28941089
1.38478661 5.88134003 1.52850747 0.72812158 0.95103794 0.64475733
1.58912754 5.75695515 1.13226521 0.83556414 0.93092436 0.47761381
1.37253737 5.92806768 2.22389865 0.72168094 0.95859396 0.93808824
1.77450585 5.89835215 2.18302822 0.93303621 0.95378888 0.92084825
1.44727337 5.91584969 0.68502522 0.76097715 0.95661825 0.28895837
1.37015736 5.98611116 1.55405450 0.72042954 0.96797985 0.65553361
1.55443621 5.77251768 1.13341534 0.81732345 0.93344086 0.47809896
1.78411734 6.07020712 2.24335051 0.93808991 0.98157853 0.94629347
1.40916979 5.92096710 0.68448883 0.74094230 0.95744580 0.28873211
1.52354813 5.80307293 1.13763249 0.80108249 0.93838179 0.47987783
1.38558900 5.98960876 0.69280279 0.72854346 0.96854544 0.29223910
1.49713790 5.85250044 1.14568329 0.78719598 0.94637442 0.48327383
1.56404626 5.70574617 1.43777514 0.82237643 0.92264366 0.60648447
1.47638786 5.85745525 1.79910648 0.77628559 0.94717562 0.75890177
1.47142649 5.86711264 1.14721680 0.77367687 0.94873726 0.48392069
1.50087094 5.90646601 0.64250648 0.78915876 0.95510089 0.27102304
1.54062605 5.72618437 1.44115615 0.81006205 0.92594856 0.60791063
1.43790364 5.81972170 1.78516066 0.75605053 0.94107395 0.75301915
1.43407452 5.87433386 1.14683342 0.75403720 0.94990498 0.48375899
1.46711040 5.92924786 0.64428717 0.77140749 0.95878482 0.27177417
1.53231990 5.84285259 1.46868682 0.80569464 0.94481432 0.61952364
1.39337051 5.79512119 1.77470136 0.73263502 0.93709594 0.74860716
1.42083359 5.98452806 1.16715217 0.74707508 0.96772385 0.49232987
1.49131036 5.83542728 1.46433985 0.78413182 0.94361365 0.61769003
1.35907805 5.81308651 1.77760673 0.71460402 0.94000101 0.74983275
1.40104270 6.07181454 1.18287051 0.73666906 0.98183846 0.49896020
1.60446763 5.62881756 1.05517614 0.84362996 0.91020393 0.44509599
1.89080858 6.06560421 2.18473530 0.99418819 0.98083425 0.92156833
1.45369136 5.84091234 1.46337390 0.76435173 0.94450057 0.61728257
1.33046103 5.85699558 1.78864717 0.69955719 0.94710129 0.75448984
1.38317168 6.17250299 1.20127249 0.72727245 0.99812019 0.50672257
1.61389887 5.79775143 1.08591425 0.84858894 0.93752128 0.45806196
1.45933044 5.87173367 2.14371705 0.76731676 0.94948453 0.90426594
1.79814029 5.90055180 2.12007618 0.94546318 0.95414454 0.89429373
1.42146850 5.86880875 1.46820390 0.74740893 0.94901156 0.61931998
1.33614147 6.14268398 1.19360495 0.70254391 0.99329835 0.50348824
1.57639527 5.80398560 1.08518243 0.82886952 0.93852937 0.45775327
1.42153621 5.87712622 2.14236140 0.74744451 0.95035654 0.90369409
1.80353916 6.05273199 2.17153955 0.94830191 0.97875273 0.91600204
1.39114547 5.90598297 1.47544873 0.73146504 0.95502281 0.62237597
1.29713118 6.10087919 1.18402064 0.68203229 0.98653835 0.49944535
1.55313003 5.82653522 1.08810985 0.81663662 0.94217575 0.45898813
1.39083219 5.87093258 2.13761711 0.73130035 0.94935501 0.90169287
1.76855898 6.03944111 2.16362214 0.92990929 0.97660357 0.91266233
1.38478518 6.00710440 1.49959850 0.72812080 0.97137457 0.63256288
1.25331461 6.08197546 1.17865336 0.65899354 0.98348153 0.49718133
1.52400398 5.86469936 1.09359872 0.80132216 0.94834703 0.46130344
1.35391676 5.87955570 2.13761711 0.71189022 0.95074940 0.90169287
1.73005223 6.04862022 2.16296220 0.90966243 0.97808784 0.91238397
1.59223986 5.71223927 1.37674773 0.83720064 0.92369360 0.58074176
1.50260282 5.83851433 1.73187137 0.79006940 0.94411284 0.73054057
1.20147586 6.02038670 1.16485202 0.63173670 0.97352237 0.49135962
1.49152577 5.89129925 1.09689212 0.78424507 0.95264834 0.46269268
1.56821024 5.76527214 1.38739741 0.82456583 0.93226922 0.58523405
1.46399713 5.84039974 1.72962153 0.76977050 0.94441772 0.72959155
1.46735883 5.95205736 1.10677218 0.77153808 0.96247321 0.46686029
1.55469263 5.85956240 1.40823364 0.81745827 0.94751638 0.59402323
1.42588842 5.84389353 1.72793412 0.74973291 0.94498265 0.72887975
1.44806647 6.03566790 1.12104344 0.76139414 0.97599339 0.47288021
1.51685858 5.86545086 1.40730762 0.79756510 0.94846857 0.59363258
1.39004135 5.85646915 1.72905910 0.73088455 0.94701618 0.72935432
1.49210906 5.88384008 1.41008580 0.78455180 0.95144218 0.59480453
1.37080204 5.89844656 1.73974597 0.72076851 0.95380414 0.73386222
1.48429847 5.84705973 2.07257175 0.78044498 0.94549465 0.87425530
1.45747423 5.90253592 1.41240084 0.76634079 0.95446539 0.59578103
1.38090348 6.11272192 1.80161786 0.72607982 0.98845339 0.75996113
1.44615352 5.85077620 2.07059240 0.76038831 0.94609559 0.87342036
1.42911553 5.94749260 1.42119837 0.75142974 0.96173507 0.59949201
1.40981138 5.86158133 2.07125211 0.74127960 0.94784284 0.87369865
1.39845312 5.98475170 1.42814386 0.73530746 0.96776003 0.60242176
1.26649749 6.07234430 1.12031162 0.66592509 0.98192412 0.47257152
1.37251830 5.86848688 2.07059240 0.72167093 0.94895953 0.87342036
1.37131238 6.03892279 1.43925655 0.72103685 0.97651970 0.60710937
1.33631802 6.06070995 1.44249773 0.70263678 0.98004282 0.60847652
