-9.94603443 -2.21093488 1.74147224 -0.95393956 -0.73296076 0.76806676
-10.06824875 -2.30486917 1.76584995 -0.96566129 -0.76410151 0.77881837
-10.07657146 -2.37355018 1.76997006 -0.96645957 -0.78687036 0.78063554
-9.97138500 -2.03358650 2.21770048 -0.95637095 -0.67416692 0.97810459
-10.11899185 -2.12966442 2.25399995 -0.97052819 -0.70601827 0.99411428
-10.12412262 -2.18058467 2.25745702 -0.97102028 -0.72289920 0.99563897
-10.21157360 -2.59273434 1.80190134 -0.97940779 -0.85953349 0.79471868
-10.11975765 -2.24624991 2.25961757 -0.97060162 -0.74466825 0.99659187
-10.21032619 -2.66084838 1.80464816 -0.97928816 -0.88211435 0.79593015
-10.18086815 -2.34799457 1.13629508 -0.97646278 -0.77839828 0.50115669
-9.95539761 -2.46095514 0.75946403 -0.95483756 -0.81584650 0.33495742
-9.89310837 -2.23187637 1.68021405 -0.94886333 -0.73990321 0.74104917
-9.92439270 -2.33764911 1.10552335 -0.95186383 -0.77496856 0.48758498
-10.07885456 -2.54221559 0.77167445 -0.96667850 -0.84278566 0.34034276
-10.06319618 -2.31975508 1.71154654 -0.96517670 -0.76903641 0.75486815
-9.84779549 -2.38488269 1.09776986 -0.94451731 -0.79062730 0.48416534
-10.09545517 -2.61404634 0.77463984 -0.96827072 -0.86659873 0.34165064
-10.08297729 -2.39106035 1.71754646 -0.96707392 -0.79267526 0.75751442
-10.04374313 -1.98114574 2.15524149 -0.96331096 -0.65678191 0.95055741
-9.88460636 -2.45975852 1.10431182 -0.94804788 -0.81544983 0.48705065
-10.12502098 -2.68979287 0.77882624 -0.97110641 -0.89170992 0.34349701
-10.12879276 -2.06432414 2.17657447 -0.97146815 -0.68435693 0.95996618
-10.01314259 -2.55896711 1.12248409 -0.96037596 -0.84833908 0.49506542
-10.05213451 -2.51757479 1.71754646 -0.96411574 -0.83461684 0.75751442
-10.14049244 -2.13320708 2.18201232 -0.97259033 -0.70719272 0.96236449
-10.32635689 -2.34818792 1.09394395 -0.99041688 -0.77846235 0.48247796
-10.12911701 -2.44618273 0.72077876 -0.97149926 -0.81094921 0.31789550
-10.17752171 -2.61674881 1.74221241 -0.97614187 -0.86749464 0.76839316
-10.14599323 -2.20106292 2.18619537 -0.97311789 -0.72968805 0.96420944
-10.15271282 -2.37620997 1.07498169 -0.97376239 -0.78775215 0.47411475
-10.03419209 -2.49024892 0.71404123 -0.96239489 -0.82555789 0.31492394
-9.89977074 -2.36676931 1.04607570 -0.94950235 -0.78462237 0.46136594
-10.05521107 -2.54575801 0.71683484 -0.96441084 -0.84396005 0.31615606
-9.84031105 -2.41810989 1.04075706 -0.94379944 -0.80164266 0.45902017
-10.06989956 -2.61684704 0.71946412 -0.96581966 -0.86752725 0.31731570
-9.90586376 -2.50014734 1.05046940 -0.95008671 -0.82883936 0.46330374
-10.24705219 -2.29436135 1.39418006 -0.98281062 -0.76061797 0.61489546
-10.12841034 -2.69994330 0.72587305 -0.97143149 -0.89507496 0.32014230
-9.97846699 -2.58508110 1.06110680 -0.95705020 -0.85699630 0.46799532
-10.05124283 -2.31656313 1.36701334 -0.96403027 -0.76797825 0.60291368
-9.84813309 -2.23408008 1.60038579 -0.94454968 -0.74063379 0.70584136
-10.03841400 -2.38013124 1.36730242 -0.96279979 -0.78905207 0.60304117
-10.15896225 -2.43622470 0.66454631 -0.97436178 -0.80764800 0.29309449
-10.03183746 -2.34254551 1.63329732 -0.96216905 -0.77659184 0.72035676
-10.01749516 -2.44173980 1.36643541 -0.96079344 -0.80947632 0.60265881
-10.08733177 -2.48605871 0.66010237 -0.96749157 -0.82416874 0.29113451
-10.02075768 -2.40646029 1.63393641 -0.96110636 -0.79778057 0.72063863
-10.16650105 -2.09685612 2.09236097 -0.97508484 -0.69514179 0.92282426
-10.08891678 -2.35551000 1.02647102 -0.96764362 -0.78088975 0.45271939
-10.03851032 -2.49710417 1.37134850 -0.96280903 -0.82783049 0.60482568
-10.07550430 -2.53356624 0.66010237 -0.96635717 -0.83991826 0.29113451
-10.08980370 -2.47355652 1.64735663 -0.96772867 -0.82002407 0.72655755
-10.39744663 -2.77509642 2.26734495 -0.99723518 -0.91998947 1.00000000
-10.13349342 -2.13992858 2.08754420 -0.97191900 -0.70942104 0.92069989
-9.91745567 -2.38096046 1.00836551 -0.95119852 -0.78932697 0.44473407
-9.87122059 -2.52113771 1.34851694 -0.94676405 -0.83579803 0.59475595
-10.09219456 -2.60535979 0.66270745 -0.96795797 -0.86371899 0.29228348
-10.17931080 -2.56362653 1.66493070 -0.97631341 -0.84988374 0.73430854
-10.24028301 -2.80190730 2.23639083 -0.98216140 -0.92887771 0.98634785
-9.89651394 -2.44178653 1.00769484 -0.94918996 -0.80949181 0.44443825
-9.85327148 -2.58260489 1.34822798 -0.94504249 -0.85617536 0.59462851
-10.32618713 -2.31561732 1.35264051 -0.99040055 -0.76766467 0.59657466
-10.11030483 -2.67797709 0.66546571 -0.96969497 -0.88779283 0.29349998
-10.18974876 -2.63450456 1.66940403 -0.97731453 -0.87338096 0.73628145
-10.21494770 -2.86406660 2.23471785 -0.97973144 -0.94948453 0.98561001
-9.91948891 -2.51376057 1.01216543 -0.95139354 -0.83335239 0.44641000
-10.06625748 -2.32434845 1.31718433 -0.96547031 -0.77055919 0.58093691
-9.98808765 -2.59821892 1.02200055 -0.95797294 -0.86135167 0.45074770
-10.02061176 -2.38028812 1.31271732 -0.96109235 -0.78910410 0.57896674
-9.99198437 -2.43994021 1.31076312 -0.95834666 -0.80887973 0.57810485
-10.13707542 -2.50194263 0.59930134 -0.97226256 -0.82943457 0.26431856
-10.09157562 -2.36358762 0.95605570 -0.96789861 -0.78356761 0.42166311
-9.86886501 -2.45944595 1.29457045 -0.94653809 -0.81534618 0.57096314
-10.08452606 -2.53953314 0.59634215 -0.96722251 -0.84189641 0.26301342
-10.09780312 -2.29266930 1.54743290 -0.96849591 -0.76005703 0.68248677
-9.96238708 -2.39969420 0.94366199 -0.95550793 -0.79553753 0.41619691
-9.85705662 -2.52237916 1.29512882 -0.94540554 -0.83620960 0.57120943
-10.07996559 -2.60581899 0.59718764 -0.96678507 -0.86387122 0.26338631
-9.98882008 -2.33421254 1.53263819 -0.95804316 -0.77382928 0.67596161
-9.92586517 -2.45702696 0.94135129 -0.95200509 -0.81454426 0.41517779
-10.42627335 -2.31626225 1.30615950 -1.00000000 -0.76787847 0.57607442
-10.02203846 -2.40838170 1.54018652 -0.96122921 -0.79841757 0.67929077
-9.93530369 -2.52566481 0.94408214 -0.95291036 -0.83729881 0.41638222
-10.15273476 -2.32200956 1.27022171 -0.97376448 -0.76978379 0.56022429
-10.04319477 -2.48023868 1.54592323 -0.96325833 -0.82223934 0.68182093
-10.05927277 -2.70921350 2.09998727 -0.96480042 -0.89814818 0.92618781
-10.06466770 -2.36835957 1.26003039 -0.96531785 -0.78514957 0.55572945
-10.17696571 -2.58091164 1.56947398 -0.97608852 -0.85561407 0.69220787
-10.22912884 -2.82361841 2.13972497 -0.98109156 -0.93607527 0.94371390
-9.90939426 -2.09160233 1.94386625 -0.95042533 -0.69340008 0.85733151
-10.01878166 -2.42403245 1.25573933 -0.96091682 -0.80360603 0.55383694
-10.22439003 -2.89154100 2.14253473 -0.98063707 -0.95859271 0.94495314
-10.07970333 -2.17759442 1.97990334 -0.96675992 -0.72190785 0.87322545
-10.20479679 -2.36743236 0.91615158 -0.97875786 -0.78484219 0.40406361
-9.90147209 -2.44487572 1.24098873 -0.94966549 -0.81051594 0.54733121
-10.22195339 -2.94292068 2.14494324 -0.98040336 -0.97562593 0.94601542
-10.05429173 -2.39890957 0.90212739 -0.96432269 -0.79527742 0.39787832
-9.89743519 -2.50998592 1.24259782 -0.94927830 -0.83210105 0.54804093
-10.23522854 -3.01644373 2.15176678 -0.98167658 -1.00000000 0.94902486
-9.99459076 -2.45104575 0.89751947 -0.95859665 -0.81256139 0.39584601
-10.12301445 -2.63551092 1.27639008 -0.97091395 -0.87371463 0.56294483
-9.96356392 -2.50987554 0.89591670 -0.95562083 -0.83206445 0.39513913
-10.18539143 -2.33890748 1.20113921 -0.97689664 -0.77538574 0.52975583
-9.97348309 -2.35671663 1.17519188 -0.95657218 -0.78128976 0.51831192
-9.86204815 -2.39611053 1.16247249 -0.94588429 -0.79434949 0.51270211
-9.84294701 -2.45707464 1.16196370 -0.94405228 -0.81456006 0.51247770
-10.20042133 -2.66141248 2.02475810 -0.97833818 -0.88230139 0.89300841
-9.99474621 -2.54471278 1.18358660 -0.95861155 -0.84361356 0.52201432
-10.23845863 -2.74027371 2.03587580 -0.98198640 -0.90844518 0.89791179
-9.92513943 -2.09261155 1.85363412 -0.95193547 -0.69373465 0.81753510
-10.02133083 -2.46441770 0.82103515 -0.96116132 -0.81699443 0.36211303
-10.05788231 -2.18638563 1.88144481 -0.96466702 -0.72482228 0.82980084
-10.07712269 -2.54523849 0.82788563 -0.96651244 -0.84378785 0.36513439
-10.10336208 -2.61941648 0.83195889 -0.96902907 -0.86837906 0.36693087
-10.26205540 -2.62167478 1.93706608 -0.98424959 -0.86912769 0.85433233
-10.21683598 -2.67867589 1.93157709 -0.97991252 -0.88802451 0.85191143
