-0.46778294 -8.50907612 2.38599324 -1.00000000 -0.99106836 0.94958621
-0.41101891 -8.44073963 2.36577177 -0.87865305 -0.98310906 0.94153839
-0.22271495 -8.43936634 1.88271630 -0.47610745 -0.98294914 0.74929023
-0.36956078 -8.40221596 2.35429478 -0.79002619 -0.97862214 0.93697077
-0.18283033 -8.43447208 1.88138771 -0.39084437 -0.98237908 0.74876148
-0.31818515 -8.44474888 2.36577177 -0.68019825 -0.98357606 0.94153839
-0.33074629 -8.41297817 1.43314683 -0.70705080 -0.97987562 0.57036895
-0.12937610 -8.40035057 1.87341571 -0.27657291 -0.97840488 0.74558878
-0.26628959 -8.48696613 2.37724876 -0.56925887 -0.98849314 0.94610608
-0.27842224 -8.43261433 1.43623686 -0.59519535 -0.98216271 0.57159877
-0.07591383 -8.29958248 1.85038543 -0.16228431 -0.96666825 0.73642308
-0.22610398 -8.46177387 1.44104373 -0.48335233 -0.98555899 0.57351178
-0.02373830 -8.23553371 1.83577001 -0.05074639 -0.95920837 0.73060638
-0.16827990 -8.20495892 1.39606535 -0.35973927 -0.95564723 0.55561113
0.02789273 -8.21601772 1.83134115 0.05962750 -0.95693529 0.72884381
-0.11644595 -8.18221188 1.39194512 -0.24893159 -0.95299786 0.55397135
0.07941978 -8.20787907 1.82956958 0.16977914 -0.95598733 0.72813874
-0.07833045 -8.24571800 1.40293229 -0.16745041 -0.96039456 0.55834407
0.11832773 -8.22106457 1.83266985 0.25295433 -0.95752311 0.72937256
-0.02654941 -8.28545380 1.40979922 -0.05675584 -0.96502262 0.56107700
-0.40545723 -8.48204231 2.30981922 -0.86676359 -0.98791969 0.91927022
0.02555342 -8.29333782 1.41117263 0.05462667 -0.96594089 0.56162357
-0.22333156 -8.52363873 1.85254562 -0.47742561 -0.99276447 0.73728281
-0.35190165 -8.47864437 2.30822229 -0.75227553 -0.98752391 0.91863465
0.07815008 -8.33438778 1.41838288 0.16706483 -0.97072208 0.56449318
-0.16816099 -8.45263958 1.83655667 -0.35948509 -0.98449510 0.73091948
-0.30086839 -8.54040909 2.32472348 -0.64317948 -0.99471778 0.92520189
-0.29871786 -8.45235348 1.39555514 -0.63858217 -0.98446178 0.55540806
-0.11411040 -8.39495468 1.82359254 -0.24393877 -0.97777641 0.72575998
0.19101757 -8.12528515 2.27395582 0.40834659 -0.94636750 0.90499717
-0.24726219 -8.54405785 2.32525587 -0.52858317 -0.99514276 0.92541373
-0.24585263 -8.46194839 1.39688838 -0.52556992 -0.98557931 0.55593872
-0.05982224 -8.23733997 1.78858960 -0.12788461 -0.95941871 0.71182936
0.23125482 -8.18775272 2.29199123 0.49436352 -0.95364320 0.91217494
-0.02092577 -8.22190857 1.78513253 -0.04473393 -0.95762140 0.71045351
0.28219688 -8.17267990 2.28816557 0.60326457 -0.95188767 0.91065240
-0.14767371 -8.21374512 1.35455620 -0.31568852 -0.95667058 0.53909117
0.03073161 -8.21992493 1.78470027 0.06569630 -0.95739037 0.71028149
-0.09597883 -8.20859528 1.35355616 -0.20517814 -0.95607078 0.53869319
0.08256957 -8.24495506 1.79031813 0.17651257 -0.96030569 0.71251726
-0.01340543 -8.19483185 0.86128801 -0.02865738 -0.95446771 0.34277853
-0.04482105 -8.26227951 1.36255598 -0.09581592 -0.96232349 0.54227495
-0.36050528 -8.08963680 1.69762516 -0.77066785 -0.94221544 0.67562699
0.03886257 -8.30394077 0.87461436 0.08307821 -0.96717584 0.34808218
0.00705498 -8.28606224 1.36655581 0.01508175 -0.96509349 0.54386681
-0.31421223 -8.21878624 1.72481441 -0.67170519 -0.95725775 0.68644786
0.09119642 -8.31544304 0.87606812 0.19495456 -0.96851552 0.34866077
0.05916351 -8.29571438 1.36822248 0.12647642 -0.96621770 0.54453015
0.14410642 -8.34844971 0.88018715 0.30806258 -0.97235990 0.35030007
0.11210705 -8.37011147 1.38088882 0.23965612 -0.97488290 0.54957116
-0.21933883 -8.58576107 1.80261755 -0.46889019 -1.00000000 0.71741223
0.15091997 -8.25707722 2.24541187 0.32262820 -0.96171755 0.89363712
-0.37569222 -8.39062405 2.21600175 -0.80313367 -0.97727203 0.88193238
-0.17718028 -8.49479389 1.78295767 -0.37876600 -0.98940486 0.70958793
0.20249923 -8.24247360 2.24168587 0.43289143 -0.96001667 0.89215428
-0.32547125 -8.46232033 2.23463845 -0.69577408 -0.98562264 0.88934952
-0.12111156 -8.27475357 1.73569012 -0.25890547 -0.96377635 0.69077623
0.02193480 -8.29544735 0.82685274 0.04689098 -0.96618658 0.32907385
0.25422919 -8.23911190 2.24115348 0.54347682 -0.95962512 0.89194238
-0.27315703 -8.49316311 2.24240351 -0.58393967 -0.98921496 0.89243984
-0.06887560 -8.23428154 1.72690594 -0.14723837 -0.95906252 0.68728030
0.07466048 -8.38851357 0.83772141 0.15960497 -0.97702622 0.33339939
-0.22101218 -8.54685688 2.25638103 -0.47246736 -0.99546874 0.89800268
-0.18560970 -8.28189182 1.30673873 -0.39678594 -0.96460778 0.52006060
-0.01714696 -8.20912647 1.72146809 -0.03665579 -0.95613265 0.68511611
-0.13375862 -8.29671383 1.30897546 -0.28594163 -0.96633410 0.52095079
0.03458909 -8.23254108 1.72648764 0.07394260 -0.95885980 0.68711382
-0.40059933 -8.43126774 1.69498348 -0.85637867 -0.98200589 0.67457569
-0.08086824 -8.19472885 1.29235995 -0.17287555 -0.95445573 0.51433808
0.08649200 -8.24585056 1.72941577 0.18489772 -0.96041000 0.68827915
-0.33822179 -8.21829891 1.65083039 -0.72303146 -0.95720100 0.65700346
-0.01423572 -8.40499306 1.08812213 -0.03043233 -0.97894561 0.43305477
-0.04230352 -8.21476269 1.29555523 -0.09043408 -0.95678914 0.51560974
-0.29827145 -8.18847656 1.64440811 -0.63762790 -0.95372754 0.65444750
0.03829692 -8.36533737 1.08234203 0.08186898 -0.97432685 0.43075439
0.00929047 -8.20894337 1.29459667 0.01986065 -0.95611131 0.51522827
-0.25633413 -8.48197079 1.70421541 -0.54797661 -0.98791134 0.67824984
0.09259291 -8.49553490 1.10141647 0.19793990 -0.98949116 0.43834570
0.06123934 -8.24623299 1.30066776 0.13091400 -0.96045452 0.51764446
-0.20447969 -8.53825569 1.71545434 -0.43712515 -0.99446696 0.68272275
0.08633282 -8.42949772 2.22428465 0.18455744 -0.98179972 0.88522887
-0.36468571 -8.34414387 2.12610602 -0.77960455 -0.97185838 0.84615535
0.11435971 -8.32662106 1.31376839 0.24447174 -0.96981746 0.52285832
-0.14580250 -8.28863049 1.66407633 -0.31168836 -0.96539265 0.66227514
-0.09590028 -8.42146015 1.04805207 -0.20501022 -0.98086357 0.41710755
0.13570988 -8.23950291 2.17355180 0.29011294 -0.95967066 0.86503804
-0.31595185 -8.43913651 2.15015030 -0.67542404 -0.98292238 0.85572457
-0.09318180 -8.25020027 1.65604842 -0.19919881 -0.96091658 0.65908015
-0.26337591 -8.45450115 2.15365672 -0.56303018 -0.98471189 0.85712010
-0.04138671 -8.25650120 1.65725267 -0.08847417 -0.96165049 0.65955943
-0.00294185 -8.29525948 1.03018439 -0.00628892 -0.96616471 0.40999651
0.22566193 -8.21627140 2.16785741 0.48240736 -0.95696485 0.86277175
-0.22425793 -8.48081017 2.16016865 -0.47940597 -0.98777616 0.85971177
-0.18164600 -8.50430107 1.26512587 -0.38831258 -0.99051219 0.50349939
-0.00249479 -8.26248264 1.65845680 -0.00533323 -0.96234715 0.66003865
0.04941950 -8.36442852 1.03995574 0.10564623 -0.97422099 0.41388535
-0.12423822 -8.27794552 1.23040354 -0.26558945 -0.96414816 0.48968047
0.04960582 -8.31523609 1.66929436 0.10604452 -0.96849144 0.66435182
0.10191545 -8.35801125 1.03911817 0.21786910 -0.97347355 0.41355202
-0.07127374 -8.19355297 1.21742046 -0.15236498 -0.95431876 0.48451340
-0.01980074 -8.19581699 1.21772242 -0.04232892 -0.95458245 0.48463356
-0.36561579 -8.35507870 1.59921384 -0.78159279 -0.97313195 0.63646090
0.03170610 -8.20368767 1.21893013 0.06777951 -0.95549917 0.48511422
-0.31304368 -8.35524940 1.59883046 -0.66920716 -0.97315186 0.63630831
-0.06847569 -8.46834755 1.00685644 -0.14638348 -0.98632461 0.40071237
0.04135658 -8.14095306 2.07150578 0.08840977 -0.94819236 0.82442540
0.08406916 -8.31008530 1.23523450 0.17971832 -0.96789151 0.49160311
-0.26873070 -8.19378471 1.56701040 -0.57447731 -0.95434576 0.62364447
-0.02852849 -8.42695522 1.00122440 -0.06098659 -0.98150361 0.39847091
0.08056671 -8.25683975 2.10156083 0.17223097 -0.96168989 0.83638680
-0.21662976 -8.16980171 1.56202662 -0.46309888 -0.95155239 0.62166101
0.02383036 -8.31598186 0.98620564 0.05094321 -0.96857828 0.39249370
0.13244404 -8.25617123 2.10156083 0.28313139 -0.96161205 0.83638680
-0.16759132 -8.30053329 1.58732927 -0.35826728 -0.96677899 0.63173103
0.07690765 -8.38701248 0.99586058 0.16440883 -0.97685134 0.39633620
0.18385470 -8.23194504 2.09554982 0.39303422 -0.95879036 0.83399451
-0.31438920 -8.45282745 2.07049823 -0.67208350 -0.98451698 0.82402438
-0.11489494 -8.25431538 1.57812822 -0.24561593 -0.96139586 0.62806916
0.12953207 -8.38240051 0.99532419 0.27690634 -0.97631419 0.39612272
-0.26094097 -8.44299603 2.06760025 -0.55782491 -0.98337185 0.82287103
-0.06298902 -8.24702263 1.57659483 -0.13465437 -0.96054649 0.62745893
-0.20784417 -8.44252777 2.06711721 -0.44431755 -0.98331732 0.82267880
-0.01117272 -8.24529266 1.57621145 -0.02388442 -0.96034497 0.62730634
-0.05230001 -8.34556389 0.93123513 -0.11180402 -0.97202379 0.37061632
-0.15559787 -8.49412155 2.07967520 -0.33262834 -0.98932660 0.82767665
-0.44327146 -8.54495811 2.47264695 -0.94760072 -0.99524760 0.98407298
0.02804811 -8.30806637 1.58847940 0.05995966 -0.96765637 0.63218880
-0.41973111 -8.48526478 1.54698527 -0.89727747 -0.98829502 0.61567479
-0.01275826 -8.29215622 0.92436671 -0.02727388 -0.96580327 0.36788282
-0.39407396 -8.36676121 2.41977453 -0.84242910 -0.97449267 0.96303064
-0.36524513 -8.46219921 1.54222822 -0.78080046 -0.98560852 0.61378157
0.03935644 -8.29802418 0.92512989 0.08413399 -0.96648675 0.36818653
-0.33934107 -8.31921673 2.40515018 -0.72542423 -0.96895510 0.95721036
-0.30990818 -8.40931511 1.53198218 -0.66250426 -0.97944897 0.60970384
0.09162943 -8.31348228 0.92716497 0.19588023 -0.96828717 0.36899647
-0.29244867 -8.46695042 2.44789815 -0.62518030 -0.98616189 0.97422338
0.04291904 -8.28000736 2.02606273 0.09174991 -0.96438831 0.80633980
-0.19838816 -8.19437122 1.49136400 -0.42410302 -0.95441407 0.59353846
0.09451034 -8.24852467 2.01833487 0.20203887 -0.96072143 0.80326420
0.26793915 -8.35578728 2.50336909 0.57278520 -0.97321451 0.99629992
-0.14854257 -8.27605438 1.50636709 -0.31754592 -0.96392787 0.59950942
0.14625672 -8.24388695 2.01736879 0.31265935 -0.96018130 0.80287975
0.31879640 -8.31378365 2.49116659 0.68150496 -0.96832228 0.99144351
-0.10963363 -8.28256035 1.50746489 -0.23436859 -0.96468562 0.59994632
0.18539348 -8.25474739 2.02026677 0.39632374 -0.96144623 0.80403310
-0.26254639 -8.47474289 1.98331428 -0.56125689 -0.98706949 0.78932661
0.35962376 -8.34851265 2.50220704 0.76878339 -0.97236723 0.99583739
-0.05740597 -8.26342487 1.50380564 -0.12271924 -0.96245688 0.59849000
-0.20876624 -8.45677567 1.97868407 -0.44628868 -0.98497683 0.78748387
0.40464479 -8.20275116 2.45862627 0.86502683 -0.95539010 0.97849298
-0.00561358 -8.30491257 1.51149011 -0.01200039 -0.96728903 0.60154831
-0.15542461 -8.44819450 1.97636890 -0.33225796 -0.98397738 0.78656244
0.46650162 -8.37772369 2.51266623 0.99726087 -0.97576946 1.00000000
0.04672275 -8.35394001 1.52063835 0.09988125 -0.97299933 0.60518914
-0.04925200 -8.44948006 1.97636890 -0.10528814 -0.98412710 0.78656244
0.00410424 -8.31342697 1.94395697 0.00877380 -0.96828073 0.77366304
0.05600159 -8.23541164 1.92543578 0.11971705 -0.95919412 0.76629192
0.22534913 -8.42292309 2.43439865 0.48173866 -0.98103392 0.96885079
0.09495004 -8.25062084 1.92914009 0.20297885 -0.96096557 0.76776618
0.25991043 -8.24526882 2.38265133 0.55562186 -0.96034223 0.94825619
0.14708619 -8.26931572 1.93377030 0.31443256 -0.96314299 0.76960891
0.31022006 -8.20127487 2.37027693 0.66317093 -0.95521814 0.94333142
0.36158404 -8.19532871 2.36915207 0.77297395 -0.95452559 0.94288373
