-1.02182865 -7.70588350 1.73080516 -0.82215273 -0.96982455 0.66393286
-0.96549892 -7.64827633 1.71618974 -0.77683043 -0.96257442 0.65832645
-1.13072014 -7.93968248 2.24335051 -0.90976572 -0.99924934 0.86054409
-0.91810560 -7.66000271 1.71751845 -0.73869824 -0.96405023 0.65883613
-1.07784665 -7.83052778 2.21055913 -0.86722422 -0.98551172 0.84796536
-0.87916642 -7.63904858 1.71176088 -0.70736820 -0.96141309 0.65662754
-1.02960682 -7.84477806 2.21274543 -0.82841098 -0.98730516 0.84880406
-0.82991773 -7.63278484 1.70910347 -0.66774321 -0.96062475 0.65560818
-0.98123050 -7.85873127 2.21493149 -0.78948790 -0.98906124 0.84964263
-1.18738210 -7.69152832 2.54706120 -0.95535535 -0.96801788 0.97704679
-0.95804602 -7.56700850 1.29512131 -0.77083391 -0.95234644 0.49680555
-0.78233045 -7.64173031 1.70998931 -0.62945497 -0.96175057 0.65594798
-1.15967035 -7.83586216 2.59304094 -0.93305874 -0.98618305 0.99468452
-0.92290133 -7.67854786 1.31366205 -0.74255681 -0.96638423 0.50391775
-0.73992103 -7.70669365 1.72371888 -0.59533280 -0.96992654 0.66121459
-1.11312282 -7.86178160 2.59933949 -0.89560705 -0.98944515 0.99710065
-0.87180787 -7.65873766 1.30919850 -0.70144755 -0.96389103 0.50220555
-0.69368237 -7.73644972 1.72947645 -0.55812967 -0.97367150 0.66342318
-0.80746377 -7.62895966 2.14442992 -0.64967698 -0.96014333 0.82259840
-0.60962832 -7.51500654 2.51869583 -0.49050063 -0.94580173 0.96616590
-1.06189036 -7.85545731 2.59493065 -0.85438597 -0.98864919 0.99540943
-0.82161599 -7.64446878 1.30576503 -0.66106373 -0.96209520 0.50088847
-0.75624371 -7.47759485 2.10016155 -0.60846585 -0.94109327 0.80561715
-0.57977480 -7.59336138 2.54436350 -0.46648079 -0.95566308 0.97601199
-1.02961552 -7.89612579 2.60689783 -0.82841796 -0.99376756 1.00000000
-0.77969927 -7.58943987 1.29546463 -0.62733793 -0.95516956 0.49693725
-1.02005267 -7.72921610 1.69092691 -0.82072377 -0.97276109 0.64863569
-0.71929902 -7.59139824 2.13131332 -0.57874054 -0.95541602 0.81756687
-0.53294420 -7.61008406 2.54885530 -0.42880139 -0.95776772 0.97773504
-0.73310125 -7.60595942 1.29752481 -0.58984566 -0.95724863 0.49772751
-0.96327221 -7.67155504 1.67666638 -0.77503884 -0.96550417 0.64316535
-0.67240858 -7.60535192 2.13404608 -0.54101294 -0.95717216 0.81861514
-0.48442593 -7.60193825 2.54500508 -0.38976407 -0.95674253 0.97625810
-0.68358260 -7.59078693 1.29409134 -0.55000347 -0.95533907 0.49641046
-0.91339827 -7.66388702 1.67364144 -0.73491079 -0.96453911 0.64200503
-0.62689400 -7.63819408 2.14224386 -0.50439239 -0.96130550 0.82175982
-1.06287098 -7.88446426 2.16184187 -0.85517496 -0.99229985 0.82927758
-0.43561694 -7.58591747 2.53858829 -0.35049286 -0.95472622 0.97379661
-0.63826227 -7.62439013 1.29924154 -0.51353920 -0.95956820 0.49838606
-0.86186659 -7.64037704 1.66715944 -0.69344890 -0.96158028 0.63951850
-1.01205862 -7.88142920 2.15918040 -0.81429183 -0.99191791 0.82825661
-0.38684514 -7.56580019 2.53088808 -0.31125158 -0.95219439 0.97084284
-0.99810559 -7.76665640 1.28955793 -0.80306542 -0.97747314 0.49467146
-0.81511497 -7.65728855 1.66975224 -0.65583307 -0.96370864 0.64051312
-0.96490270 -7.90676308 2.16450334 -0.77635068 -0.99510628 0.83029848
-0.33938026 -7.56997395 2.53152966 -0.27306184 -0.95271969 0.97108895
-0.93463784 -7.65536308 1.26955843 -0.75199991 -0.96346635 0.48699969
-0.76898330 -7.68168449 1.67407358 -0.61871600 -0.96677899 0.64217079
-0.92740297 -7.90930843 2.16397095 -0.74617881 -0.99542665 0.83009428
-1.22723711 -7.73265171 2.50089836 -0.98742223 -0.97319347 0.95933884
-0.89667314 -7.64401865 1.26689184 -0.72145391 -0.96203858 0.48597679
-0.73601389 -7.71826124 1.68141985 -0.59218913 -0.97138238 0.64498878
-0.67704940 -7.74551201 2.54454160 -0.54474694 -0.97481203 0.97608030
-1.19242287 -7.83241463 2.53109813 -0.95941108 -0.98574919 0.97092342
-0.84461981 -7.61423206 1.26089203 -0.67957234 -0.95828980 0.48367527
-0.69695204 -7.82579756 1.70432305 -0.56076038 -0.98491639 0.65377438
-0.79050219 -7.82346773 0.82082438 -0.63602984 -0.98462313 0.31486633
-0.79898942 -7.65005445 2.08891773 -0.64285862 -0.96279818 0.80130404
-0.61269206 -7.56234360 2.48218560 -0.49296567 -0.95175934 0.95216066
-1.14075971 -7.82280111 2.52555132 -0.91784340 -0.98453927 0.96879566
-0.79507941 -7.60370207 1.25822544 -0.63971263 -0.95696455 0.48265237
-0.73423052 -7.75118113 0.81137484 -0.59075427 -0.97552550 0.31124151
-0.74955428 -7.64149666 2.08519173 -0.60308361 -0.96172118 0.79987472
-0.56706882 -7.59064722 2.49037361 -0.45625770 -0.95532149 0.95530158
-1.09364843 -7.84489489 2.53048182 -0.87993819 -0.98731989 0.97068697
-0.74491280 -7.58500290 1.25422549 -0.59934914 -0.95461112 0.48111799
-0.69179046 -7.82882786 0.82033980 -0.55660743 -0.98529774 0.31468046
-0.70134562 -7.64413595 2.08465934 -0.56429541 -0.96205336 0.79967052
-0.51949906 -7.59595394 2.49100351 -0.41798356 -0.95598936 0.95554322
-0.70039642 -7.62290907 1.25989211 -0.56353170 -0.95938182 0.48329172
-1.02738094 -7.79753923 1.64784789 -0.82662004 -0.98135990 0.63211066
-0.64101523 -7.81322956 0.81791687 -0.51575422 -0.98333460 0.31375101
-0.65499419 -7.66759634 2.08998227 -0.52700156 -0.96500593 0.80171239
-0.47372523 -7.62937641 2.50108123 -0.38115442 -0.96019578 0.95940900
-0.65335333 -7.63698149 1.26155865 -0.52568132 -0.96115291 0.48393101
-0.96621585 -7.70483923 1.62651479 -0.77740723 -0.96969312 0.62392735
-0.92554373 -7.67240286 1.61856723 -0.74468291 -0.96561086 0.62087864
-0.87580025 -7.66446114 1.61563909 -0.70465982 -0.96461135 0.61975545
-1.03902125 -7.86902285 2.09227586 -0.83598572 -0.99035650 0.80259222
-0.82598847 -7.65425253 1.61229277 -0.66458178 -0.96332657 0.61847180
-0.98625547 -7.84855270 2.08502841 -0.79353094 -0.98778021 0.79981208
-1.24286962 -7.94564676 2.49170303 -1.00000000 -1.00000000 0.95581156
-0.92682117 -7.58591509 1.20289195 -0.74571073 -0.95472592 0.46142659
-0.78095895 -7.69043159 1.61898553 -0.62835145 -0.96787989 0.62103909
-0.93826574 -7.86610746 2.08813429 -0.75491887 -0.98998958 0.80100352
-1.18025851 -7.87030602 2.46532512 -0.94962376 -0.99051797 0.94569302
-0.88557452 -7.64848089 1.21215820 -0.71252406 -0.96260017 0.46498108
-0.73532701 -7.72439814 1.62526000 -0.59163648 -0.97215474 0.62344599
-0.82498837 -7.78751802 1.00431025 -0.66377705 -0.98009872 0.38525110
-0.89200062 -7.90065002 2.09589958 -0.71769446 -0.99433690 0.80398226
-1.12664592 -7.84924650 2.45633268 -0.90648764 -0.98786753 0.94224358
-0.83330917 -7.61463070 1.20576763 -0.67047191 -0.95833993 0.46252969
-0.68929899 -7.75809383 1.63153434 -0.55460280 -0.97639549 0.62585282
-0.78828156 -7.79131889 1.00431025 -0.63424319 -0.98057705 0.38525110
-0.82981926 -7.66846228 2.03222466 -0.66766399 -0.96511495 0.77955669
-0.64099991 -7.50147533 2.40351963 -0.51574188 -0.94409877 0.92198461
-1.09605372 -7.89981079 2.47072053 -0.88187343 -0.99423128 0.94776273
-0.79401165 -7.58508301 1.20033562 -0.63885355 -0.95462120 0.46044597
-0.65972012 -7.84702587 1.64993942 -0.53080398 -0.98758805 0.63291293
-0.73713142 -7.77247047 1.00084209 -0.59308827 -0.97820491 0.38392073
-0.77647203 -7.62161970 2.01824737 -0.62474132 -0.95921957 0.77419502
-0.59907275 -7.57365179 2.42570710 -0.48200771 -0.95318252 0.93049568
-0.74972123 -7.62529850 1.20608723 -0.60321790 -0.95968252 0.46265230
-0.61538631 -7.91732502 1.66416144 -0.49513343 -0.99643558 0.63836849
-0.69217592 -7.82229853 1.00748932 -0.55691755 -0.98447597 0.38647059
-0.72821176 -7.62250090 2.01721191 -0.58591163 -0.95933044 0.77379787
-0.55400217 -7.61332846 2.43741727 -0.44574440 -0.95817608 0.93498766
-0.70899582 -7.71048450 1.21918786 -0.57045066 -0.97040361 0.46767765
-0.92806000 -7.53151941 1.52037823 -0.74670744 -0.94787997 0.58321357
-0.64348441 -7.83241177 1.00835633 -0.51774091 -0.98574883 0.38680318
-0.68063718 -7.63077497 2.01824737 -0.54763359 -0.96037179 0.77419502
-0.50603449 -7.61476040 2.43680096 -0.40715009 -0.95835626 0.93475121
-0.65694410 -7.67150068 1.21215820 -0.52857041 -0.96549731 0.46498108
-0.89374638 -7.64614677 1.54285610 -0.71909904 -0.96230638 0.59183604
-0.61023891 -7.69516230 1.21535349 -0.49099189 -0.96847528 0.46620679
-0.84943342 -7.68470860 1.54967976 -0.68344533 -0.96715963 0.59445357
-0.81128412 -7.78174591 0.96373886 -0.65275079 -0.97937226 0.36968800
-1.02754343 -7.86315298 2.01690531 -0.82675076 -0.98961776 0.77368021
-0.80071622 -7.68599749 1.54887700 -0.64424795 -0.96732181 0.59414566
-0.76293546 -7.67121267 0.94754624 -0.61384994 -0.96546108 0.36347654
-0.98751670 -7.84486198 2.01089430 -0.79454571 -0.98731571 0.77137440
-0.91981816 -7.62454224 1.13891792 -0.74007612 -0.95958734 0.43688628
-0.76707458 -7.71502447 1.55409503 -0.61718023 -0.97097504 0.59614730
-0.93609452 -7.83361387 2.00638604 -0.75317192 -0.98590010 0.76964504
-0.87212360 -7.63213491 1.13921988 -0.70170158 -0.96054292 0.43700212
-0.72007853 -7.73529530 1.55730617 -0.57936770 -0.97352618 0.59737903
-0.67565227 -7.78276634 0.96206373 -0.54362279 -0.97950065 0.36904544
-0.86748862 -7.67200422 1.96280587 -0.69797236 -0.96556067 0.75292778
-0.67859638 -7.59989452 2.36221123 -0.54599160 -0.95648533 0.90613878
-0.82458717 -7.64139414 1.13982379 -0.66345429 -0.96170825 0.43723378
-0.67442811 -7.77284288 1.56412983 -0.54263788 -0.97825176 0.59999663
-0.62870693 -7.81054115 0.96541393 -0.50585109 -0.98299628 0.37033057
-0.81337243 -7.62340975 1.94878006 -0.65443105 -0.95944482 0.74754757
-0.63050610 -7.60020638 2.36101246 -0.50729865 -0.95652455 0.90567893
-1.14836800 -7.83236027 2.36855984 -0.92396498 -0.98574233 0.90857410
-0.78270793 -7.70541668 1.14888179 -0.62975866 -0.96976584 0.44070840
-0.76525897 -7.62644339 1.94827914 -0.61571944 -0.95982665 0.74735540
-0.58651221 -7.65156937 2.37599993 -0.47190163 -0.96298885 0.91142809
-1.10617638 -7.89060926 2.38424873 -0.89001805 -0.99307323 0.91459233
-0.74487156 -7.81840467 1.16548800 -0.59931594 -0.98398596 0.44707853
-0.84207547 -7.82290840 0.92559409 -0.67752516 -0.98455274 0.35505575
-0.71825743 -7.64073753 1.95078373 -0.57790250 -0.96162564 0.74831617
-0.54036951 -7.68174505 2.38439274 -0.43477571 -0.96678662 0.91464758
-1.06006169 -7.92396832 2.39238381 -0.85291463 -0.99727166 0.91771293
-0.68744171 -7.73236370 1.15159917 -0.55310845 -0.97315723 0.44175079
-0.78473186 -7.74520588 0.91433001 -0.63138711 -0.97477353 0.35073489
-0.67302281 -7.67595387 1.95879853 -0.54150718 -0.96605778 0.75139058
-0.63800526 -7.72668076 1.15008950 -0.51333243 -0.97244203 0.44117168
-0.96976131 -7.67984819 1.47768450 -0.78025991 -0.96654791 0.56683636
-0.75156087 -7.78433657 0.91915745 -0.60469806 -0.97969830 0.35258669
-0.91714615 -7.64874792 1.47040045 -0.73792630 -0.96263379 0.56404221
-0.70159835 -7.77705860 0.91754830 -0.56449872 -0.97878230 0.35196942
-0.87101650 -7.67191839 1.47385073 -0.70081085 -0.96554989 0.56536573
-0.65464640 -7.80501842 0.92076659 -0.52672172 -0.98230124 0.35320395
-1.02598345 -7.84651518 1.93477666 -0.82549566 -0.98752379 0.74217588
-0.82136732 -7.66357374 1.47116721 -0.66086364 -0.96449965 0.56433636
-0.60929614 -7.85838747 0.92747140 -0.49023336 -0.98901796 0.35577589
-0.95296949 -7.65822268 1.88599420 -0.76674938 -0.96382624 0.72346300
-0.77511740 -7.68811846 1.47500086 -0.62365144 -0.96758878 0.56580693
-0.82541525 -7.82622051 0.87018239 -0.66412055 -0.98496962 0.33379996
-0.90594530 -7.67369938 1.88840926 -0.72891420 -0.96577406 0.72438943
-0.72805291 -7.70651960 1.47768450 -0.58578384 -0.96990466 0.56683636
-0.76980102 -7.76809788 0.86204201 -0.61937392 -0.97765458 0.33067733
-0.85203290 -7.62714672 1.87536836 -0.68553686 -0.95991516 0.71938699
-0.68545258 -7.53477335 2.26222301 -0.55150801 -0.94828951 0.86778355
-1.14002311 -7.84452105 2.28815603 -0.91725075 -0.98727280 0.87773138
-0.69530451 -7.75093079 1.48573530 -0.55943477 -0.97549403 0.56992465
-0.73146307 -7.75386858 0.85975254 -0.58852762 -0.97586375 0.32979909
-0.81165373 -7.58860970 1.86474252 -0.65304816 -0.95506507 0.71531093
-0.65710551 -7.62373877 2.28837132 -0.52870029 -0.95948625 0.87781399
-1.09923685 -7.82320738 2.28028154 -0.88443458 -0.98459041 0.87471074
-0.64848638 -7.77862501 1.49033582 -0.52176541 -0.97897947 0.57168937
-0.68308812 -7.76226282 0.86026132 -0.54960561 -0.97692019 0.32999426
-0.76565951 -7.61094379 1.86908937 -0.61604172 -0.95787591 0.71697837
-0.61066437 -7.64679766 2.29418230 -0.49133423 -0.96238834 0.88004303
-1.05188084 -7.84327078 2.28421879 -0.84633243 -0.98711544 0.87622106
-0.98154068 -7.55124187 1.38304889 -0.78973746 -0.95036215 0.53053439
-0.63813597 -7.81186676 0.86611223 -0.51343757 -0.98316312 0.33223864
-0.71906269 -7.62913322 1.87247038 -0.57855040 -0.96016514 0.71827531
-0.56842399 -7.73256779 2.31916833 -0.45734805 -0.97318292 0.88962764
-1.01051724 -7.91062689 2.30221796 -0.81305170 -0.99559259 0.88312548
-0.95009196 -7.68405819 1.40683436 -0.76443416 -0.96707773 0.53965843
-0.89617378 -7.64302206 1.39805210 -0.72105211 -0.96191317 0.53628957
-0.84791201 -7.64654827 1.39768612 -0.68222123 -0.96235693 0.53614920
-0.81378317 -7.66805124 1.40097952 -0.65476149 -0.96506321 0.53741252
-0.94322473 -7.60531139 1.78930557 -0.75890881 -0.95716709 0.68637347
-0.76719064 -7.68866110 1.40390694 -0.61727363 -0.96765703 0.53853548
-0.90146482 -7.66131258 1.80134439 -0.72530925 -0.96421510 0.69099158
-0.73061818 -7.50374889 2.17453671 -0.58784783 -0.94438493 0.83414727
-0.70701736 -7.57002497 1.38085341 -0.56885886 -0.95272607 0.52969217
-0.84912384 -7.63009596 1.79254687 -0.68319625 -0.96028632 0.68761683
-0.69080156 -7.58653831 2.19759822 -0.55581176 -0.95480436 0.84299362
-0.65926409 -7.57235909 1.38048744 -0.53043705 -0.95301986 0.52955180
-0.80220693 -7.64495277 1.79486191 -0.64544737 -0.96215612 0.68850487
-0.64278632 -7.58690453 2.19647312 -0.51717919 -0.95485049 0.84256202
-0.75317675 -7.64016342 1.79254687 -0.60599822 -0.96155339 0.68761683
-0.60146385 -7.66922665 2.21953440 -0.48393157 -0.96521115 0.85140830
-0.71159214 -7.71253824 1.80875278 -0.57253963 -0.97066212 0.69383341
