-3.56543088 -10.18031216 2.41507006 -0.97185165 -0.94958949 0.91682988
-3.49384069 -10.18036175 2.40975523 -0.95233786 -0.94959408 0.91481221
-3.41003108 -10.14291859 2.39558291 -0.92949331 -0.94610149 0.90943199
-3.57906199 -10.05554581 1.82593560 -0.97556716 -0.93795162 0.69317752
-3.55002069 -10.17649841 1.84413302 -0.96765119 -0.94923377 0.70008582
-3.47777128 -10.17435074 1.83966947 -0.94795769 -0.94903344 0.69839132
-3.41228867 -10.13830566 1.83005583 -0.93010873 -0.94567126 0.69474167
-3.42639780 -10.39734745 1.87366080 -0.93395454 -0.96983391 0.71129537
-3.45783210 -10.72075081 1.92893970 -0.94252276 -1.00000000 0.73228085
-3.61857414 -10.35542965 2.39314747 -0.98633718 -0.96592391 0.90850741
-3.49429035 -10.20625687 2.35295892 -0.95246041 -0.95200950 0.89325070
-3.60197973 -10.01455784 1.76487851 -0.98181397 -0.93412840 0.66999853
-3.41698170 -10.18915558 2.34388399 -0.93138790 -0.95041436 0.88980561
-3.56070757 -10.04813862 1.76787841 -0.97056419 -0.93726075 0.67113733
-3.37508535 -10.22367573 2.34820557 -0.91996795 -0.95363432 0.89144617
-3.51568413 -10.28679466 1.18790424 -0.95829183 -0.95952183 0.45096251
-3.53328323 -10.17270279 1.78621125 -0.96308893 -0.94887972 0.67809701
-3.43970060 -10.27477360 1.18354297 -0.93758053 -0.95840055 0.44930688
-3.43288326 -10.08835793 1.76721179 -0.93572229 -0.94101226 0.67088431
-3.38183832 -10.31694698 1.18620825 -0.92180866 -0.96233439 0.45031866
-3.43025756 -10.29108524 1.79954422 -0.93500662 -0.95992208 0.68315858
-3.32840514 -10.37392998 1.19081187 -0.90724403 -0.96764958 0.45206633
-3.43567824 -10.52602196 1.83754325 -0.93648416 -0.98183626 0.69758415
-3.36283493 -10.52674961 1.83387661 -0.91662878 -0.98190415 0.69619215
-3.48297167 -10.29487705 1.12631869 -0.94937521 -0.96027577 0.42758289
-3.61700296 -10.35520363 2.31168437 -0.98590893 -0.96590286 0.87758172
-3.41696215 -10.31278896 1.12585616 -0.93138260 -0.96194655 0.42740729
-3.53486156 -10.32773399 2.30039024 -0.96351916 -0.96334058 0.87329412
-3.36196184 -10.36427021 1.12955618 -0.91639084 -0.96674854 0.42881194
-3.60610032 -10.17975426 1.43781996 -0.98293716 -0.94953746 0.54583770
-3.58561659 -10.01271439 1.68729770 -0.97735375 -0.93395644 0.64054662
-3.41364193 -10.18089104 2.26232529 -0.93047756 -0.94964349 0.85884356
-3.52399254 -10.14982986 1.42972779 -0.96055651 -0.94674617 0.54276568
-3.53173971 -10.06114292 1.69177115 -0.96266824 -0.93847370 0.64224488
-3.35142612 -10.20771599 2.26358008 -0.91351902 -0.95214564 0.85931993
-3.47029090 -10.20176792 1.43435192 -0.94591874 -0.95159084 0.54452115
-3.45248842 -10.03643131 1.68378294 -0.94106621 -0.93616867 0.63921231
-3.43655157 -10.26119614 1.44099903 -0.93672222 -0.95713407 0.54704458
-3.44861293 -10.18169880 1.70583034 -0.94000983 -0.94971883 0.64758211
-3.42167521 -10.43499851 1.46440864 -0.93266726 -0.97334588 0.55593151
-3.40187740 -10.25566769 1.71477723 -0.92727083 -0.95661843 0.65097862
-3.49490142 -10.37155056 1.09218740 -0.95262694 -0.96742761 0.41462567
-3.38769245 -10.43278980 1.74129808 -0.92340434 -0.97313982 0.66104668
-3.63058901 -10.25605679 1.39451790 -0.98961216 -0.95665473 0.52939898
-3.33753061 -10.50282001 1.74960589 -0.90973145 -0.97967207 0.66420060
-3.52496147 -10.16086864 1.37692940 -0.96082062 -0.94777584 0.52272189
-3.59159446 -10.35320282 2.21077132 -0.97898322 -0.96571618 0.83927220
-3.46681762 -10.19968033 1.37944210 -0.94497198 -0.95139611 0.52367580
-3.52393699 -10.36814976 2.20916581 -0.96054137 -0.96711040 0.83866274
-3.42971349 -10.30200863 1.39144695 -0.93485832 -0.96094096 0.52823317
-3.64636207 -10.23263931 1.62502956 -0.99391156 -0.95447040 0.61690784
-3.38467002 -10.16900063 2.16140008 -0.92258054 -0.94853437 0.82052946
-3.48288941 -9.92346573 1.57219136 -0.94935280 -0.92563158 0.59684896
-3.33180428 -10.16995144 2.15818906 -0.90817058 -0.94862306 0.81931049
-3.46702743 -10.07967472 1.59393048 -0.94502920 -0.94020230 0.60510176
-3.27626467 -10.21678925 2.16380858 -0.89303178 -0.95299196 0.82144380
-3.44933820 -10.23606968 1.61566973 -0.94020754 -0.95479035 0.61335456
-3.57165694 -10.23154736 1.32734680 -0.97354871 -0.95436853 0.50389892
-3.39866352 -10.29881954 1.62231219 -0.92639482 -0.96064347 0.61587626
-3.49645567 -10.22188663 1.32278752 -0.95305061 -0.95346743 0.50216812
-3.37973499 -10.46098518 1.64495718 -0.92123532 -0.97576982 0.62447292
-3.46471882 -10.34143639 1.33673346 -0.94439989 -0.96461868 0.50746238
-3.55654573 -10.20489883 2.07651329 -0.96942973 -0.95188284 0.78830403
-3.51506662 -10.29395962 2.09031487 -0.95812351 -0.96019018 0.79354346
-3.39521480 -10.15006161 2.05619454 -0.92545480 -0.94676781 0.78059042
-3.51146007 -10.29040146 1.25532365 -0.95714045 -0.95985830 0.47655687
-3.33258843 -10.17492676 2.05696130 -0.90838432 -0.94908714 0.78088152
-3.45622015 -10.34046555 1.25913942 -0.94208336 -0.96452808 0.47800544
-3.28939247 -10.20547390 2.06002831 -0.89661014 -0.95193648 0.78204584
-3.40184212 -10.33968830 1.25684988 -0.92726123 -0.96445560 0.47713628
-3.39926076 -10.17055893 2.63415289 -0.92655760 -0.94867975 1.00000000
-3.53076124 -10.16708469 1.96890187 -0.96240151 -0.94835567 0.74745160
-3.47193456 -10.15200233 1.96268106 -0.94636673 -0.94694883 0.74509001
-3.39928627 -10.14753151 1.95755804 -0.92656457 -0.94653177 0.74314517
-3.66869879 -10.33962440 2.57645321 -1.00000000 -0.96444964 0.97809553
-3.34840465 -10.20789909 1.96524262 -0.91269547 -0.95216268 0.74606246
-3.47033978 -10.18613243 2.52644610 -0.94593203 -0.95013237 0.95911139
