-3.90485096 5.47772169 2.24341106 -0.83457822 0.93646783 0.92408669
-4.01604843 5.55879831 2.28768754 -0.85834432 0.95032859 0.94232470
-4.03741407 5.51515341 2.27998734 -0.86291075 0.94286710 0.93915290
-4.19563007 5.75728083 1.58332276 -0.89672601 0.98426104 0.65218878
-3.98808599 5.66147661 1.93237889 -0.85236794 0.96788245 0.79596901
-4.08445024 5.50637531 2.28704596 -0.87296373 0.94136643 0.94206041
-4.20497131 5.69479561 1.57313633 -0.89872253 0.97357863 0.64799285
-4.10879517 5.77402210 1.97828686 -0.87816691 0.98712313 0.81487900
-4.10887051 5.51110172 1.52663291 -0.87818301 0.94217443 0.62883759
-4.19470215 5.81661034 2.00233388 -0.89652771 0.99440402 0.82478428
-4.09975052 5.42772436 1.51024592 -0.87623382 0.92792028 0.62208760
-4.07163477 5.57312441 1.92582071 -0.87022471 0.95277780 0.79326761
-4.13496256 5.40340328 1.51068890 -0.88375968 0.92376238 0.62227005
-4.08243752 5.51503038 1.91434371 -0.87253356 0.94284606 0.78854012
-4.14843845 5.35117340 1.50315976 -0.88663983 0.91483319 0.61916870
-4.13439226 5.51230621 1.92254150 -0.88363779 0.94238037 0.79191685
-4.12336254 5.83494425 2.33542800 -0.88128042 0.99753833 0.96198952
-4.18802500 5.33265352 1.50537419 -0.89510059 0.91166705 0.62008089
-4.16894531 5.48622036 1.92254150 -0.89102274 0.93792075 0.79191685
-4.03334999 5.63108015 2.26299405 -0.86204213 0.96268588 0.93215317
-4.15169716 5.48204756 1.16430616 -0.88733631 0.93720734 0.47959104
-4.14953804 5.21640015 1.47924364 -0.88687485 0.89179242 0.60931742
-4.10774946 5.35382414 1.88209879 -0.87794346 0.91528636 0.77525806
-4.01662588 5.55190277 2.23842955 -0.85846770 0.94914973 0.92203474
-4.22314310 5.52176046 1.17735338 -0.90260637 0.94399667 0.48496535
-4.16426611 5.18465328 1.47570050 -0.89002264 0.88636500 0.60785794
-4.13301039 5.31730080 1.87827313 -0.88334244 0.90904236 0.77368224
-4.04584122 5.51888466 2.23528028 -0.86471188 0.94350499 0.92073756
-4.22868156 5.45782232 1.16911304 -0.90379006 0.93306583 0.48157105
-4.21776295 5.18404150 1.48322964 -0.90145648 0.88626045 0.61095929
-4.13235807 5.65675306 1.51591182 -0.88320297 0.96707487 0.62442142
-4.18903875 5.31987858 1.88865709 -0.89531726 0.90948308 0.77795947
-4.12294388 5.82968235 1.93668199 -0.88119090 0.99663877 0.79774147
-4.58232069 5.53227377 2.39805818 -0.97937286 0.94579399 0.98778760
-4.11087608 5.53458929 2.25228643 -0.87861168 0.94618988 0.92774260
-4.22381639 5.38166285 1.15812588 -0.90275025 0.92004567 0.47704530
-4.37599039 5.30907202 1.52796149 -0.93527418 0.90763557 0.62938482
-4.09491348 5.53158283 1.48868728 -0.87520003 0.94567585 0.61320734
-4.28259182 5.36847353 1.91598320 -0.91531223 0.91779083 0.78921545
-4.16396570 5.80994272 1.93881118 -0.88995844 0.99326408 0.79861856
-4.63531399 5.52508926 2.40768361 -0.99069905 0.94456571 0.99175245
-4.26985407 5.37040377 1.16155934 -0.91258985 0.91812080 0.47845960
-4.10974789 5.47912931 1.48134100 -0.87837058 0.93670845 0.61018133
-4.34172392 5.37280798 1.92746019 -0.92795044 0.91853184 0.79394293
-4.07626104 5.61172295 1.88025892 -0.87121344 0.95937657 0.77450019
-4.65270853 5.47569513 2.39870000 -0.99441677 0.93612134 0.98805201
-4.30847454 5.34959316 1.16293275 -0.92084414 0.91456306 0.47902530
-4.13585472 5.44229126 1.47831607 -0.88395035 0.93041062 0.60893530
-4.39863253 5.37364054 1.93784416 -0.94011348 0.91867417 0.79822022
-4.09778070 5.56732893 1.87387145 -0.87581283 0.95178699 0.77186912
-4.14623451 5.38518095 1.46967328 -0.88616878 0.92064708 0.60537523
-4.44358540 5.37652254 1.94658852 -0.94972116 0.91916686 0.80182213
-4.12740755 5.55260849 1.87546837 -0.88214493 0.94927043 0.77252692
-4.16201401 5.35322046 1.46621621 -0.88954133 0.91518313 0.60395122
-4.16683483 5.53273916 1.87759745 -0.89057165 0.94587356 0.77340388
-4.24585819 5.63992691 1.15922809 -0.90746123 0.96419829 0.47749934
-4.17630863 5.30236149 1.45930207 -0.89259648 0.90648836 0.60110325
-4.11647463 5.39431477 1.83874011 -0.87980825 0.92220861 0.75739813
-4.09233093 5.84934330 2.27717376 -0.87464803 1.00000000 0.93799394
-4.21449137 5.52513742 1.14056194 -0.90075725 0.94457400 0.46981052
-4.16707659 5.22246265 1.44417727 -0.89062333 0.89282888 0.59487313
-4.15146112 5.36987257 1.83927238 -0.88728589 0.91802996 0.75761735
-4.11574316 5.80492735 2.26977777 -0.87965190 0.99240667 0.93494743
-4.21188450 5.45006657 1.13022888 -0.90020007 0.93173993 0.46555421
-4.18513346 5.17790794 1.43899167 -0.89448261 0.88521183 0.59273714
-4.17919827 5.33607578 1.83661091 -0.89321411 0.91225213 0.75652105
-4.00723505 5.57849216 2.18965602 -0.85646063 0.95369548 0.90194440
-4.25452232 5.43438959 1.13256216 -0.90931296 0.92905980 0.46651533
-4.30755043 5.26208544 1.47053754 -0.92064661 0.89960277 0.60573125
-4.26039076 5.37026644 1.85790265 -0.91056722 0.91809732 0.76529139
-4.02534246 5.53017950 2.18041110 -0.86033070 0.94543594 0.89813632
-4.27881670 5.39516068 1.12989557 -0.91450536 0.92235321 0.46541691
-4.32407570 5.39839315 1.87493598 -0.92417854 0.92290586 0.77230757
-4.65511560 5.54471350 2.36692119 -0.99493122 0.94792068 0.97496194
-4.05362082 5.51420879 2.18164372 -0.86637461 0.94270563 0.89864403
-4.22138023 5.72606134 1.48722219 -0.90222955 0.97892380 0.61260384
-4.36880159 5.38462353 1.87972665 -0.93373775 0.92055178 0.77428091
-4.67883158 5.50230932 2.36125231 -1.00000000 0.94067127 0.97262686
-4.09389305 5.49624300 2.18472552 -0.87498194 0.93963420 0.89991343
-4.11276293 5.50710917 1.43577170 -0.87901497 0.94149184 0.59141082
-4.15555382 5.77217722 1.87122571 -0.88816059 0.98680776 0.77077931
-4.35847282 5.77347517 2.30798984 -0.93153018 0.98702961 0.95068747
-4.12951374 5.45781755 1.42949724 -0.88259506 0.93306500 0.58882630
-4.43243313 5.32484388 1.87812984 -0.94733763 0.91033190 0.77362317
-4.08544064 5.60111284 1.82308125 -0.87317538 0.95756269 0.75094807
-4.14222431 5.40388775 1.42196786 -0.88531172 0.92384523 0.58572483
-4.04908133 5.47921991 1.79098499 -0.86540437 0.93672395 0.73772722
-4.16164589 5.35926151 1.41694832 -0.88946265 0.91621596 0.58365726
-3.91719413 5.23303080 1.71695650 -0.83721632 0.89463562 0.70723403
-4.11365843 5.84492350 2.21053815 -0.87920636 0.99924439 0.91054600
-4.17581606 5.30847120 1.41025555 -0.89249122 0.90753287 0.58090043
-4.25113201 5.54123449 0.88061541 -0.90858841 0.94732589 0.36273557
-3.94882894 5.22373819 1.72006261 -0.84397757 0.89304698 0.70851350
-4.12243795 5.79898262 2.20034671 -0.88108277 0.99139035 0.90634799
-4.15589094 5.45599985 1.07603896 -0.88823265 0.93275428 0.44323277
-4.18246984 5.26581764 1.40398121 -0.89391333 0.90024084 0.57831591
-4.23100996 5.44425869 0.86761016 -0.90428770 0.93074697 0.35737857
-4.10776520 5.36254072 1.77545452 -0.87794679 0.91677654 0.73133004
-4.02771330 5.58990908 2.12960577 -0.86083740 0.95564729 0.87720901
-4.16950607 5.40326977 1.07060695 -0.89114261 0.92373955 0.44099525
-4.20316696 5.22423363 1.39979815 -0.89833689 0.89313167 0.57659286
-4.27619219 5.43152905 0.87021118 -0.91394448 0.92857075 0.35844997
-4.14970064 5.34728336 1.77907836 -0.88690960 0.91416818 0.73282278
-4.05603218 5.55522633 2.12600899 -0.86688995 0.94971794 0.87572747
-4.20581436 5.38006926 1.07124603 -0.89890271 0.91977322 0.44125852
-4.21854687 5.17654896 1.39394200 -0.90162402 0.88497949 0.57418066
-4.10193205 5.58823872 1.38591206 -0.87670010 0.95536172 0.57087302
-4.31023502 5.40455389 0.87021118 -0.92122036 0.92395908 0.35844997
-4.19640017 5.33777094 1.78477275 -0.89689064 0.91254193 0.73516834
-4.08520555 5.52194548 2.12301135 -0.87312514 0.94402826 0.87449270
-4.25306845 5.37052250 1.07476079 -0.90900224 0.91814113 0.44270629
-4.13113928 5.55447769 1.38390517 -0.88294250 0.94958997 0.57004637
-4.25884724 5.34748030 1.79719722 -0.91023737 0.91420180 0.74028611
-4.53649044 5.43788004 2.25868392 -0.96957761 0.92965651 0.93037778
-4.23266840 5.64765024 2.18236184 -0.90464216 0.96551871 0.89893985
-4.32764769 5.39439297 1.08530521 -0.92494196 0.92222196 0.44704965
-4.11427784 5.45940924 1.36624396 -0.87933874 0.93333709 0.56277156
-4.32279825 5.35811472 1.81013918 -0.92390549 0.91601986 0.74561703
-4.17826605 5.78026152 1.81052589 -0.89301485 0.98818982 0.74577636
-4.60630083 5.45131350 2.27655745 -0.98449808 0.93195307 0.93774009
-4.38531685 5.77628279 2.24351072 -0.93726754 0.98750961 0.92412776
-4.10586166 5.37726164 1.35179389 -0.87753993 0.91929322 0.55681938
-4.37248993 5.36756802 1.82049286 -0.93452603 0.91763598 0.74988186
-4.09173584 5.60379791 1.76043379 -0.87452084 0.95802170 0.72514284
-4.65919590 5.46131372 2.29011631 -0.99580330 0.93366271 0.94332510
-4.12162209 5.34541178 1.34858274 -0.88090843 0.91384816 0.55549669
-4.48386240 5.43363667 1.85310686 -0.95832950 0.92893106 0.76331592
-4.11539412 5.56237888 1.75542462 -0.87957734 0.95094073 0.72307950
-4.15512657 5.31940937 1.34858274 -0.88806927 0.90940285 0.55549669
-3.94897413 5.26624441 1.66826439 -0.84400862 0.90031379 0.68717718
-4.12804174 5.44838667 1.00999272 -0.88228047 0.93145269 0.41602758
-4.17998886 5.28241634 1.34577298 -0.89338309 0.90307856 0.55433929
-3.97848511 5.23669243 1.66676164 -0.85031593 0.89526159 0.68655819
-4.15379906 5.41133881 1.00787914 -0.88778555 0.92511904 0.41515696
-4.21187592 5.25451612 1.34537160 -0.90019822 0.89830875 0.55417395
-4.07365036 5.29310703 1.69331050 -0.87065548 0.90490621 0.69749397
-4.11689615 5.81611776 2.12857580 -0.87989837 0.99431980 0.87678474
-4.16111898 5.35071802 1.00123668 -0.88935000 0.91475534 0.41242084
-4.23619461 5.21727514 1.34256184 -0.90539581 0.89194202 0.55301660
-4.15900660 5.33475399 1.71535099 -0.88889855 0.91202617 0.70657271
-4.53572512 5.54601479 2.21593356 -0.96941406 0.94814312 0.91276842
-4.11640215 5.73892498 2.10940051 -0.87979275 0.98112297 0.86888623
-4.23000193 5.36961126 1.00999272 -0.90407228 0.91798532 0.41602758
-4.31725121 5.24971914 1.35821605 -0.92271996 0.89748865 0.55946475
-3.84610724 5.61830854 2.41686177 -0.82202303 0.96050245 0.99553305
-4.21034765 5.34864569 1.72637117 -0.89987159 0.91440105 0.71111208
-4.50974941 5.46116638 2.19015527 -0.96386230 0.93363750 0.90215003
-4.01602888 5.54470348 2.04373908 -0.85834014 0.94791895 0.84183955
-4.26997232 5.36822987 1.01361597 -0.91261512 0.91774917 0.41752002
-3.89856815 5.61871624 2.42770624 -0.83323538 0.96057212 1.00000000
-4.26311302 5.34636545 1.73438597 -0.91114908 0.91401124 0.71441346
-4.55007362 5.44005823 2.19315267 -0.97248077 0.93002892 0.90338469
-4.04851389 5.51628160 2.04257679 -0.86528307 0.94305998 0.84136075
-4.07731915 5.52348471 1.30670011 -0.87143958 0.94429141 0.53824472
-3.79575348 5.39904261 2.34162831 -0.81126100 0.92301691 0.96454352
-4.30874252 5.33457327 1.73939514 -0.92090142 0.91199523 0.71647680
-4.62103844 5.45514393 2.21113777 -0.98764795 0.93260795 0.91079295
-4.12092924 5.54130030 2.06175232 -0.88076031 0.94733715 0.84925938
-4.11430407 5.50089407 1.30746675 -0.87934434 0.94042933 0.53856051
-3.92390609 5.50658989 2.39991736 -0.83865082 0.94140309 0.98855346
-4.36905098 5.34044456 1.75041544 -0.93379104 0.91299897 0.72101617
-4.08721161 5.66271162 1.70342231 -0.87355393 0.96809357 0.70165914
-4.25162363 5.64187574 2.10998154 -0.90869343 0.96453148 0.86912555
-4.14164495 5.46556902 1.30516660 -0.88518786 0.93439019 0.53761309
-3.97391343 5.50313711 2.40940619 -0.84933883 0.94081283 0.99246198
-4.09625387 5.60096598 1.69231343 -0.87548649 0.95753759 0.69708329
-4.13750601 5.38972855 1.29289865 -0.88430327 0.92142457 0.53255975
-4.12092400 5.56111479 1.68796647 -0.88075918 0.95072466 0.69529271
-4.14475012 5.34695482 1.28714800 -0.88585150 0.91411197 0.53019100
-4.08404446 5.45790958 1.66188467 -0.87287700 0.93308073 0.68454933
-4.08013010 5.83833361 2.05248046 -0.87204039 0.99811780 0.84544021
-4.17461300 5.31618643 1.28599787 -0.89223409 0.90885186 0.52971727
-4.09353733 5.39973640 1.65174186 -0.87490588 0.92313552 0.68037140
-4.09684610 5.78433323 2.04235578 -0.87561309 0.98888594 0.84126973
-4.19444084 5.27299452 1.28178084 -0.89647186 0.90146780 0.52798021
-4.02057266 5.23570013 1.60827231 -0.85931128 0.89509195 0.66246581
-4.12642097 5.74910307 2.03898096 -0.88193405 0.98286301 0.83987963
-4.22748899 5.24653625 1.28178084 -0.90353519 0.89694446 0.52798021
-4.02946138 5.17977190 1.59861243 -0.86121106 0.88553047 0.65848678
-4.41511202 5.43867302 2.09196806 -0.94363558 0.92979205 0.86170560
-4.03989792 5.55352449 1.97767162 -0.86344165 0.94942701 0.81462556
-4.25912428 5.21835375 1.28139746 -0.91029656 0.89212644 0.52782232
-4.07036924 5.16499615 1.60199332 -0.86995423 0.88300443 0.65987939
-4.48700905 5.45653868 2.10998154 -0.95900202 0.93284637 0.86912555
-4.05996752 5.50790405 1.97035944 -0.86773109 0.94162774 0.81161362
-4.13049746 5.55781937 1.25460768 -0.88280535 0.95016128 0.51678729
-3.93120217 5.56582594 2.34572291 -0.84021026 0.95153004 0.96623015
-4.13069820 5.17411900 1.61310220 -0.88284826 0.88456410 0.66445529
-4.52857876 5.43703985 2.11346793 -0.96788669 0.92951286 0.87056166
-4.10822105 5.50077963 1.97710919 -0.87804425 0.94040978 0.81439394
-4.13900709 5.51465225 1.24911880 -0.88462406 0.94278145 0.51452637
-3.92462969 5.50103045 2.32592940 -0.83880550 0.94045264 0.95807695
-4.27118587 5.29778671 1.65898669 -0.91287446 0.90570623 0.68335563
-4.08852816 5.65324211 1.62585676 -0.87383527 0.96647465 0.66970903
-4.48493958 5.33381557 2.08092785 -0.95855975 0.91186571 0.85715801
-4.26878119 5.66104031 2.04291844 -0.91236049 0.96780783 0.84150147
-4.13800907 5.44147825 1.23814094 -0.88441080 0.93027163 0.51000446
-4.01088905 5.54833174 2.35693932 -0.85724157 0.94853926 0.97085029
-4.32286978 5.29333878 1.66623163 -0.92392081 0.90494585 0.68633991
-4.10334873 5.59913301 1.61752224 -0.87700289 0.95722419 0.66627592
-4.16255379 5.40288210 1.23521340 -0.88965666 0.92367327 0.50879854
-4.03122568 5.50317764 2.34836197 -0.86158812 0.94081974 0.96731716
-4.08067942 5.49496651 1.59437084 -0.87215781 0.93941599 0.65673959
-4.18195724 5.35797787 1.23082232 -0.89380378 0.91599649 0.50698984
-4.10347319 5.45363617 1.58974063 -0.87702948 0.93235016 0.65483236
-4.19002676 5.29913044 1.22313774 -0.89552844 0.90593594 0.50382441
-4.11768389 5.40138149 1.58186913 -0.88006669 0.92341673 0.65158999
-4.31811380 5.43599081 1.99960804 -0.92290431 0.92933351 0.82366145
-4.21861839 5.28394699 1.22423553 -0.90163928 0.90334022 0.50427663
-4.12772226 5.36182880 1.57584977 -0.88221222 0.91665483 0.64911056
-4.34966469 5.42308521 2.00242043 -0.92964762 0.92712718 0.82481992
-4.25419855 5.26040173 1.22496748 -0.90924376 0.89931494 0.50457811
-4.08027935 5.23121548 1.54436386 -0.87207228 0.89432526 0.63614118
-4.38244677 5.39415550 2.00185800 -0.93665409 0.92218137 0.82458824
-4.10946274 5.20088434 1.54297471 -0.87830961 0.88913989 0.63556898
-4.45027876 5.40810871 2.01760721 -0.95115173 0.92456681 0.83107549
-4.15174866 5.18714333 1.54667902 -0.88734734 0.88679069 0.63709480
-4.32341766 5.33367538 1.59946418 -0.92403787 0.91184175 0.65883762
