-7.91794586 5.44692230 2.14800739 -0.94960409 0.99564254 0.99589324
-7.91931009 5.39313412 2.14136410 -0.94976771 0.98581064 0.99281317
-7.97249413 5.35627985 2.14667869 -0.95614612 0.97907400 0.99527723
-8.04343510 5.33078432 2.15686512 -0.96465409 0.97441369 1.00000000
-7.86673832 5.27149487 1.61615074 -0.94346273 0.96357620 0.74930543
-7.99837065 5.30492735 1.63846827 -0.95924950 0.96968728 0.75965261
-7.96054840 5.20833349 1.62370431 -0.95471346 0.95203090 0.75280756
-7.89527321 4.90082121 2.07581639 -0.94688493 0.89582080 0.96242291
-7.83065224 5.05386162 1.59005630 -0.93913490 0.92379504 0.73720711
-8.02585316 4.91198826 2.10238981 -0.96254545 0.89786202 0.97474331
-7.82579231 5.38755369 2.06818151 -0.93855208 0.98479056 0.95888311
-7.84727144 4.99507141 1.58696616 -0.94112808 0.91304874 0.73577440
-7.98800325 4.82029867 2.08423138 -0.95800608 0.88110209 0.96632439
-7.93368769 5.38890600 2.08805966 -0.95149201 0.98503774 0.96809930
-7.86011982 4.93418407 1.58318937 -0.94266897 0.90191919 0.73402333
-7.99816895 5.35967064 2.09627032 -0.95922530 0.97969383 0.97190607
-7.89935493 4.88986731 1.58490610 -0.94737446 0.89381850 0.73481929
-8.08374214 5.34388018 2.11009860 -0.96948814 0.97680748 0.97831738
-7.98499489 5.40238285 1.59554970 -0.95764530 0.98750120 0.73975402
-7.79015017 5.14960384 1.00085104 -0.93427747 0.94129574 0.46403041
-7.94425774 5.07371855 0.68689936 -0.95275968 0.92742467 0.31847116
-7.98929882 5.33233738 1.58954990 -0.95816147 0.97469759 0.73697233
-7.75240803 5.05516529 0.99067456 -0.92975104 0.92403334 0.45931223
-8.01987076 5.05121660 0.69143462 -0.96182799 0.92331153 0.32057387
-8.00126266 5.26789141 1.58521664 -0.95959634 0.96291751 0.73496330
-8.08534527 5.02167797 0.69492334 -0.96968043 0.91791219 0.32219139
-7.81454134 5.07419920 1.54088449 -0.93720269 0.92751253 0.71440929
-8.04559326 4.97961807 2.05953860 -0.96491289 0.91022402 0.95487595
-7.83603382 4.98767900 0.99479359 -0.93978035 0.91169751 0.46122196
-7.82511282 5.02875948 1.53821790 -0.93847054 0.91920662 0.71317297
-8.03238201 4.91913366 2.05003166 -0.96332848 0.89916813 0.95046818
-7.83992147 4.96890068 1.53488469 -0.94024658 0.90826499 0.71162760
-7.82645798 5.20283604 0.95519531 -0.93863189 0.95102602 0.44286278
-7.87265730 4.92059183 1.53521800 -0.94417262 0.89943463 0.71178210
-7.77688694 5.28747702 1.97704720 -0.93268681 0.96649754 0.91662997
-7.74287081 5.07705069 0.93900794 -0.92860723 0.92803377 0.43535775
-7.96542788 5.07286835 0.64025670 -0.95529866 0.92726928 0.29684597
-7.97749376 5.35036039 2.02013159 -0.95674568 0.97799200 0.93660545
-7.76462317 5.02180576 0.93762046 -0.93121600 0.91793555 0.43471447
-7.99377298 5.02059269 0.63992804 -0.95869809 0.91771382 0.29669359
-7.84954262 5.00722551 0.94502038 -0.94140047 0.91527039 0.43814534
-8.05731392 4.99027777 0.64305031 -0.96631861 0.91217256 0.29814118
-7.93512011 5.00955343 0.95357656 -0.95166379 0.91569591 0.44211230
-7.91732264 5.30632353 1.25256681 -0.94952935 0.96994251 0.58073491
-7.81494856 5.16726398 1.22886825 -0.93725157 0.94452381 0.56974739
-7.98087168 5.31548405 1.51794744 -0.95715082 0.97161698 0.70377487
-7.73438406 5.04478884 1.20921588 -0.92758942 0.92213660 0.56063586
-7.86209631 5.16582108 1.48855078 -0.94290602 0.94426006 0.69014549
-7.83651972 5.20256758 0.91917890 -0.93983859 0.95097697 0.42616430
-7.89926386 5.08145761 1.23233640 -0.94736356 0.92883927 0.57135534
-7.98579311 5.10829020 0.59022570 -0.95774102 0.93374401 0.27364978
-7.75669289 5.02749634 1.46202981 -0.93026489 0.91897571 0.67784941
-8.04401875 4.98378563 1.98959601 -0.96472406 0.91098583 0.92244804
-7.78080750 5.09570932 0.90733206 -0.93315703 0.93144435 0.42067167
-7.97788954 5.06130934 1.24042857 -0.95679319 0.92515641 0.57510716
-7.99071026 5.04104805 0.58777392 -0.95833075 0.92145282 0.27251306
-7.74315166 4.95004797 1.45340252 -0.92864090 0.90481895 0.67384952
-8.02169704 4.90063381 1.97621059 -0.96204704 0.89578652 0.91624206
-7.95394325 5.44974279 1.94103634 -0.95392126 0.99615812 0.89993405
-7.78926563 5.03167391 0.90420270 -0.93417138 0.91973931 0.41922078
-8.03918076 5.00123882 0.58930629 -0.96414387 0.91417611 0.27322352
-7.78747988 4.90969276 1.45595872 -0.93395722 0.89744240 0.67503464
-7.93615866 5.36443806 1.92819178 -0.95178837 0.98056525 0.89397883
-7.83636618 5.00984859 0.90733206 -0.93982017 0.91574991 0.42067167
-7.77328444 5.20105028 1.17926800 -0.93225473 0.95069963 0.54675090
-8.10176849 4.98725939 0.59283078 -0.97165006 0.91162080 0.27485761
-7.85078621 4.89793301 1.46362746 -0.94154960 0.89529282 0.67859018
-8.03940201 5.37944555 1.94745862 -0.96417040 0.98330849 0.90291166
-7.93671370 5.00382137 0.91649663 -0.95185494 0.91464818 0.42492071
-7.72658730 5.09956932 1.16586721 -0.92665434 0.93214995 0.54053783
-7.71207142 5.02056551 1.15805006 -0.92491347 0.91770881 0.53691351
-7.79897261 5.16515875 0.84934390 -0.93533558 0.94413900 0.39378628
-7.91320181 5.08152819 1.18652678 -0.94903511 0.92885220 0.55011636
-7.97085571 5.09056854 0.52983087 -0.95594960 0.93050468 0.24564859
-7.86039209 5.28347111 1.41246903 -0.94270164 0.96576530 0.65487128
-7.75146055 5.06366730 0.83926088 -0.92963737 0.92558742 0.38911143
-7.97570992 5.02331638 0.52757621 -0.95653176 0.91821164 0.24460325
-7.82926273 5.19123030 1.40069366 -0.93896824 0.94890463 0.64941180
-7.79814911 5.02459192 0.84115142 -0.93523681 0.91844481 0.38998795
-8.01388454 4.97732973 0.52813989 -0.96111006 0.90980577 0.24486458
-7.84520292 5.13107777 1.39767432 -0.94088000 0.93790936 0.64801192
-7.84426975 4.89828062 1.86035669 -0.94076806 0.89535636 0.86252809
-7.82174063 4.98778868 0.84115142 -0.93806612 0.91171753 0.38998795
-7.88514709 5.30425549 1.14685309 -0.94567049 0.96956450 0.53172219
-7.73670721 5.00781345 1.37351966 -0.92786801 0.91537786 0.63681298
-7.98045158 4.93154478 1.88765132 -0.95710045 0.90143675 0.87518281
-7.85216904 5.21091413 1.13612533 -0.94171542 0.95250267 0.52674842
-7.89282656 5.03916883 1.39616466 -0.94659150 0.92110932 0.64731199
-7.71869707 5.05328226 1.10930610 -0.92570806 0.92368913 0.51431406
-7.97278452 5.02013254 1.40492070 -0.95618093 0.91762966 0.65137160
-7.87701321 5.08611631 1.12968874 -0.94469500 0.92969084 0.52376419
-7.90698957 5.36718130 1.83230472 -0.94829011 0.98106670 0.84952217
-7.79919338 5.12360287 0.80095291 -0.93536204 0.93654305 0.37135050
-7.93559933 5.05349922 1.13397980 -0.95172125 0.92372876 0.52575368
-8.03256798 5.08945179 0.48264903 -0.96335077 0.93030053 0.22377339
-7.91914129 5.32113075 1.82923770 -0.94974744 0.97264916 0.84810019
-7.79986191 5.07165766 0.79814810 -0.93544221 0.92704797 0.37005007
-8.02090645 5.02935457 0.47991294 -0.96195221 0.91931540 0.22250484
-7.82150936 5.01612663 0.79694599 -0.93803841 0.91689748 0.36949274
-8.30757809 5.16192961 1.18440008 -0.99633294 0.94354874 0.54913032
-7.89598560 5.29711056 1.08030570 -0.94697040 0.96825850 0.50086844
-8.00275707 5.06122637 0.81477678 -0.95977557 0.92514122 0.37775972
-8.33815479 5.10859776 1.18413186 -1.00000000 0.93380022 0.54900599
-7.77548027 5.14524937 1.05664778 -0.93251812 0.94049978 0.48989978
-7.72969055 5.04516077 1.04469156 -0.92702651 0.92220461 0.48435646
-7.93426514 5.04694557 1.80240154 -0.95156127 0.92253083 0.83565795
-7.87783146 5.07191849 1.06249857 -0.94479316 0.92709565 0.49261242
-7.94583845 4.98451996 1.79780114 -0.95294929 0.91112006 0.83352506
-7.94476461 5.20770216 0.74475402 -0.95282048 0.95191550 0.34529465
-7.94633532 5.04579449 1.06809509 -0.95300883 0.92232043 0.49520719
-7.98760843 4.95836878 1.80201817 -0.95795876 0.90633988 0.83548021
-7.85910940 5.09843540 0.73253423 -0.94254780 0.93194264 0.33962914
-8.24175930 5.17986822 1.10930574 -0.98843920 0.94682777 0.51431394
-7.95158672 5.47076082 1.76215184 -0.95363867 1.00000000 0.81699675
-7.89433861 5.05110836 0.73290449 -0.94677287 0.92329174 0.33980080
-7.77136707 5.27447319 1.71384907 -0.93202478 0.96412063 0.79460186
-7.97805643 5.03446531 0.73864412 -0.95681316 0.92024958 0.34246188
-7.94792128 5.32211924 1.74605095 -0.95319903 0.97282982 0.80953181
-8.02543831 5.30143118 1.75593102 -0.96249574 0.96904826 0.81411260
-7.80030727 5.08182812 1.69848013 -0.93549562 0.92890704 0.78747630
-7.80931664 5.03539181 1.69518673 -0.93657613 0.92041892 0.78594935
-7.82588911 4.97669649 1.69189334 -0.93856364 0.90969002 0.78442240
-7.85201359 4.92428207 1.69079554 -0.94169676 0.90010917 0.78391343
-7.96295977 4.92466593 1.70836020 -0.95500261 0.90017933 0.79205704
