-0.17356348 -10.29177189 1.75966966 -0.59543508 -0.97929895 0.81110823
-0.12384007 -10.17229271 1.73872554 -0.42485163 -0.96793008 0.80145419
-0.05989297 -10.16498852 1.73735213 -0.20547168 -0.96723503 0.80082113
-0.24183145 -10.47311878 1.13968718 -0.82963848 -0.99655473 0.52533138
-0.17442934 -10.36723900 1.12660313 -0.59840560 -0.98647994 0.51930034
-0.22428161 -10.36609554 1.71854639 -0.76943111 -0.98637110 0.79215276
-0.10915080 -10.35224915 1.12466478 -0.37445793 -0.98505360 0.51840687
-0.15685838 -10.23519421 1.69621372 -0.53812581 -0.97391540 0.78185862
-0.04400827 -10.31103992 1.11957657 -0.15097685 -0.98113239 0.51606154
-0.09187194 -10.17484856 1.68588066 -0.31518024 -0.96817327 0.77709568
0.02073876 -10.30118656 1.11836505 0.07114739 -0.98019481 0.51550305
-0.02797752 -10.18311310 1.68721390 -0.09598100 -0.96895969 0.77771026
0.06900521 -10.26921177 1.11448836 0.23673253 -0.97715229 0.51371616
0.02000749 -10.24229240 1.69721365 0.06863865 -0.97459078 0.78231955
0.13444886 -10.33011150 1.12199950 0.46124664 -0.98294711 0.51717836
-0.20776752 -10.46276093 1.07937539 -0.71277708 -0.99556917 0.49753106
-0.14119220 -10.41022778 1.07313168 -0.48438066 -0.99057043 0.49465305
-0.07479007 -10.30363846 1.06064427 -0.25657836 -0.98042810 0.48889706
-0.01014308 -10.33569050 1.06434429 -0.03479735 -0.98347795 0.49060255
-0.29149017 -10.43535137 1.38522077 -1.00000000 -0.99296105 0.63850850
-0.11344107 -10.30314255 2.16946340 -0.38917634 -0.98038089 1.00000000
0.05470502 -10.30773830 1.06110680 0.18767364 -0.98081821 0.48911026
-0.22661912 -10.47259140 1.39042294 -0.77745032 -0.99650455 0.64090639
-0.04837429 -10.18435001 2.14394736 -0.16595514 -0.96907735 0.98823857
-0.17483471 -10.31128311 1.36672437 -0.59979624 -0.98115551 0.62998271
-0.21052270 -10.34497929 1.64064646 -0.72222912 -0.98436183 0.75624526
-0.00035065 -10.20011139 2.14729381 -0.00120296 -0.97057712 0.98978108
-0.10990627 -10.29634666 1.36441231 -0.37704965 -0.97973424 0.62891698
-0.14516126 -10.31648540 1.63585353 -0.49799711 -0.98165053 0.75403601
-0.19700682 -10.47962856 1.04010606 -0.67586094 -0.99717420 0.47943011
-0.04524891 -10.31266594 1.36672437 -0.15523307 -0.98128712 0.62998271
-0.07959213 -10.18886566 1.61508417 -0.27305254 -0.96950704 0.74446249
-0.12907758 -10.28391075 1.01797700 -0.44281968 -0.97855091 0.46922985
0.01959387 -10.32462025 1.36845839 0.06721964 -0.98242462 0.63078195
-0.01557245 -10.18916512 1.61508417 -0.05342358 -0.96953553 0.74446249
-0.06440005 -10.27060699 1.01641238 -0.22093388 -0.97728503 0.46850866
0.08380164 -10.25898933 1.35892117 0.28749388 -0.97617960 0.62638587
-0.28987291 -10.50932598 1.34286916 -0.99445176 -1.00000000 0.61898679
0.04867443 -10.22262383 1.62051618 0.16698481 -0.97271925 0.74696636
0.00022403 -10.31652069 1.02155340 0.00076858 -0.98165387 0.47087836
0.14825870 -10.25826073 1.35892117 0.50862336 -0.97611022 0.62638587
-0.22355962 -10.49906063 1.34119403 -0.76695424 -0.99902320 0.61821467
0.04898591 -10.33826637 1.02401221 0.16805337 -0.98372304 0.47201174
-0.17162517 -10.36733246 1.32248878 -0.58878547 -0.98648882 0.60959256
-0.10590100 -10.32067966 1.31578839 -0.36330897 -0.98204964 0.60650408
-0.10376793 -10.18207073 2.05182028 -0.35599118 -0.96886051 0.94577318
-0.18566985 -10.25757980 0.94492239 -0.63696784 -0.97604543 0.43555582
-0.04106437 -10.32312202 1.31606758 -0.14087737 -0.98228204 0.60663277
-0.03966320 -10.16096973 2.04740500 -0.13607046 -0.96685266 0.94373798
-0.12217683 -10.32814980 0.95227456 -0.41914561 -0.98276043 0.43894476
0.02380673 -10.34892178 1.31969690 0.08167250 -0.98473698 0.60830569
-0.19309747 -10.35695839 1.54803681 -0.66244936 -0.98550171 0.71355748
-0.05680287 -10.26506901 0.94555259 -0.19487064 -0.97675806 0.43584630
0.08855478 -10.30697918 1.31383407 0.30380023 -0.98074597 0.60560322
-0.12700005 -10.28679943 1.53716719 -0.43569240 -0.97882581 0.70854717
0.00765351 -10.29903603 0.94912362 0.02625650 -0.97999018 0.43749234
0.15326217 -10.30225945 1.31327569 0.52578849 -0.98029685 0.60534585
-0.24514896 -10.50715446 1.28309500 -0.84101963 -0.99979335 0.59143430
-0.06007540 -10.00270462 1.49368894 -0.20609753 -0.95179313 0.68850619
-0.19269055 -10.33182526 1.25922585 -0.66105336 -0.98311019 0.58043194
-0.01340525 -10.14324856 1.51512611 -0.04598869 -0.96516645 0.69838750
-0.12787344 -10.34274101 1.26056671 -0.43868867 -0.98414886 0.58104998
-0.20848800 -10.28863525 0.89751947 -0.71524882 -0.97900051 0.41370574
-0.06269846 -10.29775620 1.25439835 -0.21509631 -0.97986835 0.57820672
-0.14429268 -10.32754803 0.90132600 -0.49501732 -0.98270315 0.41546035
0.00207386 -10.32965851 1.25868940 0.00711470 -0.98290402 0.58018470
-0.07913864 -10.28248310 0.89671808 -0.27149677 -0.97841507 0.41333634
0.06672526 -10.29971313 1.25466657 0.22891085 -0.98005456 0.57833040
-0.01452289 -10.29670620 0.89812046 -0.04982290 -0.97976846 0.41398278
0.13149694 -10.30305386 1.25520289 0.45111963 -0.98037249 0.57857758
-0.23146300 -10.31299496 1.18384099 -0.79406798 -0.98131841 0.54568380
-0.12018532 -10.10149574 1.93888247 -0.41231346 -0.96119350 0.89371520
0.18185882 -10.39545345 1.26780796 0.62389350 -0.98916465 0.58438778
-0.18165040 -10.25248718 1.17595506 -0.62317848 -0.97556084 0.54204881
-0.05691876 -10.15897560 1.95000029 -0.19526820 -0.96666288 0.89883989
-0.11701606 -10.23755741 1.17391992 -0.40144086 -0.97414023 0.54111075
-0.05244916 -10.20436764 1.16959536 -0.17993458 -0.97098213 0.53911734
-0.13701917 -10.27916336 0.81733221 -0.47006446 -0.97809923 0.37674394
0.01164716 -10.22830009 1.17264795 0.03995729 -0.97325939 0.54052442
-0.07237709 -10.27384758 0.81677675 -0.24830028 -0.97759336 0.37648791
0.07583736 -10.21413898 1.17086732 0.26017123 -0.97191191 0.53970367
-0.00801465 -10.34379864 0.82325691 -0.02749544 -0.98424947 0.37947491
0.14033817 -10.24123192 1.17442870 0.48145077 -0.97448987 0.54134524
-0.17068169 -10.14190769 1.85363412 -0.58554870 -0.96503884 0.85442054
-0.10702927 -10.14867783 1.85473192 -0.36717969 -0.96568304 0.85492659
-0.04390227 -10.25139236 1.87376022 -0.15061320 -0.97545671 0.86369753
