-9.78122520 11.75960255 1.20078290 -0.97646314 0.98198587 0.65335619
-9.71765900 11.86659527 0.67923009 -0.97011733 0.99092031 0.36957487
-9.71220684 11.52896881 1.18142068 -0.96957302 0.96272683 0.64282107
-9.66841888 11.69887447 1.71344638 -0.96520168 0.97691476 0.93230075
-9.64133167 11.62411499 0.66667271 -0.96249753 0.97067201 0.36274230
-9.81035805 11.49799633 1.18490934 -0.97937149 0.96014047 0.64471924
-9.76293278 11.70038414 1.72095764 -0.97463703 0.97704083 0.93638772
-9.68829632 11.56937504 0.66603422 -0.96718603 0.96610093 0.36239490
-9.74256134 11.52824688 1.70326996 -0.97260332 0.96266651 0.92676371
-9.75432777 11.50066757 0.66550213 -0.97377801 0.96036351 0.36210537
-9.81727219 11.42856026 0.66475719 -0.98006177 0.95434219 0.36170006
-9.89151096 11.36966133 0.66496998 -0.98747301 0.94942385 0.36181584
-9.74380112 11.72330761 1.11845934 -0.97272712 0.97895509 0.60856324
-9.57578373 11.68760109 1.62003291 -0.95595390 0.97597343 0.88147372
-9.71976280 11.89200020 0.59414947 -0.97032738 0.99304175 0.32328179
-9.69423103 11.51530457 1.10268354 -0.96777850 0.96158576 0.59997952
-9.72502518 11.71903133 1.63390768 -0.97085267 0.97859800 0.88902307
-9.65946770 11.66740036 0.58405495 -0.96430808 0.97428656 0.31778926
-9.77930355 11.46935177 1.10432684 -0.97627133 0.95774847 0.60087365
-9.72918987 11.61209488 1.62465775 -0.97126848 0.96966827 0.88399011
-9.69643307 11.60026932 0.58272171 -0.96799833 0.96868074 0.31706384
-9.89037037 11.48968506 1.11155736 -0.98735917 0.95944643 0.60480785
-9.79682446 11.54466915 1.62373281 -0.97802043 0.96403784 0.88348687
-9.73690891 11.50095463 0.58034092 -0.97203904 0.96038747 0.31576845
-9.80248737 11.43195820 0.57986480 -0.97858578 0.95462596 0.31550938
-9.70419312 11.83475590 1.03783476 -0.96877301 0.98826158 0.56469470
-9.60608673 11.56668377 1.01714766 -0.95897901 0.96587622 0.55343872
-9.66884232 11.84017754 0.51967710 -0.96524394 0.98871428 0.28276074
-9.70042896 11.53201199 1.01975274 -0.96839726 0.96298093 0.55485612
-9.74934196 11.84447670 1.58662510 -0.97328025 0.98907328 0.86329621
-9.75580025 11.79457283 0.52053678 -0.97392499 0.98490608 0.28322849
-9.78176212 11.48144817 1.02082539 -0.97651678 0.95875859 0.55543977
-9.76433563 11.74954414 1.57947230 -0.97477710 0.98114598 0.85940433
-9.69710064 11.61212254 0.51288599 -0.96806496 0.96967053 0.27906564
-9.87352753 11.47901726 1.02526927 -0.98567772 0.95855558 0.55785775
-9.78028202 11.61961365 1.56941366 -0.97636902 0.97029608 0.85393131
-9.72980499 11.50372505 0.51022106 -0.97132987 0.96061885 0.27761564
-9.85697174 11.56246567 1.57008433 -0.98402494 0.96552396 0.85429627
-9.80449581 11.44539547 0.51039302 -0.97878629 0.95574802 0.27770919
-10.01699352 11.35404015 1.02526927 -1.00000000 0.94811940 0.55785775
-9.80094147 11.97532749 0.95482671 -0.97843146 1.00000000 0.51952934
-9.66878319 11.66288376 0.93185776 -0.96523803 0.97390938 0.50703174
-9.64965057 11.49177456 0.92171198 -0.96332800 0.95962089 0.50151134
-9.69005966 11.72804165 0.41894627 -0.96736211 0.97935039 0.22795223
-9.76037788 11.47656250 0.92593938 -0.97438198 0.95835060 0.50381148
-9.76667309 11.76583672 1.47638083 -0.97501040 0.98250645 0.80331135
-9.69664574 11.62386227 0.41616613 -0.96801955 0.97065091 0.22643954
-9.87274265 11.49863338 0.93228048 -0.98559940 0.96019363 0.50726175
-9.72667217 11.56859684 1.45768523 -0.97101712 0.96603596 0.79313892
-9.72055054 11.50462723 0.41338602 -0.97040600 0.96069413 0.22492684
-9.88989830 11.37307167 0.92636210 -0.98731202 0.94970864 0.50404149
-9.82234192 11.53454208 1.46146643 -0.98056787 0.96319222 0.79519635
-9.89773655 11.56646919 0.41931206 -0.98809451 0.96585828 0.22815126
-9.72648811 11.90957737 0.86569834 -0.97099876 0.99450952 0.47103384
-9.62656975 11.63778305 0.84784871 -0.96102387 0.97181332 0.46132171
-9.72389317 11.60610104 0.85032421 -0.97073966 0.96916771 0.46266866
-9.75394440 11.49461651 0.84602469 -0.97373968 0.95985824 0.46032923
-9.84946632 11.88614750 1.41561294 -0.98327571 0.99255300 0.77024704
-9.84181499 11.48788452 0.84941220 -0.98251188 0.95929605 0.46217242
-9.73175907 11.59564590 1.38556111 -0.97152495 0.96829468 0.75389558
-9.82048512 11.66018772 0.34638980 -0.98038250 0.97368425 0.18847364
-9.86533260 11.37011147 0.84459150 -0.98485965 0.94946140 0.45954943
-9.80571461 11.53578568 1.38576150 -0.97890794 0.96329606 0.75400466
-9.89745235 11.60281086 0.34658033 -0.98806614 0.96889299 0.18857731
-9.70742035 11.89396572 0.77657127 -0.96909523 0.99320590 0.42253906
-9.79464149 11.90430832 1.83786869 -0.97780252 0.99406952 1.00000000
-9.63844776 11.65866947 0.76313066 -0.96220964 0.97355747 0.41522589
-9.82740116 11.79218769 1.82947397 -0.98107290 0.98470688 0.99543238
-9.70127296 11.58562088 0.76217908 -0.96848148 0.96745753 0.41470814
-9.76171970 11.60138321 1.80530727 -0.97451591 0.96877378 0.98228306
-9.72873688 11.50772190 0.75968128 -0.97122324 0.96095258 0.41334906
-9.71656895 11.67679310 0.24172156 -0.97000849 0.97507089 0.13152276
-9.81251717 11.46003246 0.76075178 -0.97958708 0.95697027 0.41393152
-9.74685764 11.62831593 1.27224183 -0.97303224 0.97102278 0.69223762
-9.73442650 11.54969978 0.23957312 -0.97179121 0.96445793 0.13035378
-9.85690403 11.36644077 0.75825393 -0.98401821 0.94915491 0.41257241
-9.75924969 11.49541283 1.26353979 -0.97426933 0.95992470 0.68750274
-9.86512470 11.55681705 0.24182148 -0.98483890 0.96505225 0.13157713
