-5.81683111 -2.70245481 1.42211092 -0.97714144 -0.80210900 0.59361762
-5.87193394 -2.77332568 1.44026935 -0.98639786 -0.82314402 0.60119730
-5.75432253 -2.76174426 1.41502464 -0.96664089 -0.81970656 0.59065968
-5.88153505 -2.88473964 2.18373394 -0.98801070 -0.85621256 0.91153437
-5.72460461 -2.79182124 1.41192436 -0.96164870 -0.82863367 0.58936554
-5.85432291 -2.90564418 2.17860031 -0.98343951 -0.86241716 0.90939146
-5.87901783 -2.90216613 1.45444179 -0.98758787 -0.86138487 0.60711318
-5.85452700 -2.95180893 2.18565893 -0.98347378 -0.87611920 0.91233790
-5.71444988 -2.86515307 1.41723907 -0.95994288 -0.85039908 0.59158403
-5.63848591 -2.71369147 1.74273539 -0.94718206 -0.80544412 0.72745270
-5.92003298 -3.03196764 2.21774340 -0.99447781 -0.89991093 0.92573059
-5.66857290 -2.88675117 1.41015279 -0.95223624 -0.85680956 0.58862609
-5.62477493 -2.75076699 1.74382842 -0.94487882 -0.81644845 0.72790897
-5.88073111 -3.05855393 2.21004319 -0.98787564 -0.90780193 0.92251635
-5.74442387 -2.79902792 1.07949948 -0.96497810 -0.83077264 0.45060474
-5.62438059 -2.90878820 1.40350950 -0.94481260 -0.86335033 0.58585304
-5.70714855 -2.83602905 1.77552676 -0.95871639 -0.84175485 0.74114048
-5.84969187 -3.08921480 2.20555139 -0.98266155 -0.91690230 0.92064142
-5.74787951 -2.84562325 1.08361959 -0.96555859 -0.84460253 0.45232457
-5.61633635 -2.94954371 1.40616679 -0.94346124 -0.87544686 0.58696222
-5.66521120 -2.85961795 1.76787543 -0.95167154 -0.84875625 0.73794669
-5.84849977 -3.13581085 2.21260977 -0.98246127 -0.93073237 0.92358768
-5.74746084 -2.89059019 1.08705306 -0.96548826 -0.85794902 0.45375776
-5.60284710 -2.98754311 1.40749550 -0.94119525 -0.88672537 0.58751684
-5.76686859 -2.70269132 1.37503552 -0.96874845 -0.80217922 0.57396740
-5.66706800 -2.89420724 1.77279413 -0.95198345 -0.85902262 0.73999983
-5.71098375 -2.90595388 1.08258963 -0.95936060 -0.86250907 0.45189464
-5.59727478 -3.01856899 1.40970993 -0.94025922 -0.89593410 0.58844119
-5.92546177 -2.81047964 1.41695273 -0.99538976 -0.83417159 0.59146452
-5.70674133 -2.96005893 1.79137599 -0.95864797 -0.87856787 0.74775630
-5.85047388 -2.83102441 2.12127542 -0.98279291 -0.84026945 0.88546294
-5.67338991 -2.93176818 1.07881284 -0.95304543 -0.87017095 0.45031813
-5.60723019 -3.06969190 1.41723907 -0.94193155 -0.91110778 0.59158403
-5.74913454 -2.77183366 1.37806046 -0.96576941 -0.82270122 0.57523006
-5.70672321 -3.00577807 1.79738772 -0.95864493 -0.89213765 0.75026572
-5.84280729 -2.87272120 2.12505460 -0.98150504 -0.85264540 0.88704044
-5.62873077 -2.95354104 1.07366252 -0.94554335 -0.87663329 0.44816828
-5.63888693 -3.13344359 1.43052578 -0.94724941 -0.93002975 0.59713018
-5.95290613 -2.91544342 1.43250966 -1.00000000 -0.86532563 0.59795827
-5.68095016 -3.03792453 1.79520166 -0.95431542 -0.90167898 0.74935317
-5.81273651 -2.90347528 2.12064576 -0.97645360 -0.86177343 0.88520008
-5.66387606 -3.01774073 1.08430636 -0.95144725 -0.89568830 0.45261124
-5.73661232 -2.85509753 1.38367832 -0.96366584 -0.84741455 0.57757509
-5.67187738 -3.07909799 1.79848075 -0.95279133 -0.91389954 0.75072193
-5.65797186 -2.70830393 1.69715023 -0.95045543 -0.80384511 0.70842457
-5.84015656 -2.96298695 2.13765192 -0.98105973 -0.87943691 0.89229882
-5.76590729 -3.11926985 1.10834062 -0.96858698 -0.92582285 0.46264362
-5.66794062 -2.86569548 1.37114632 -0.95213002 -0.85056007 0.57234401
-5.66587543 -3.12214470 1.80285299 -0.95178312 -0.92667615 0.75254703
-5.65126181 -2.74882627 1.70034397 -0.94932824 -0.81587243 0.70975769
-5.64112329 -2.89681911 1.36898565 -0.94762510 -0.85979784 0.57144207
-5.66942883 -2.79065132 1.70992529 -0.95238000 -0.82828641 0.71375710
-5.83251429 -3.04010510 2.14709973 -0.97977597 -0.90232617 0.89624250
-5.71922398 -3.17574644 1.10593724 -0.96074486 -0.94258553 0.46164039
-5.60310936 -2.91084480 1.36293578 -0.94123930 -0.86396074 0.56891674
-5.71568394 -2.85791588 1.72962010 -0.96015018 -0.84825104 0.72197813
-5.80321503 -3.07139516 2.14332056 -0.97485411 -0.91161329 0.89466500
-5.60720062 -2.95776463 1.36855352 -0.94192660 -0.87788689 0.57126170
-5.68039799 -2.88509655 1.72429717 -0.95422268 -0.85631847 0.71975625
-5.80557632 -3.11940980 2.15150881 -0.97525078 -0.92586440 0.89808297
-5.70700598 -2.89836073 1.04789782 -0.95869243 -0.86025536 0.43741357
-5.58850622 -2.99293709 1.36855352 -0.93878621 -0.88832635 0.57126170
-5.67932034 -2.92951369 1.72962010 -0.95404166 -0.86950183 0.72197813
-5.65006161 -2.91439652 1.04056466 -0.94912660 -0.86501491 0.43435258
-5.59193230 -3.04004502 1.37417126 -0.93936175 -0.90230834 0.57360667
-5.72751522 -2.99981451 1.75037944 -0.96213764 -0.89036763 0.73064351
-5.61239052 -2.93983531 1.03689802 -0.94279844 -0.87256533 0.43282205
-5.58471012 -3.08168578 1.37719619 -0.93814850 -0.91466767 0.57486933
-5.78842926 -2.73952866 1.33538055 -0.97237033 -0.81311280 0.55741465
-5.70173407 -3.03214264 1.74825037 -0.95780683 -0.89996284 0.72975481
-5.64438629 -3.00173259 1.04656446 -0.94817322 -0.89093691 0.43685701
-5.59595966 -3.13379169 1.38497472 -0.94003826 -0.93013304 0.57811624
-5.72182798 -2.75195074 1.32366824 -0.96118230 -0.81679976 0.55252570
-5.69418478 -3.06260920 1.75037944 -0.95653868 -0.90900558 0.73064351
-5.84068251 -3.14065933 1.08689666 -0.98114812 -0.93217146 0.45369247
-5.71406364 -2.78146839 1.32492316 -0.95987803 -0.82556087 0.55304950
-5.69347477 -3.10842967 1.75623477 -0.95641935 -0.92260545 0.73308760
-5.81769800 -2.86785340 2.06577539 -0.97728705 -0.85120058 0.86229610
-5.75148058 -3.13971448 1.07356369 -0.96616352 -0.93189102 0.44812703
-5.68247175 -2.81033468 1.32157683 -0.95457101 -0.83412856 0.55165267
-5.78427696 -2.89663458 2.06022835 -0.97167277 -0.85974306 0.85998064
-5.71954441 -3.16913700 1.07123041 -0.96079868 -0.94062382 0.44715306
-5.66644669 -2.84686661 1.32199502 -0.95187908 -0.84497154 0.55182725
-5.63796568 -2.70824146 1.64137495 -0.94709468 -0.80382657 0.68514282
-5.82691669 -2.96416736 2.08241606 -0.97883564 -0.87978727 0.86924225
-5.60322857 -2.85915518 1.31111932 -0.94125932 -0.84861887 0.54728752
-5.62430477 -2.74531841 1.64241028 -0.94479984 -0.81483126 0.68557501
-5.57475233 -2.88887167 1.30860960 -0.93647575 -0.85743898 0.54623991
-5.66396570 -2.80911160 1.65949380 -0.95146227 -0.83376557 0.69270599
-5.79089069 -3.03804374 2.08303237 -0.97278380 -0.90171432 0.86949950
-5.56167459 -2.92659068 1.30986452 -0.93427891 -0.86863422 0.54676372
-5.67479849 -2.84797978 1.66674137 -0.95328206 -0.84530193 0.69573128
-5.76308680 -3.05812216 2.07810163 -0.96811318 -0.90767378 0.86744130
-5.56850338 -2.96386051 1.31488407 -0.93542606 -0.87969619 0.54885900
-5.69752359 -2.89285469 2.39566827 -0.95709950 -0.85862112 1.00000000
-5.64528084 -2.92644811 0.78928936 -0.94832349 -0.86859190 0.32946521
-5.62070799 -2.86503911 1.65587008 -0.94419563 -0.85036528 0.69119340
-5.76382542 -3.10516334 2.08549762 -0.96823722 -0.92163599 0.87052852
-5.65660000 -2.90950394 0.99551767 -0.95022494 -0.86356276 0.41554904
-5.55148888 -2.99972510 1.31530237 -0.93256783 -0.89034110 0.54903358
-5.73986006 -2.73927832 1.26870584 -0.96421140 -0.81303853 0.52958328
-5.65269709 -2.91480398 2.38428736 -0.94956934 -0.86513585 0.99524939
-5.69846058 -2.99988437 0.80113864 -0.95725691 -0.89038837 0.33441135
-5.64370060 -2.92174554 1.66829443 -0.94805807 -0.86719614 0.69637954
-5.60501385 -2.92751455 0.98944658 -0.94155926 -0.86890846 0.41301486
-5.56163073 -3.05062962 1.32241333 -0.93427151 -0.90544993 0.55200183
-5.72253513 -2.77528858 1.26870584 -0.96130109 -0.82372665 0.52958328
-5.65576267 -2.96160436 2.39353418 -0.95008433 -0.87902659 0.99910921
-5.63547421 -2.96257424 1.67140043 -0.94667614 -0.87931442 0.69767606
-5.84239101 -2.85895276 2.00850725 -0.98143512 -0.84855878 0.83839124
-5.56909657 -2.95336771 0.98625129 -0.93552566 -0.87658185 0.41168109
-5.54917622 -3.08934116 1.32408655 -0.93217933 -0.91693980 0.55270028
-5.70674515 -2.81204963 1.26910722 -0.95864862 -0.83463758 0.52975082
-5.54188871 -2.95766044 1.64862251 -0.93095517 -0.87785596 0.68816811
-5.79864454 -2.88294387 1.99951470 -0.97408634 -0.85567951 0.83463752
-5.58340216 -3.00618982 0.99232233 -0.93792880 -0.89225990 0.41421524
-5.62143993 -3.17639089 1.34667456 -0.94431859 -0.94277686 0.56212896
-5.67317057 -2.84000754 1.26549470 -0.95300859 -0.84293574 0.52824289
-5.65545082 -3.06463194 1.68900168 -0.95003194 -0.90960592 0.70502317
-5.67074633 -2.69909811 1.59012079 -0.95260131 -0.80111271 0.66374832
-5.78894520 -2.92359471 2.00251222 -0.97245699 -0.86774504 0.83588880
-5.67588949 -3.25468731 1.36507964 -0.95346528 -0.96601582 0.56981164
-5.60623312 -2.85088778 1.25425577 -0.94176406 -0.84616506 0.52355152
-5.62741661 -3.08377862 1.68486023 -0.94532257 -0.91528881 0.70329446
-5.66669989 -2.72996449 1.59262538 -0.95192158 -0.81027412 0.66479379
-5.79892921 -2.96292162 2.01090503 -0.97413415 -0.87941754 0.83939213
-5.66217804 -3.28238416 1.36549795 -0.95116198 -0.97423643 0.56998622
-5.60320711 -2.88261890 1.25666404 -0.94125575 -0.85558307 0.52455676
-5.71039820 -2.79511428 1.61015761 -0.95926225 -0.82961106 0.67211211
-5.61451864 -3.30194831 1.35880518 -0.94315594 -0.98004323 0.56719255
-5.56932926 -2.90965295 1.25305152 -0.93556476 -0.86360699 0.52304882
-5.68230486 -2.82579851 1.60715210 -0.95454299 -0.83871835 0.67085755
-5.76800251 -3.03909373 2.01330304 -0.96893895 -0.90202600 0.84039307
-5.74810743 -2.89560914 0.94900233 -0.96559685 -0.85943872 0.39613262
-5.58527899 -3.33212352 1.35671365 -0.93824410 -0.98899943 0.56631953
-5.56480789 -2.95188904 1.25626266 -0.93480527 -0.87614298 0.52438927
-5.63847208 -2.84843302 1.59963822 -0.94717973 -0.84543645 0.66772109
-5.72520018 -3.06274843 2.00491023 -0.96174878 -0.90904689 0.83688974
-5.63460302 -2.88333941 0.93269795 -0.94652981 -0.85579693 0.38932684
-5.56757259 -3.36918640 1.35755026 -0.93526965 -1.00000000 0.56666869
-5.56170321 -2.99510598 1.25987518 -0.93428373 -0.88897008 0.52589720
-5.63944483 -2.89346600 1.60514843 -0.94734317 -0.85880256 0.67002118
-5.72767830 -3.11042953 2.01270366 -0.96216506 -0.92319900 0.84014291
-5.62340450 -2.92230964 0.93390566 -0.94464862 -0.86736357 0.38983095
-5.58927488 -3.05521727 1.27071273 -0.93891531 -0.90681159 0.53042102
-5.60911322 -2.92261815 1.60164189 -0.94224787 -0.86745518 0.66855747
-5.68960905 -3.13628149 2.00610924 -0.95577002 -0.93087208 0.83739024
-5.58566570 -2.94749689 0.93058443 -0.93830907 -0.87483937 0.38844460
-5.58884764 -3.10067081 1.27512813 -0.93884355 -0.92030257 0.53226405
-5.57863855 -2.95150352 1.59813547 -0.93712860 -0.87602854 0.66709381
-5.59322166 -2.99645495 0.93511343 -0.93957835 -0.88937050 0.39033511
-5.67358589 -3.19403124 1.29961300 -0.95307833 -0.94801265 0.54248452
-5.72837114 -2.74720526 1.20663965 -0.96228147 -0.81539130 0.50367558
-5.58689976 -2.98956394 1.60464752 -0.93851638 -0.88732517 0.66981208
-5.74205637 -3.26796246 1.31928110 -0.96458036 -0.96995598 0.55069441
-5.70571184 -2.78054643 1.20548952 -0.95847499 -0.82528722 0.50319552
-5.61061525 -3.04757738 1.61717045 -0.94250023 -0.90454400 0.67503941
-5.79274559 -2.85011244 1.92519975 -0.97309542 -0.84593493 0.80361700
-5.81999397 -3.36050200 1.34256184 -0.97767276 -0.99742240 0.56041223
-5.70744801 -2.82598424 1.20970666 -0.95876670 -0.83877349 0.50495583
-5.66269684 -3.12180710 1.63820910 -0.95124912 -0.92657596 0.68382132
-5.67168760 -2.68987441 1.52761221 -0.95275944 -0.79837507 0.63765597
-5.69097757 -2.84426308 1.89672709 -0.95599991 -0.84419876 0.79173195
-5.66497278 -3.31916904 1.31085193 -0.95163149 -0.98515445 0.54717588
-5.65806580 -2.84581184 1.20280588 -0.95047122 -0.84465849 0.50207531
-5.68609524 -2.74072719 1.53630614 -0.95517975 -0.81346858 0.64128500
-5.74625158 -2.91744900 1.92171323 -0.96528512 -0.86592090 0.80216163
-5.61025906 -3.33477998 1.30282414 -0.94244039 -0.98978794 0.54382491
-5.64705372 -2.88490057 1.20433939 -0.94862133 -0.85626030 0.50271541
-5.72270918 -2.80303717 1.55127895 -0.96133029 -0.83196265 0.64753497
-5.65308905 -2.91466904 1.89614594 -0.94963515 -0.86509579 0.79148936
-5.54044485 -3.34077716 1.29118371 -0.93071264 -0.99156791 0.53896600
-5.62185812 -2.91668653 1.20280588 -0.94438887 -0.86569464 0.50207531
-5.67202377 -2.82240462 1.54210198 -0.95281595 -0.83771104 0.64370430
-5.49757385 -3.36230183 1.28596568 -0.92351091 -0.99795663 0.53678787
-5.62887335 -2.95415950 1.20740640 -0.94556731 -0.87681687 0.50399566
-5.84168720 -2.89744568 2.31316161 -0.98131686 -0.85998380 0.96556008
-5.63962317 -2.83944011 1.53678906 -0.94737309 -0.84276730 0.64148659
-5.76589632 -3.05414057 1.94611835 -0.96858513 -0.90649199 0.81234884
-5.59809542 -2.98296762 1.20472276 -0.94039708 -0.88536733 0.50287545
-5.80994463 -2.92727733 2.30773950 -0.97598457 -0.86883807 0.96329677
-5.59924459 -2.86325884 1.53051019 -0.94059008 -0.84983689 0.63886565
-5.74659300 -3.09030819 1.94611835 -0.96534246 -0.91722685 0.81234884
-5.60164785 -3.03029561 1.20970666 -0.94099379 -0.89941466 0.50495583
-5.74543333 -2.73744512 1.15031779 -0.96514767 -0.81249440 0.48016572
-5.80147171 -2.96889877 2.31180620 -0.97456127 -0.88119161 0.96499431
-5.58802176 -2.90198326 1.53244209 -0.93870485 -0.86133057 0.63967210
-5.73041630 -3.12819815 1.94728053 -0.96262503 -0.92847288 0.81283396
-5.60997820 -3.08063626 1.21584058 -0.94239318 -0.91435611 0.50751626
-5.73520947 -2.77689552 1.15178156 -0.96343017 -0.82420361 0.48077673
-5.86938334 -3.05068374 2.34705067 -0.98596942 -0.90546602 0.97970605
-5.56110907 -2.93248224 1.53002715 -0.93418390 -0.87038291 0.63866401
-5.72770452 -2.65075827 1.46750116 -0.96216947 -0.78676510 0.61256444
-5.60370111 -3.10444832 1.91009176 -0.94133872 -0.92142373 0.79731065
-5.64356947 -3.14561653 1.22772515 -0.94803602 -0.93364275 0.51247710
-5.74768877 -2.82753539 1.15800238 -0.96552652 -0.83923388 0.48337343
-5.87834311 -3.10251904 2.35857296 -0.98747450 -0.92085111 0.98451567
-5.55623817 -2.97473836 1.53389108 -0.93336564 -0.88292485 0.64027691
-5.71622610 -2.68916178 1.46889031 -0.96024126 -0.79816353 0.61314428
-5.73139763 -2.83752990 1.83930349 -0.96278983 -0.84220034 0.76776218
-5.66803598 -3.20628047 1.23769283 -0.95214605 -0.95164829 0.51663780
-5.75447178 -2.87582088 1.16312540 -0.96666598 -0.85356539 0.48551187
-5.82892895 -3.12330389 2.34637284 -0.97917366 -0.92702019 0.97942311
-5.56297112 -3.02357435 1.54113603 -0.93449670 -0.89741975 0.64330107
-5.70976496 -2.73002648 1.47166848 -0.95915586 -0.81029248 0.61430395
-5.71173859 -2.87262821 1.83874106 -0.95948744 -0.85261780 0.76752740
-5.68007803 -3.24863195 1.24382687 -0.95416892 -0.96421856 0.51919830
-5.70394945 -2.88439035 1.15544081 -0.95817900 -0.85610884 0.48230419
-5.81744909 -3.15254045 2.34772849 -0.97724521 -0.93569785 0.97998899
-5.60808468 -3.08266592 1.55804086 -0.94207513 -0.91495854 0.65035748
-5.67578793 -2.74679971 1.46611214 -0.95344824 -0.81527090 0.61198461
-5.68785858 -2.89432216 1.83536625 -0.95547593 -0.85905671 0.76611871
-5.69096947 -2.92285037 1.15653861 -0.95599854 -0.86752409 0.48276243
-5.74650383 -3.16075969 2.32671738 -0.96532750 -0.93813735 0.97121853
-5.88575506 -2.89328671 1.52630579 -0.98871964 -0.85874939 0.63711065
-5.70542574 -2.94839287 1.84717810 -0.95842695 -0.87510532 0.77104920
-5.68122339 -2.96306849 1.15836823 -0.95436132 -0.87946111 0.48352614
-5.77409458 -3.22354937 2.34637284 -0.96996230 -0.95677382 0.97942311
-5.84008074 -2.86824608 2.23817778 -0.98104703 -0.85131711 0.93426031
-5.85699987 -2.92502713 1.52352762 -0.98388916 -0.86817014 0.63595098
-5.75658226 -3.02052665 1.87023950 -0.96702051 -0.89651513 0.78067547
-5.66249418 -2.99870586 1.15836823 -0.95121509 -0.89003855 0.48352614
-5.76516676 -3.26629305 2.35111737 -0.96846259 -0.96946049 0.98140359
-5.81179190 -2.89985752 2.23421907 -0.97629488 -0.86069965 0.93260789
-5.83503008 -2.96002030 1.52260149 -0.98019856 -0.87855643 0.63556439
-5.68319559 -3.02792883 1.85224032 -0.95469260 -0.89871216 0.77316225
-5.67650127 -3.05181122 1.16532099 -0.95356810 -0.90580064 0.48642835
-5.80695057 -2.94310284 2.23949742 -0.97548163 -0.87353516 0.93481117
-5.64654493 -2.90982270 1.47722483 -0.94853586 -0.86365736 0.61662328
-5.66913176 -3.06630063 1.85392785 -0.95233011 -0.91010123 0.77386665
-5.68833447 -3.10427403 1.17190766 -0.95555586 -0.92137200 0.48917776
-5.86064386 -3.01646137 2.26786828 -0.98450130 -0.89530855 0.94665372
-5.59879541 -2.93000126 1.46935332 -0.94051462 -0.86964655 0.61333758
-5.66323614 -3.10920691 1.85842752 -0.95133972 -0.92283612 0.77574492
-5.69951010 -3.14521432 1.17739666 -0.95743322 -0.93352342 0.49146900
-5.78262568 -3.01110816 2.24279642 -0.97139543 -0.89371967 0.93618822
-5.59353876 -2.96087599 1.47166848 -0.93963158 -0.87881041 0.61430395
-5.70369482 -3.19433904 1.18251967 -0.95813620 -0.94810396 0.49360743
-5.84551287 -3.09036899 2.27512574 -0.98195952 -0.91724491 0.94968313
-5.58340883 -3.00054002 1.47398365 -0.93792993 -0.89058298 0.61527038
-5.85264063 -3.14124060 2.28568244 -0.98315686 -0.93234396 0.95408970
-5.58497763 -3.04667783 1.47953987 -0.93819344 -0.90427703 0.61758965
-5.62370062 -3.11356783 1.49528289 -0.94469833 -0.92413050 0.62416106
