-6.92701101 8.47202969 1.87297416 -0.94051760 0.98298764 0.78391445
-6.97201014 8.31197071 1.85649347 -0.94662738 0.96441638 0.77701664
-7.00492048 8.24551296 1.85134327 -0.95109576 0.95670551 0.77486104
-7.05530214 8.19984627 1.85099995 -0.95793641 0.95140690 0.77471739
-6.95529222 8.31807899 0.81092215 -0.94435751 0.96512514 0.33940327
-6.98532295 8.51537704 1.20534968 -0.94843495 0.98801714 0.50448698
-6.97515678 8.23626423 0.80656129 -0.94705462 0.95563239 0.33757809
-7.05731583 8.31602478 2.37931919 -0.95820981 0.96488678 0.99584007
-6.95476627 8.37069416 1.18935812 -0.94428611 0.97122997 0.49779385
-7.10216761 8.27984715 0.81667852 -0.96429956 0.96068919 0.34181255
-7.13863945 8.30563450 2.38925838 -0.96925151 0.96368122 1.00000000
-6.99441242 8.31166553 1.18693507 -0.94966906 0.96438098 0.49677971
-7.01235342 8.41812801 1.81787705 -0.95210499 0.97673357 0.76085413
-7.01546717 8.25746536 1.18354297 -0.95252776 0.95809227 0.49535999
-6.98862028 8.30941105 1.80121088 -0.94888264 0.96411943 0.75387865
-7.06850910 8.21472549 1.18378520 -0.95972955 0.95313329 0.49546134
-7.04069185 8.26533604 1.80121088 -0.95595264 0.95900553 0.75387865
-7.10037708 8.14773750 1.18015075 -0.96405643 0.94536084 0.49394020
-6.94857407 8.29779339 0.75397360 -0.94344532 0.96277148 0.31556806
-7.01571512 8.49962616 1.14412475 -0.95256144 0.98618960 0.47886187
-7.05074358 8.31334972 0.76038247 -0.95731741 0.96457642 0.31825042
-6.99905443 8.37142277 1.13140619 -0.95029932 0.97131449 0.47353864
-7.02461481 8.29539394 1.12654996 -0.95376980 0.96249306 0.47150612
-6.94453907 8.36619377 2.29118776 -0.94289750 0.97070777 0.95895356
-7.04301834 8.23800087 1.12284994 -0.95626855 0.95583391 0.46995753
-6.99018192 8.34085846 2.29327917 -0.94909465 0.96776819 0.95982885
-7.06998587 8.16500473 1.11845624 -0.95993006 0.94736433 0.46811858
-6.98141432 8.51270771 1.46845472 -0.94790423 0.98770744 0.61460692
-7.04371929 8.29826260 2.29369760 -0.95636374 0.96282589 0.96000397
-6.94351339 8.35923672 1.44764626 -0.94275820 0.96990055 0.60589772
-7.01377535 8.33661270 1.45169234 -0.95229805 0.96727556 0.60759121
-7.01165581 8.39172649 1.73586607 -0.95201027 0.97367024 0.72652924
-7.35593605 8.44766045 2.36146164 -0.99875504 0.98016012 0.98836595
-7.05873632 8.52983379 1.10649300 -0.95840263 0.98969448 0.46311149
-7.05701208 8.28185177 1.44966924 -0.95816857 0.96092176 0.60674447
-6.97988319 8.24819469 1.71477723 -0.94769633 0.95701665 0.71770269
-6.99831629 8.34995937 1.08659923 -0.95019913 0.96882415 0.45478514
-7.10243034 8.22986889 1.44822419 -0.96433520 0.95489037 0.60613960
-7.03285742 8.20567322 1.71509671 -0.95488894 0.95208299 0.71783644
-7.05174017 8.33355141 1.08905804 -0.95745277 0.96692038 0.45581427
-7.09475136 8.19927120 1.72084820 -0.96329260 0.95134020 0.72024363
-7.07155848 8.25141239 1.08346999 -0.96014357 0.95739001 0.45347545
-7.00851393 8.54304218 1.41852772 -0.95158368 0.99122703 0.59371048
-7.11934662 8.20232296 1.08279932 -0.96663207 0.95169425 0.45319474
-6.93829060 8.34933758 1.39116776 -0.94204909 0.96875197 0.58225924
-6.93407536 8.34351540 2.18829346 -0.94147676 0.96807647 0.91588813
-6.99570370 8.31164932 1.39228451 -0.94984436 0.96437913 0.58272666
-6.99769258 8.31329441 2.19190598 -0.95011443 0.96456999 0.91740012
-6.97963810 8.42616749 1.01697385 -0.94766307 0.97766638 0.42564416
-7.04394293 8.26300144 1.39144695 -0.95639408 0.95873463 0.58237606
-7.08149672 8.30649757 2.20194077 -0.96149296 0.96378136 0.92160010
-7.02861643 8.37756824 1.01634371 -0.95431310 0.97202754 0.42538041
-7.11121845 8.23659706 1.39479709 -0.96552843 0.95567101 0.58377826
-6.96926928 8.42260742 1.63559723 -0.94625521 0.97725332 0.68456274
-7.06160307 8.33675385 1.01529336 -0.95879191 0.96729195 0.42494079
-7.01141214 8.39271069 1.63620114 -0.95197719 0.97378445 0.68481547
-7.36510515 8.45003319 2.26214933 -1.00000000 0.98043543 0.94679981
-7.09316921 8.26802921 1.01193237 -0.96307778 0.95931798 0.42353410
-6.93055058 8.48017979 1.34290195 -0.94099820 0.98393327 0.56205809
-6.99901915 8.27139759 1.62080252 -0.95029455 0.95970881 0.67837054
-6.90769768 8.34500504 1.32681036 -0.93789530 0.96824932 0.55532312
-7.03801394 8.21222210 1.61778319 -0.95558906 0.95284283 0.67710686
-6.97530842 8.31963444 1.33002865 -0.94707519 0.96530563 0.55667007
-7.11921597 8.20223618 1.62472773 -0.96661431 0.95168418 0.68001342
-7.00172997 8.24547672 1.32466483 -0.95066261 0.95670128 0.55442512
-6.99457932 8.36971855 0.95962656 -0.94969171 0.97111672 0.40164202
-7.03397226 8.17881775 1.32064188 -0.95504028 0.94896704 0.55274135
-7.02622652 8.32755375 0.95842451 -0.95398861 0.96622449 0.40113890
-7.08155107 8.15603924 1.32251930 -0.96150035 0.94632411 0.55352712
-6.86887646 8.28964806 2.06846261 -0.93262434 0.96182638 0.86573416
-7.14448643 8.36027241 0.96864212 -0.97004539 0.97002071 0.40541539
-7.05326843 8.61865330 1.28915703 -0.95766026 1.00000000 0.53956366
-6.86011982 8.17427063 2.05006075 -0.93143541 0.94843942 0.85803223
-6.94432926 8.37685013 1.25634110 -0.94286901 0.97194421 0.52582890
-7.04003096 8.28181839 2.08878136 -0.95586294 0.96091789 0.87423837
-6.98155212 8.31479263 1.25328851 -0.94792295 0.96474385 0.52455127
-7.29215097 8.46910667 2.14858747 -0.99009460 0.98264849 0.89926964
-7.00801086 8.24049091 1.24820077 -0.95151538 0.95612282 0.52242184
-7.34651232 8.42459869 2.14897084 -0.99747556 0.97748435 0.89943010
-6.98265982 8.34819984 0.87343216 -0.94807333 0.96862000 0.36556622
-7.09452724 8.23694420 1.25506926 -0.96326220 0.95571131 0.52529657
-6.98859024 8.27558136 0.86861831 -0.94887853 0.96019423 0.36355144
-7.06702137 8.12695217 1.24209547 -0.95952755 0.94294918 0.51986653
-7.07532072 8.27243423 0.87361729 -0.96065438 0.95982909 0.36564371
-6.97734308 8.29512405 1.98317313 -0.94735146 0.96246177 0.83003712
-7.09293938 8.32607651 2.00146961 -0.96304661 0.96605307 0.83769494
-6.95487165 8.30023766 2.36203384 -0.94430041 0.96305507 0.98860544
-6.87682247 8.30409813 1.84481966 -0.93370324 0.96350300 0.77213067
-6.84059238 8.31710720 1.78621125 -0.92878407 0.96501237 0.74760073
-6.86183357 8.31852627 1.71126235 -0.93166810 0.96517706 0.71623158
-6.80852413 8.19790554 1.94914174 -0.92443001 0.95118171 0.81579363
