5.60424709 8.66397858 2.30877638 0.96018058 0.97053778 0.88460296
5.51414442 8.64304543 2.29371810 0.94474322 0.96819282 0.87883341
5.49079132 8.72710609 2.30700493 0.94074214 0.97760928 0.88392425
5.19717884 8.46411228 2.22108436 0.89043725 0.94814879 0.85100394
5.44075775 8.52116108 1.72773838 0.93216980 0.95453936 0.66197944
5.10463572 8.43145084 2.20381165 0.87458175 0.94449002 0.84438598
5.36199427 8.51511288 1.71949804 0.91867518 0.95386183 0.65882218
5.06251669 8.48180199 2.20868325 0.86736542 0.95013034 0.84625250
5.30320644 8.54025459 1.71778131 0.90860301 0.95667821 0.65816444
5.25046778 8.57508945 1.71812475 0.89956725 0.96058041 0.65829599
5.28936720 8.73134041 1.74490571 0.90623194 0.97808361 0.66855711
5.62632990 8.68536091 2.25572848 0.96396405 0.97293299 0.86427778
5.33106470 8.92698765 1.77786708 0.91337603 1.00000000 0.68118614
5.54422808 8.67780972 2.24449277 0.94989747 0.97208714 0.85997283
5.48019648 8.69762230 2.24060369 0.93892688 0.97430652 0.85848278
5.27346134 8.48836136 2.17707968 0.90350676 0.95086515 0.83414364
5.44448614 8.55719376 1.09898126 0.93280858 0.95857573 0.42107245
5.47271156 8.51262379 1.67654753 0.93764448 0.95358300 0.64236581
5.18625021 8.46644592 2.16281915 0.88856483 0.94841015 0.82867980
5.34433413 8.51714802 1.08832026 0.91564947 0.95408982 0.41698769
5.37356615 8.47531796 1.66221464 0.92065781 0.94940400 0.63687414
5.13092613 8.49552536 2.16195488 0.87908608 0.95166767 0.82834864
5.31778479 8.59450817 1.09461999 0.91110075 0.96275568 0.41940144
5.32755041 8.52060413 1.66454780 0.91277391 0.95447695 0.63776809
5.31128120 8.58413696 1.67221427 0.90998650 0.96159393 0.64070553
5.27063704 8.63919735 1.67654753 0.90302289 0.96776175 0.64236581
5.33149481 8.86286831 1.71421313 0.91344970 0.99281734 0.65679729
5.26460123 8.87755585 1.71054661 0.90198874 0.99446267 0.65539247
5.59989166 8.67249870 2.17364645 0.95943439 0.97149217 0.83282822
5.52958107 8.68273735 2.16737199 0.94738799 0.97263908 0.83042419
5.56845856 8.54112148 1.34967303 0.95404893 0.95677531 0.51712447
5.52349138 8.40902328 1.59431481 0.94634461 0.94197768 0.61085850
5.46143675 8.69575119 2.16193414 0.93571275 0.97409689 0.82834071
5.44792223 8.44239140 1.32799757 0.93339729 0.94571561 0.50881958
5.47093058 8.41506958 1.59048045 0.93733937 0.94265503 0.60938936
5.26089048 8.46360588 2.09709811 0.90135300 0.94809204 0.80349886
5.38417768 8.45973778 1.32510746 0.92247587 0.94765872 0.50771224
5.45194435 8.50253105 1.60070539 0.93408644 0.95245242 0.61330700
5.19436646 8.47478867 2.09166026 0.88995540 0.94934475 0.80141538
5.34350204 8.51354027 1.32857549 0.91550690 0.95368570 0.50904101
5.36265039 8.47981167 1.58984137 0.91878760 0.94990742 0.60914451
5.15412092 8.52904606 2.09709811 0.88306010 0.95542264 0.80349886
5.29924774 8.56210995 1.33117664 0.90792477 0.95912647 0.51003760
5.29572725 8.49153328 1.58568752 0.90732163 0.95122045 0.60755295
5.28541803 8.66120052 1.34244788 0.90555531 0.97022659 0.51435620
5.24948502 8.53642654 1.58792424 0.89939886 0.95624942 0.60840994
5.26241684 8.74687004 1.35140705 0.90161449 0.97982323 0.51778889
5.53769970 8.50261211 1.29122031 0.94877899 0.95246148 0.49472845
5.22329044 8.61487961 1.59655154 0.89491093 0.96503770 0.61171550
5.21205997 8.75624847 1.34880602 0.89298683 0.98087382 0.51679230
5.27171040 8.78856564 1.62467003 0.90320677 0.98449397 0.62248904
5.59430790 8.67884350 2.08112192 0.95847768 0.97220290 0.79737765
5.42575598 8.53461170 1.28647423 0.92959952 0.95604610 0.49291000
5.26145601 8.89807892 1.63904881 0.90144992 0.99676162 0.62799823
5.51436090 8.67418861 2.07148862 0.94478029 0.97168148 0.79368669
5.30659389 8.46463394 1.26916480 0.90918338 0.94820720 0.48627791
5.52867413 8.42142773 1.50455844 0.94723260 0.94336724 0.57646853
5.31045580 8.47157288 2.01408958 0.90984505 0.94898450 0.77169436
5.28778267 8.55332851 1.27837789 0.90596044 0.95814276 0.48980790
5.44762468 8.41290760 1.49670815 0.93334633 0.94241279 0.57346070
5.24058580 8.47813988 2.00766730 0.89787418 0.94972014 0.76923364
5.29805660 8.69109726 1.29568720 0.90772069 0.97357559 0.49643993
5.36263180 8.39704704 1.48765028 0.91878444 0.94063610 0.56999016
5.19130516 8.51758385 2.00927281 0.88943088 0.95413864 0.76984882
5.32350779 8.45229530 1.49157536 0.91208130 0.94682503 0.57149410
5.53026676 8.53860760 1.23750222 0.94750547 0.95649374 0.47414646
5.28256893 8.47561169 1.49127340 0.90506721 0.94943690 0.57137841
5.43502760 8.50796413 1.22704268 0.93118805 0.95306104 0.47013891
5.25933123 8.55742264 1.50002944 0.90108585 0.95860136 0.57473326
5.34671211 8.48653793 1.21819234 0.91605687 0.95066088 0.46674794
5.23630095 8.64096165 1.50908744 0.89714003 0.96795940 0.57820380
5.29432726 8.52165031 1.21846056 0.90708172 0.95459414 0.46685070
5.07961988 8.40616989 2.50630498 0.87029576 0.94165808 0.96028566
5.24701881 8.78218555 1.52841115 0.89897633 0.98377931 0.58560765
5.05355167 8.48277760 2.51982975 0.86582947 0.95023966 0.96546763
5.01983213 8.54771423 2.52984834 0.86005229 0.95751387 0.96930629
5.38779545 8.44326782 1.92201400 0.92309576 0.94581378 0.73641574
5.47960424 8.47885323 1.15560412 0.93882543 0.94980001 0.44276738
5.73026848 8.65271187 2.54817986 0.98177195 0.96927565 0.97632992
5.31171274 8.44035721 1.91357982 0.91006041 0.94548774 0.73318422
5.34920883 8.39282608 1.13728821 0.91648465 0.94016331 0.43574968
5.67684746 8.69017220 2.54866290 0.97261930 0.97347194 0.97651500
5.27714539 8.50362396 1.92048049 0.90413797 0.95257485 0.73582822
5.33979321 8.49504280 1.14771807 0.91487145 0.95161361 0.43974584
5.63366175 8.74363804 2.55397582 0.96522021 0.97946119 0.97855067
5.30428076 8.66904926 1.95076704 0.90878707 0.97110575 0.74743241
5.31672049 8.57726097 1.15509534 0.91091841 0.96082366 0.44257244
5.07459688 8.41528988 2.41100955 0.86943513 0.94267970 0.92377341
5.43952465 8.43307877 1.83350801 0.93195856 0.94467241 0.70250487
5.05720139 8.50714016 2.42839718 0.86645478 0.95296872 0.93043548
5.83665943 8.70531368 2.45977020 1.00000000 0.97516811 0.94245595
5.37055016 8.44223690 1.82801902 0.92014110 0.94569826 0.70040178
5.01538324 8.55886555 2.43419313 0.85929000 0.95876300 0.93265617
5.71833515 8.64619160 2.43245149 0.97972739 0.96854526 0.93198884
5.30691719 8.45917988 1.82435977 0.90923882 0.94759625 0.69899976
5.66709566 8.68683243 2.43384051 0.97094852 0.97309786 0.93252105
5.26300240 8.50738716 1.82765317 0.90171486 0.95299643 0.70026159
5.60712290 8.71409702 2.43152547 0.96067333 0.97615200 0.93163407
5.24642944 8.60064220 1.84082663 0.89887536 0.96344280 0.70530897
5.32409430 8.82030392 1.88327444 0.91218174 0.98804933 0.72157276
5.15409279 8.44240856 2.31947255 0.88305527 0.94571751 0.88870120
5.11000729 8.48961067 2.32363987 0.87550205 0.95100510 0.89029789
5.07948017 8.55998802 2.33428955 0.87027180 0.95888877 0.89437830
5.05388308 8.47694111 2.60995770 0.86588621 0.94958586 1.00000000
