-8.98984528 -2.11851311 2.06297255 -0.93515378 -0.70943719 0.90001476
-9.14464474 -2.20091414 2.10150385 -0.95125651 -0.73703122 0.91682488
-9.17983532 -2.27060938 2.11301899 -0.95491713 -0.76037043 0.92184860
-9.18317223 -2.39105272 1.61958420 -0.95526427 -0.80070388 0.70657736
-9.13182068 -2.43896699 1.61306059 -0.94992250 -0.81674922 0.70373130
-9.11251736 -2.49524641 1.61237383 -0.94791454 -0.83559579 0.70343173
-9.03500175 -2.18709898 2.02280712 -0.93985111 -0.73240489 0.88249177
-9.15922356 -2.57015300 1.62370431 -0.95277303 -0.86068010 0.70837486
-9.20704269 -2.82284427 2.15243626 -0.95774734 -0.94530010 0.93904519
-9.17086887 -2.28073311 2.05694580 -0.95398444 -0.76376063 0.89738548
-9.28672314 -2.66932034 1.64979863 -0.96603596 -0.89388877 0.71975905
-9.26909637 -2.90589309 2.17148066 -0.96420240 -0.97311109 0.94735372
-9.19421864 -2.34789205 2.06558871 -0.95641339 -0.78625047 0.90115613
-9.07560444 -2.65454793 1.61374724 -0.94407469 -0.88894188 0.70403087
-9.26644230 -2.95311666 2.17413783 -0.96392632 -0.98892510 0.94851297
-9.25510597 -2.45688391 0.69998193 -0.96274704 -0.82274914 0.30538172
-8.97386074 -2.68591142 1.59829664 -0.93349099 -0.89944470 0.69729024
-9.24332905 -2.51604128 0.70033079 -0.96152198 -0.84255946 0.30553392
-9.39419746 -2.46250319 1.04640281 -0.97721583 -0.82463086 0.45651504
-9.22158337 -2.57245040 0.69980752 -0.95925993 -0.86144948 0.30530563
-9.21183872 -2.47628641 1.02532303 -0.95824623 -0.82924652 0.44731855
-9.21098232 -2.63199472 0.70033079 -0.95815718 -0.88138938 0.30553392
-8.96662331 -2.36804628 1.53355134 -0.93273813 -0.79299963 0.66904372
-9.00481796 -2.48096776 1.00109339 -0.93671125 -0.83081418 0.43674785
-9.12107468 -2.46984673 1.56321728 -0.94880468 -0.82709002 0.68198615
-9.10191250 -2.55418277 1.01490426 -0.94681138 -0.85533208 0.44277313
-9.13025856 -2.51852465 1.56688380 -0.94976002 -0.84339106 0.68358570
-9.03801346 -2.59750867 1.00884688 -0.94016439 -0.86984086 0.44013047
-9.15792751 -2.58808327 1.57455027 -0.95263821 -0.86668450 0.68693036
-9.40224934 -2.87831664 2.14164448 -0.97805339 -0.96387643 0.93433708
-9.03103065 -2.65706682 1.01005828 -0.93943799 -0.88978541 0.44065899
-9.20901585 -2.51881790 0.64880192 -0.95795262 -0.84348929 0.28305337
-9.27037716 -2.68257594 1.59721637 -0.96433562 -0.89832777 0.69681895
-9.30752277 -2.91357684 2.12392688 -0.96819961 -0.97568423 0.92660737
-8.99820805 -2.23292947 1.94860303 -0.93602371 -0.74775237 0.85011870
-9.07115078 -2.73105001 1.01732719 -0.94361144 -0.91456050 0.44383019
-9.21094227 -2.44968724 0.97068888 -0.95815301 -0.82033914 0.42348325
-9.19876862 -2.57823110 0.64929491 -0.95688665 -0.86338526 0.28326845
-8.96386242 -2.65569234 1.54621768 -0.93245095 -0.88932508 0.67456973
-9.33369923 -2.98618841 2.13429832 -0.97092259 -1.00000000 0.93113214
-9.12606144 -2.32595611 1.97997522 -0.94932342 -0.77890468 0.86380547
-9.15509701 -2.49662280 0.96583271 -0.95234382 -0.83605671 0.42136467
-9.53320503 -2.32268262 1.29360569 -0.99167585 -0.77780849 0.56436247
-9.18813896 -2.63761520 0.64978790 -0.95578092 -0.88327152 0.28348351
-9.06073856 -2.53234220 0.95635152 -0.94252831 -0.84801823 0.41722828
-9.54912376 -2.39028740 1.29822981 -0.99333179 -0.80044764 0.56637985
-9.01046658 -2.56421947 0.95172656 -0.93729883 -0.85869312 0.41521055
-9.46876049 -2.41749215 1.28782558 -0.98497212 -0.80955780 0.56184077
-9.00753689 -2.62464404 0.95334530 -0.93699408 -0.87892783 0.41591677
-9.34049702 -2.44710851 1.27077425 -0.97162974 -0.81947559 0.55440176
-9.04992199 -2.69865918 0.96051401 -0.94140315 -0.90371364 0.41904426
-9.21606064 -2.47624516 1.25430083 -0.95868546 -0.82923275 0.54721487
-9.26622581 -2.51508379 0.59957325 -0.96390378 -0.84223884 0.26157632
-9.16401577 -2.42874765 1.50037324 -0.95327157 -0.81332701 0.65456909
-9.19841290 -2.53357244 1.25401187 -0.95684963 -0.84843022 0.54708880
-9.22912025 -2.56733179 0.59788764 -0.96004397 -0.85973537 0.26084095
-9.10668468 -2.47479749 1.49334371 -0.94730777 -0.82874793 0.65150231
-9.44760704 -2.51999855 0.96097815 -0.98277169 -0.84388465 0.41924676
-9.16137409 -2.58536029 1.25083280 -0.95299679 -0.86577266 0.54570186
-9.19555759 -2.62031388 0.59650850 -0.95655262 -0.87747777 0.26023927
-9.10616112 -2.53623772 1.49589992 -0.94725335 -0.84932274 0.65261751
-9.21316528 -2.51908779 0.93549627 -0.95838428 -0.84357965 0.40812975
-9.16965008 -2.65006709 1.25458992 -0.95385766 -0.88744134 0.54734099
-9.61322689 -2.41231728 1.25799751 -1.00000000 -0.80782485 0.54882765
-9.20760918 -2.68647814 0.59880710 -0.95780629 -0.89963448 0.26124209
-9.12230206 -2.60268068 1.50133193 -0.94893235 -0.87157285 0.65498734
-9.34950733 -2.87505913 2.05777836 -0.97256702 -0.96278560 0.89774871
-9.07405281 -2.27860808 1.88243318 -0.94391328 -0.76304901 0.82125074
-9.12082672 -2.53990984 0.92610818 -0.94877887 -0.85055244 0.40403399
-9.03183174 -2.65612650 1.23551548 -0.93952131 -0.88947052 0.53901941
-9.51153278 -2.43469667 1.24487591 -0.98942143 -0.81531918 0.54310304
-9.15730572 -2.65950656 1.50932014 -0.95257354 -0.89060241 0.65847236
-9.44758606 -2.20886683 1.44779515 -0.98276949 -0.73969442 0.63163084
-9.31906700 -2.91379786 2.05401373 -0.96940053 -0.97575819 0.89610630
-9.15057278 -2.34351563 1.90089715 -0.95187318 -0.78478491 0.82930601
-9.05884647 -2.58398414 0.92074358 -0.94233149 -0.86531180 0.40169358
-8.99223804 -2.70592999 1.23204732 -0.93540269 -0.90614843 0.53750634
-9.29290104 -2.44149828 1.21528256 -0.96667862 -0.81759685 0.53019238
-8.95507050 -2.66146660 1.47800624 -0.93153638 -0.89125878 0.64481103
-9.42390537 -2.26589298 1.44628549 -0.98030615 -0.75879103 0.63097221
-9.15083599 -2.40491533 1.90410829 -0.95190054 -0.80534613 0.83070695
-9.03861904 -2.63972855 0.92029655 -0.94022739 -0.88397926 0.40149856
-9.19510555 -2.47785664 1.20327771 -0.95650560 -0.82977235 0.52495497
-8.96459866 -2.72577810 1.48247969 -0.93252754 -0.91279507 0.64676267
-9.08275032 -2.71481156 0.92744935 -0.94481808 -0.90912265 0.40461910
-9.18317509 -2.53662848 1.20383608 -0.95526457 -0.84945357 0.52519858
-9.32031345 -2.49566293 0.88043314 -0.96953017 -0.83573526 0.38410732
-9.16705608 -2.59427762 1.20383608 -0.95358783 -0.86875886 0.52519858
-9.19314194 -2.52387166 0.86824954 -0.95630133 -0.84518164 0.37879196
-9.10489464 -2.63869190 1.19713569 -0.94712156 -0.88363206 0.52227539
-9.03718185 -2.41541505 1.39465499 -0.94007784 -0.80886227 0.60844731
-9.17731380 -2.56610203 0.86782938 -0.95465487 -0.85932356 0.37860867
-9.00682640 -2.65654182 1.18457246 -0.93692017 -0.88960958 0.51679444
-9.12113571 -2.48374248 1.40975165 -0.94881105 -0.83174342 0.61503357
-9.07682705 -2.59979844 0.85858661 -0.94420189 -0.87060761 0.37457630
-9.06774235 -2.73637176 1.19601893 -0.94325686 -0.91634262 0.52178818
-9.57857990 -2.49263716 1.20022345 -0.99639589 -0.83472198 0.52362251
-9.09963417 -2.53942084 1.40884578 -0.94657439 -0.85038871 0.61463833
-9.15372181 -2.76254535 1.92457926 -0.95220077 -0.92510754 0.83963782
-9.09086895 -2.66566682 0.86194766 -0.94566256 -0.89266533 0.37604263
-9.23929214 -2.46571779 1.15489888 -0.96110207 -0.82570738 0.50384873
-9.12724686 -2.60894871 1.41579020 -0.94944674 -0.87367183 0.61766797
-9.31228161 -2.87394977 1.96231008 -0.96869469 -0.96241409 0.85609865
-9.21979618 -2.52266669 1.15436244 -0.95907402 -0.84477812 0.50361466
-8.97776699 -2.62765861 1.39465499 -0.93389732 -0.87993729 0.60844731
-9.18469238 -2.57515502 1.15168047 -0.95542240 -0.86235517 0.50244462
-8.95539474 -2.68232584 1.39374912 -0.93157011 -0.89824402 0.60805213
-9.00590515 -2.30199337 1.78131604 -0.93682438 -0.77088016 0.77713627
-9.34451008 -2.54095316 0.83641410 -0.97204715 -0.85090184 0.36490309
-9.18927193 -2.63887501 1.15463066 -0.95589876 -0.88369340 0.50373167
-9.14872456 -2.38484406 1.81236923 -0.95168090 -0.79862475 0.79068387
-9.16951942 -2.53946662 0.81938469 -0.95384407 -0.85040402 0.35747364
-9.07597351 -2.65246582 1.14041638 -0.94411314 -0.88824463 0.49753043
-9.18662548 -2.45659161 1.82310379 -0.95562351 -0.82265127 0.79536706
-9.20886612 -2.61290002 0.82519472 -0.95793706 -0.87499505 0.36000839
-9.05912876 -2.70943904 1.14041638 -0.94236088 -0.90732354 0.49753043
-9.54457378 -2.49497128 1.12609529 -0.99285847 -0.83550364 0.49128255
-9.18462849 -2.66847205 0.82439333 -0.95541579 -0.89360470 0.35965878
-9.19129372 -2.46516728 1.08132327 -0.95610911 -0.82552302 0.47174981
-9.13351727 -2.51138854 1.07572675 -0.95009899 -0.84100139 0.46930823
-9.22408295 -2.45520592 0.74901241 -0.95951992 -0.82218719 0.32677227
-9.11755753 -2.56872630 1.07572675 -0.94843882 -0.86020237 0.46930823
-9.25183105 -2.72522020 1.84955645 -0.96240640 -0.91260827 0.80690753
-9.17964077 -2.50531054 0.74623519 -0.95489693 -0.83896601 0.32556066
-9.05737305 -2.61340809 1.06987584 -0.94217825 -0.87516516 0.46675563
-9.28076363 -2.03045344 2.22640395 -0.96541607 -0.67994821 0.97131515
-9.30465412 -2.78864932 1.86297452 -0.96790123 -0.93384910 0.81276149
-9.21764660 -2.56230140 0.75104904 -0.95885044 -0.85805082 0.32766080
-9.02400684 -2.64995766 1.06707752 -0.93870735 -0.88740468 0.46553481
-9.16281319 -2.05018401 2.20001149 -0.95314646 -0.68655550 0.95980090
-9.30570412 -2.85284925 1.86680830 -0.96801043 -0.95534801 0.81443405
-9.20356750 -2.29194665 1.73104775 -0.95738584 -0.76751578 0.75520569
-9.20711517 -2.62179065 0.75160450 -0.95775491 -0.87797230 0.32790312
-9.08702278 -2.73040938 1.07776177 -0.94526249 -0.91434598 0.47019604
-9.19527721 -2.11809850 2.21112418 -0.95652348 -0.70929837 0.96464902
-9.04031849 -2.31205225 1.70250535 -0.94040418 -0.77424860 0.74275345
-9.21777725 -2.18427849 2.21992159 -0.95886403 -0.73146039 0.96848708
-9.16262341 -2.40444803 1.72885227 -0.95312673 -0.80518967 0.75424784
-9.44785690 -2.30103469 2.27965212 -0.98279768 -0.77055913 0.99454576
-9.16063309 -2.46551919 1.73141372 -0.95291966 -0.82564086 0.75536531
-9.21721745 -2.52723217 1.74458718 -0.95880580 -0.84630698 0.76111251
-9.28828430 -2.60937428 1.76141989 -0.96619838 -0.87381434 0.76845616
-9.30195713 -2.67631745 1.76727486 -0.96762067 -0.89623195 0.77101052
-9.30949306 -2.74188042 1.77203190 -0.96840459 -0.91818732 0.77308583
-9.36002445 -2.81657243 2.29169083 -0.97366107 -0.94319981 0.99979788
-9.34400368 -2.87589574 2.29215407 -0.97199452 -0.96306574 1.00000000
-9.29603481 -2.92526627 2.28474545 -0.96700460 -0.97959870 0.99676782
