-0.38089779 -13.24321556 2.27469015 -0.77295059 -0.98635936 1.00000000
-0.43329597 -13.20310211 2.19886684 -0.87928146 -0.98337168 0.96666652
-0.09011648 -13.17358112 1.01501036 -0.18287212 -0.98117292 0.44621918
-0.21774104 -13.28129196 1.48229504 -0.44185886 -0.98919529 0.65164703
-0.00739429 -13.12208557 1.01047504 -0.01500513 -0.97733754 0.44422534
-0.13290897 -13.12159729 1.46266901 -0.26971033 -0.97730118 0.64301902
0.07560419 -13.19758129 1.01710355 0.15342253 -0.98296046 0.44713938
-0.05032931 -13.06460094 1.45564246 -0.10213256 -0.97305608 0.63993001
0.03194053 -13.11032009 1.46121526 0.06481648 -0.97646123 0.64237994
0.11331482 -13.01258755 1.44934273 0.22994819 -0.96918207 0.63716048
0.04386072 -13.19436073 2.19620013 0.08900595 -0.98272061 0.96549422
-0.08933702 -13.18860817 0.94903427 -0.18129037 -0.98229218 0.41721475
0.10703602 -13.34782219 2.22219944 0.21720672 -0.99415046 0.97692400
-0.18375163 -13.16132069 1.39340997 -0.37288463 -0.98025978 0.61257130
-0.00638020 -13.14505863 0.94541895 -0.01294725 -0.97904855 0.41562536
-0.10030236 -13.08076859 1.38392878 -0.20354219 -0.97426021 0.60840321
0.07679682 -13.28237152 0.95675778 0.15584272 -0.98927569 0.42061016
-0.49278414 -13.34489632 2.12728906 -1.00000000 -0.99393255 0.93519950
-0.01822881 -13.12087250 1.38855374 -0.03699147 -0.97724718 0.61043644
-0.39973423 -13.03197289 2.07616448 -0.81117511 -0.97062588 0.91272408
0.06388638 -13.02338600 1.37722266 0.12964374 -0.96998632 0.60545504
-0.32194421 -13.21384239 2.10524154 -0.65331692 -0.98417163 0.92550695
0.14594242 -13.04656506 1.37999761 0.29615891 -0.97171271 0.60667497
-0.11263122 -13.05518055 1.76728737 -0.22856095 -0.97235441 0.77693546
-0.24325486 -13.25375175 1.35214722 -0.49363369 -0.98714405 0.59443140
-0.05148225 -13.21388721 1.79040790 -0.10447221 -0.98417497 0.78709966
-0.01639749 -13.21880817 0.87754756 -0.03327521 -0.98454148 0.38578773
-0.15940955 -13.20135975 1.34611201 -0.32348758 -0.98324192 0.59177816
0.03232831 -13.41382790 1.81959760 0.06560338 -0.99906659 0.79993206
0.06739344 -13.33031845 0.88612890 0.13676058 -0.99284679 0.38956025
-0.07619000 -13.13850212 1.33895922 -0.15461130 -0.97856021 0.58863366
0.11652786 -13.40544415 1.81844151 0.23646837 -0.99844217 0.79942381
0.15145625 -13.35355949 0.88796777 0.30734807 -0.99457777 0.39036867
0.07219050 -13.17215729 2.09789228 0.14649518 -0.98106688 0.92227608
0.00633837 -13.12679672 1.33761811 0.01286236 -0.97768843 0.58804411
0.15771027 -13.37872791 2.13144279 0.32003924 -0.99645233 0.93702555
0.08808864 -13.03905296 1.32778299 0.17875704 -0.97115320 0.58372039
-0.11862278 -13.11901379 1.71027374 -0.24071956 -0.97710872 0.75187111
-0.38983405 -13.09318161 1.96651542 -0.79108483 -0.97518474 0.86452013
-0.05739365 -13.22042656 1.72451210 -0.11646813 -0.98466200 0.75813055
-0.02300836 -13.29413414 0.80080795 -0.04669055 -0.99015176 0.35205144
-0.33081210 -13.19566917 1.98191404 -0.67131239 -0.98281807 0.87128967
-0.15929952 -13.06467533 1.24132073 -0.32326430 -0.97306156 0.54570979
0.02574845 -13.40668583 1.75075519 0.05225097 -0.99853468 0.76966757
0.06023763 -13.20024967 0.79418504 0.12223938 -0.98315918 0.34913987
-0.24825688 -13.21527672 1.98463142 -0.50378424 -0.98427844 0.87248427
-0.07798130 -13.16884041 1.25224400 -0.15824637 -0.98081982 0.55051190
0.11009002 -13.42210197 1.75298870 0.22340414 -0.99968284 0.77064943
0.14423372 -13.31332302 0.80221713 0.29269147 -0.99158096 0.35267094
-0.16527399 -13.22052956 1.98523533 -0.33538821 -0.98466969 0.87274981
0.00488429 -13.06564617 1.24132073 0.00991162 -0.97313392 0.54570979
0.08692681 -13.05541229 1.24027050 0.17639937 -0.97237170 0.54524809
-0.13656409 -13.31573200 1.66285586 -0.27712759 -0.99176037 0.73102522
0.08359933 -13.15012264 1.97436571 0.16964695 -0.97942573 0.86797130
-0.07340799 -13.21514988 1.64917803 -0.14896581 -0.98426896 0.72501218
0.14820251 -13.42636013 2.01663637 0.30074528 -1.00000000 0.88655430
-0.17637013 -13.08541965 1.17900491 -0.35790545 -0.97460663 0.51831448
0.00976546 -13.27678967 1.65749192 0.01981692 -0.98885995 0.72866714
0.04144742 -13.28707600 0.72928584 0.08410867 -0.98962605 0.32060885
-0.09465413 -13.17581558 1.18802047 -0.19208030 -0.98133934 0.52227795
0.09437151 -13.41519737 1.67626548 0.19150680 -0.99916857 0.73692036
0.12536760 -13.32646561 0.73189163 0.25440672 -0.99255985 0.32175443
-0.01190510 -13.11645222 1.18201005 -0.02415884 -0.97691792 0.51963562
0.07035609 -13.09437943 1.17980623 0.14277264 -0.97527397 0.51866680
-0.13359694 -13.11398697 1.54278040 -0.27110642 -0.97673434 0.67823762
-0.07203440 -13.14819431 1.54710495 -0.14617839 -0.97928214 0.68013877
-0.18300039 -13.35953236 1.10375679 -0.37136012 -0.99502265 0.48523390
0.01052160 -13.22575378 1.55702603 0.02135133 -0.98505878 0.68450028
-0.09708159 -13.13938046 1.08320522 -0.19700633 -0.97862566 0.47619903
0.09473088 -13.42578220 1.58271909 0.19223605 -0.99995697 0.69579548
-0.01436456 -13.07998848 1.07765079 -0.02914980 -0.97420210 0.47375718
0.17465203 -13.05001926 1.53463995 0.35441893 -0.97197002 0.67465889
0.06798545 -13.12562275 1.08190918 0.13796192 -0.97760099 0.47562924
