7.04405022 -8.46801472 2.46688819 0.95709670 -0.98709917 0.94691902
7.06815052 -8.38933659 2.45670176 0.96037126 -0.97792786 0.94300896
7.14609718 -8.37438679 2.46555948 0.97096211 -0.97618520 0.94640899
7.21301651 -7.95975637 2.40488362 0.98005468 -0.92785257 0.92311847
6.97320604 -7.97371578 1.81185842 0.94747090 -0.92947978 0.69548476
7.05542421 -7.68906689 2.33534980 0.95864213 -0.89629883 0.89642781
7.07684469 -7.99011612 1.82593560 0.96155256 -0.93139154 0.70088834
7.19140291 -7.73871040 2.36458063 0.97711796 -0.90208566 0.90764809
7.14544582 -8.57868671 2.43636107 0.97087365 -1.00000000 0.93520111
7.11767912 -7.93524408 1.82353222 0.96710086 -0.92499518 0.69996578
7.11125469 -8.42898083 2.40611172 0.96622801 -0.98254907 0.92358989
7.20005369 -7.95118618 1.83520603 0.97829336 -0.92685354 0.70444679
7.14078808 -8.38346577 2.40265465 0.97024077 -0.97724348 0.92226285
7.22386932 -8.37397575 2.41302586 0.98152930 -0.97613728 0.92624390
7.06737089 -8.13573551 1.78754461 0.96026534 -0.94836611 0.68615186
7.16093445 -7.88995600 2.32357383 0.97297812 -0.91971606 0.89190757
7.05762529 -8.04739285 1.77521157 0.95894116 -0.93806815 0.68141782
7.17565584 -7.83160448 2.31622744 0.97497839 -0.91291416 0.88908762
7.10935593 -8.00436592 1.77554488 0.96596998 -0.93305260 0.68154579
7.19171047 -7.92035818 1.16682446 0.97715974 -0.92325997 0.44788745
7.18582821 -7.98891258 1.78221130 0.97636050 -0.93125123 0.68410468
7.28442287 -7.92169714 1.17457795 0.98975688 -0.92341608 0.45086366
7.26768732 -7.97865438 1.79021120 0.98748296 -0.93005544 0.68717545
7.14773369 -8.46901321 2.33594537 0.97118449 -0.98721558 0.89665639
7.35981035 -7.90332794 1.17918158 1.00000000 -0.92127478 0.45263076
7.15368462 -8.36901665 2.32046843 0.97199309 -0.97555918 0.89071554
7.20099592 -8.31799889 2.31879520 0.97842139 -0.96961218 0.89007330
7.25430107 -8.30014515 2.32339644 0.98566413 -0.96753097 0.89183950
7.24944448 -7.93358660 1.11221254 0.98500425 -0.92480201 0.42692459
7.27221966 -7.85866785 1.10758758 0.98809880 -0.91606885 0.42514929
7.09541035 -8.09171009 1.43232882 0.96407515 -0.94323415 0.54980171
7.05902433 -8.10217285 1.70519137 0.95913130 -0.94445378 0.65454048
7.02613926 -7.74125433 2.20167232 0.95466310 -0.90238219 0.84511548
7.10133743 -7.99674225 1.42250264 0.96488047 -0.93216389 0.54602993
7.07052040 -8.01332283 1.69560540 0.96069330 -0.93409669 0.65086085
7.20461750 -7.83781481 2.24266529 0.97891349 -0.91363806 0.86085069
7.12359333 -7.92111778 1.41643345 0.96790445 -0.92334855 0.54370028
7.10227346 -7.94816399 1.69113207 0.96500766 -0.92650127 0.64914376
7.15986872 -7.86159706 1.41354346 0.97283334 -0.91641033 0.54259092
7.16269302 -7.91507339 1.69368827 0.97321707 -0.92264396 0.65012497
7.20086241 -7.83213234 1.41441047 0.97840327 -0.91297567 0.54292375
7.23594093 -7.92051935 1.70231557 0.98316950 -0.92327875 0.65343660
7.06272745 -8.25295734 2.19110322 0.95963442 -0.96203041 0.84105849
7.21886206 -7.98138475 1.07162309 0.98084891 -0.93037373 0.41134426
7.34602165 -7.93999910 1.71669436 0.99812651 -0.92554951 0.65895593
7.18102741 -8.28553295 2.21197557 0.97570819 -0.96582764 0.84907037
7.25407076 -7.91977644 1.06916428 0.98563284 -0.92319220 0.41040042
7.06677389 -8.05474377 1.37134576 0.96018422 -0.93892503 0.52639329
7.23681450 -8.24467468 2.21317959 0.98328817 -0.96106488 0.84953254
7.31452322 -7.88567829 1.07095253 0.99384671 -0.91921741 0.41108686
7.09624195 -7.98645639 1.36687887 0.96418816 -0.93096495 0.52467865
7.30016518 -8.21224308 2.21679211 0.99189585 -0.95728439 0.85091925
7.13570690 -7.92991495 1.36464536 0.96955037 -0.92437398 0.52382135
7.16585398 -7.95909405 2.15979457 0.97364658 -0.92777532 0.82904065
7.25061655 -7.95677376 1.37832534 0.98516351 -0.92750490 0.52907240
7.07456350 -8.09430408 1.60781944 0.96124262 -0.94353652 0.61716408
7.17620039 -7.87040281 2.14775276 0.97505236 -0.91743678 0.82441837
7.21979189 -7.84805584 1.36408699 0.98097527 -0.91483188 0.52360702
7.08521748 -8.02969265 1.60147882 0.96269023 -0.93600488 0.61473024
7.23704386 -7.86249256 2.15497780 0.98331934 -0.91651469 0.82719171
7.30398607 -7.84027958 1.37134576 0.99241501 -0.91392541 0.52639329
7.13421440 -7.98353958 1.60117698 0.96934760 -0.93062490 0.61461437
7.19350243 -7.94883585 1.60329044 0.97740322 -0.92657959 0.61542565
7.08122873 -8.00082016 1.30669594 0.96214825 -0.93263930 0.50157732
7.28462839 -7.94874382 1.61265039 0.98978478 -0.92656887 0.61901844
7.14594126 -7.97237682 1.30964601 0.97094095 -0.92932367 0.50270975
7.35590267 -7.92604351 1.61748123 0.99946904 -0.92392272 0.62087280
7.25062227 -7.98738432 1.32064188 0.98516428 -0.93107307 0.50693053
7.08573151 -8.20388603 2.08303070 0.96276009 -0.95631027 0.79957467
7.32440948 -7.99251175 1.32788312 0.99518996 -0.93167078 0.50971007
7.16563082 -8.19165325 2.09146500 0.97361624 -0.95488429 0.80281222
7.30963898 -7.87672377 1.31500983 0.99318308 -0.91817361 0.50476867
7.23652411 -8.16847134 2.09721565 0.98324871 -0.95218205 0.80501962
7.14189911 -7.96093559 2.05466104 0.97039175 -0.92799002 0.78868496
7.14812851 -7.86804390 2.04200983 0.97123814 -0.91716182 0.78382879
7.19334078 -8.01269341 1.24184108 0.97738129 -0.93402332 0.47668269
7.23471355 -7.86335182 2.05274415 0.98300272 -0.91661489 0.78794914
7.27150917 -7.99821520 1.24718320 0.98800224 -0.93233562 0.47873330
7.28234720 -7.93457985 1.24209547 0.98947483 -0.92491776 0.47678035
7.31992722 -7.87556648 1.23980606 0.99458098 -0.91803873 0.47590154
7.23392153 -7.75768709 2.60517335 0.98289508 -0.90429777 1.00000000
7.06133938 -8.45255756 2.58663964 0.95944583 -0.98529738 0.99288583
7.01357794 -7.99965811 1.94584835 0.95295632 -0.93250382 0.74691701
7.26516390 -7.69377089 2.59889436 0.98714012 -0.89684719 0.99758983
7.11807108 -8.41248608 2.58802891 0.96715415 -0.98062634 0.99341905
7.08324289 -7.97752476 1.95133734 0.96242195 -0.92992377 0.74902397
7.29723358 -7.63116980 2.59309840 0.99149752 -0.88954991 0.99536502
7.08408833 -7.90299177 1.94109130 0.96253681 -0.92123562 0.74509102
7.15734243 -7.88457632 1.94767797 0.97249007 -0.91908896 0.74761933
7.28016567 -7.89818811 2.52181578 0.98917842 -0.92067569 0.96800303
7.25015068 -7.76680040 2.49403405 0.98510021 -0.90536004 0.95733899
7.31063986 -7.75808287 2.50236869 0.99331903 -0.90434390 0.96053827
