8.83482361 -7.92361307 2.03400397 0.98615676 -0.97715616 0.77812856
8.76772976 -7.76495028 2.00687957 0.97866762 -0.95758951 0.76775181
8.77455521 -7.69761181 2.00001240 0.97942948 -0.94928521 0.76512474
8.74454021 -7.30932665 2.55369449 0.97607917 -0.90140110 0.97694135
8.65753269 -8.07724285 2.58588004 0.96636724 -0.99610209 0.98925424
8.74071312 -7.57151937 1.98112845 0.97565198 -0.93373525 0.75790048
8.87917519 -7.32732296 2.57982516 0.99110734 -0.90362042 0.98693788
8.80131626 -8.10885048 2.61396909 0.98241657 -1.00000000 1.00000000
8.75362301 -7.48705626 1.97323143 0.97709298 -0.92331904 0.75487942
8.92049599 -7.26770115 2.57849646 0.99571961 -0.89626777 0.98642957
8.63579559 -7.65174007 1.26931608 0.96394092 -0.94362819 0.48558956
8.81185150 -7.88682127 1.96487308 0.98359257 -0.97261888 0.75168180
8.70315552 -7.61428881 1.27246594 0.97145975 -0.93900967 0.48679456
8.74467373 -7.72793198 1.93854046 0.97609407 -0.95302433 0.74160802
8.82154274 -7.62032747 1.28385389 0.98467433 -0.93975437 0.49115112
8.73668003 -7.62346745 1.92587411 0.97520179 -0.94014156 0.73676240
8.89372444 -7.42625618 2.52970243 0.99273133 -0.91582108 0.96776295
8.56910419 -8.06381893 2.48234916 0.95649672 -0.99444664 0.94964749
8.78440666 -7.56842279 1.92587411 0.98052913 -0.93335336 0.73676240
8.93268681 -7.36400509 2.52754188 0.99708039 -0.90814412 0.96693641
8.72579002 -8.10815334 2.51330304 0.97398627 -0.99991405 0.96148920
8.83928585 -7.51948214 1.92754078 0.98665482 -0.92731792 0.73740000
8.76645947 -8.04392910 2.51037502 0.97852582 -0.99199378 0.96036905
8.75719261 -7.71468306 1.21974277 0.97749144 -0.95139045 0.46662480
8.84141064 -7.69086170 1.22529280 0.98689198 -0.94845277 0.46874800
8.53668499 -7.83220100 1.55255556 0.95287806 -0.96588302 0.59394562
8.83990097 -7.59235764 1.21766162 0.98672348 -0.93630505 0.46582863
8.56222439 -7.75719118 1.54793143 0.95572877 -0.95663267 0.59217662
8.76590729 -7.84151316 1.57827711 0.97846419 -0.96703142 0.60378569
8.73627186 -7.71697950 1.56295979 0.97515625 -0.95167369 0.59792590
8.69212055 -7.72746515 1.84834027 0.97022802 -0.95296681 0.70710105
8.77701473 -7.67962694 1.56382680 0.97970402 -0.94706726 0.59825760
8.69134045 -7.65386391 1.84035206 0.97014093 -0.94389015 0.70404506
8.86168385 -7.48906612 2.44721222 0.98915493 -0.92356694 0.93620551
8.81909466 -7.61916351 1.56267083 0.98440105 -0.93961078 0.59781533
8.73478222 -7.59522533 1.83939350 0.97498995 -0.93665868 0.70367837
8.89051723 -7.41823483 2.44219279 0.99237335 -0.91483188 0.93428528
8.61568260 -8.00110817 2.37453890 0.96169585 -0.98671299 0.90840358
8.52745724 -7.82388830 1.49223197 0.95184803 -0.96485788 0.57086825
8.80783558 -7.56201220 1.84482551 0.98314428 -0.93256277 0.70575643
8.91578770 -7.34485579 2.43633652 0.99519408 -0.90578264 0.93204486
8.74940681 -8.02376747 2.39781976 0.97662240 -0.98950738 0.91730994
8.75017643 -7.58877945 1.16393900 0.97670829 -0.93586379 0.44527650
8.55153656 -7.74750614 1.48748577 0.95453578 -0.95543826 0.56905252
8.83154964 -7.99762392 2.40665030 0.98579127 -0.98628330 0.92068815
8.90200424 -7.62266493 1.17936230 0.99365556 -0.94004261 0.45117682
8.74593925 -7.82460165 1.51512492 0.97623533 -0.96494585 0.57962620
8.95884323 -7.57426548 1.18070340 1.00000000 -0.93407387 0.45168990
8.71490479 -7.69855356 1.50004900 0.97277123 -0.94940132 0.57385874
8.76745510 -7.67177439 1.50312006 0.97863698 -0.94609886 0.57503361
8.81847763 -7.61913061 1.50367844 0.98433214 -0.93960673 0.57524723
8.75485706 -7.68530512 1.09175611 0.97723073 -0.94776750 0.41766220
8.68665028 -7.72705936 1.74157560 0.96961743 -0.95291674 0.66625714
8.77145767 -7.60273361 1.08734488 0.97908372 -0.93758464 0.41597465
8.58966637 -7.80790758 1.43167377 0.95879191 -0.96288711 0.54770112
8.70239925 -7.64356661 1.73493314 0.97137535 -0.94262022 0.66371602
8.76593113 -7.37879705 2.31312609 0.97846687 -0.90996832 0.88490951
8.83716011 -7.56302166 1.08986557 0.98641753 -0.93268728 0.41693896
8.62969112 -7.74585581 1.43006456 0.96325952 -0.95523477 0.54708546
8.73534012 -7.57575750 1.73191381 0.97505224 -0.93425786 0.66256094
8.92045307 -7.41393232 2.34202623 0.99571484 -0.91430128 0.89596552
8.91636086 -7.53436089 1.09427691 0.99525803 -0.92915279 0.41862658
8.69898701 -7.70984888 1.43381929 0.97099447 -0.95079428 0.54852188
8.88023281 -7.60448027 1.75153935 0.99122536 -0.93780005 0.67006886
8.73381329 -7.64331627 1.43140554 0.97488183 -0.94258934 0.54759848
8.72456074 -8.02362919 2.28085136 0.97384900 -0.98949033 0.87256247
8.79373264 -7.62280321 1.43569660 0.98157012 -0.94005966 0.54924011
8.78790092 -7.98050737 2.28430176 0.98091918 -0.98417246 0.87388247
8.93042469 -7.64328146 1.45151997 0.99682790 -0.94258505 0.55529344
8.81006145 -7.66197062 1.03695989 0.98339278 -0.94488984 0.39669937
8.84744453 -7.59740829 1.03555751 0.98756552 -0.93692791 0.39616287
8.58266735 -7.69577026 1.33927119 0.95801067 -0.94905812 0.51235157
8.92692757 -7.56863737 1.03976476 0.99643755 -0.93337983 0.39777240
8.62491989 -7.63642168 1.33825362 0.96272695 -0.94173914 0.51196229
8.68016815 -7.61273146 1.34156060 0.96889383 -0.93881756 0.51322740
8.80549431 -7.53011370 2.22871256 0.98288298 -0.92862898 0.85261625
8.77724075 -7.60098410 1.34995544 0.97972924 -0.93736887 0.51643896
8.81358051 -7.44178247 2.21874475 0.98378557 -0.91773582 0.84880298
8.94074726 -7.64515638 1.36954319 0.99798012 -0.94281632 0.52393246
8.87979317 -7.40256357 2.22372866 0.99117631 -0.91289926 0.85070962
8.78887749 -7.96902657 2.17382240 0.98102814 -0.98275661 0.83161747
8.80220795 -7.88079596 2.16467404 0.98251611 -0.97187585 0.82811767
8.78111935 -7.59223223 2.12625146 0.98016220 -0.93628961 0.81341875
8.80177212 -7.51388264 2.11966491 0.98246747 -0.92662734 0.81089902
8.85181141 -7.46097136 2.12039661 0.98805296 -0.92010224 0.81117892
