-0.71005642 -9.07964802 2.03374171 -0.84099042 -0.97571981 0.80940986
-0.65177423 -9.06641960 2.02975583 -0.77196103 -0.97429824 0.80782354
-0.59590518 -9.08785439 2.03374171 -0.70578974 -0.97660166 0.80940986
-0.53912622 -9.09726048 2.03507042 -0.63854080 -0.97761250 0.80993867
-0.70709920 -9.00056744 1.53924096 -0.83748788 -0.96722162 0.61260325
-0.63650399 -8.80435181 1.50421953 -0.75387496 -0.94613582 0.59866506
-0.58705640 -8.90059471 1.52035689 -0.69530928 -0.95647830 0.60508758
-0.52976710 -8.88050270 1.51623678 -0.62745583 -0.95431918 0.60344779
-0.32464725 -9.10743713 2.03507042 -0.38451201 -0.97870606 0.80993867
-0.47426054 -8.88955879 1.51726675 -0.56171393 -0.95529234 0.60385776
-0.26641279 -9.07225418 2.02665567 -0.31553918 -0.97492522 0.80658966
-0.41592982 -8.83724976 1.50765312 -0.49262705 -0.94967109 0.60003161
-0.20899896 -9.05424976 2.02222657 -0.24753825 -0.97299045 0.80482697
-0.37546325 -8.86864281 1.51280332 -0.44469845 -0.95304471 0.60208136
-0.16670693 -9.07853508 2.02754140 -0.19744760 -0.97560018 0.80694222
-0.64595562 -8.97200108 1.95625830 -0.76506948 -0.96415180 0.77857220
-0.32013163 -8.88264179 1.51486337 -0.37916371 -0.95454907 0.60290122
-0.59777892 -9.09667492 1.98305070 -0.70800900 -0.97754955 0.78923535
-0.26755947 -9.00265217 1.53546417 -0.31689727 -0.96744561 0.61110014
-0.54241365 -9.12948704 1.98953271 -0.64243442 -0.98107558 0.79181510
-0.60128707 -8.77624512 1.45288682 -0.71216404 -0.94311541 0.57823515
-0.55629116 -8.93728447 1.47955287 -0.65887094 -0.96042109 0.58884799
-0.51428688 -8.94177532 1.47988617 -0.60912108 -0.96090370 0.58898062
-0.32049671 -8.96411133 1.95064044 -0.37959611 -0.96330398 0.77633637
-0.45704094 -8.92513752 1.47655296 -0.54131901 -0.95911574 0.58765405
-0.26714051 -9.05963326 1.97138298 -0.31640106 -0.97356898 0.78459167
-0.37333044 -9.18187237 0.98267877 -0.44217238 -0.98670506 0.39109680
-0.39983848 -8.90419483 1.47255301 -0.47356847 -0.95686519 0.58606207
-0.21065930 -9.07870197 1.97527218 -0.24950476 -0.97561812 0.78613955
-0.31588721 -9.19197464 0.98364794 -0.37413663 -0.98779064 0.39148253
-0.34412599 -8.91244316 1.47355294 -0.40758264 -0.95775157 0.58646005
-0.15454745 -9.12865639 1.98607564 -0.18304592 -0.98098636 0.79043925
-0.25617599 -9.11836243 0.97444069 -0.30341470 -0.97988015 0.38781813
-0.84430975 -8.87281799 2.35370517 -1.00000000 -0.95349336 0.93675226
-0.29207656 -9.02873802 1.49288583 -0.34593531 -0.97024888 0.59415436
-0.19934526 -9.14361095 0.97734821 -0.23610441 -0.98259342 0.38897529
-0.80336446 -9.04924202 2.39977884 -0.95150441 -0.97245228 0.95508915
-0.23818843 -9.13092804 1.50988531 -0.28211024 -0.98123044 0.60092002
-0.57601637 -8.88674736 1.87038159 -0.68223345 -0.95499027 0.74439406
-0.15652049 -9.16231441 0.97952890 -0.18538278 -0.98460329 0.38984320
-0.76386112 -9.09143543 2.41013265 -0.90471667 -0.97698647 0.95920986
-0.54643250 -9.10218620 1.91597593 -0.64719433 -0.97814178 0.76254022
-0.09920473 -9.19289494 0.98316336 -0.11749803 -0.98788959 0.39128968
-0.70788610 -9.11146641 2.41427398 -0.83841991 -0.97913909 0.96085811
-0.49063939 -9.13278484 1.92183208 -0.58111304 -0.98142999 0.76487088
-0.33899522 -9.19113445 0.93183929 -0.40150574 -0.98770040 0.37086317
-0.08014044 -9.22589397 2.51262283 -0.09491830 -0.99143571 1.00000000
-0.60675126 -8.93861485 1.41601765 -0.71863586 -0.96056402 0.56356156
-0.28091362 -9.18315506 0.93068302 -0.33271393 -0.98684287 0.37040299
-0.02202912 -9.19536972 2.50410628 -0.02609128 -0.98815548 0.99661052
-0.55268008 -8.97772598 1.42176914 -0.65459400 -0.96476704 0.56585062
-0.37272075 -9.05810356 1.90468192 -0.44145024 -0.97340459 0.75804532
-0.22178717 -9.13112068 0.92443931 -0.26268461 -0.98125118 0.36791804
-0.49375352 -8.93370438 1.41410053 -0.58480138 -0.96003634 0.56279856
-0.31522635 -9.04267406 1.90091729 -0.37335390 -0.97174650 0.75654703
-0.16453119 -9.13829231 0.92513311 -0.19487065 -0.98202187 0.36819419
-0.41141531 -9.03486061 1.18147123 -0.48728007 -0.97090685 0.47021431
-0.43761203 -8.93663025 1.41410053 -0.51830745 -0.96035075 0.56279856
-0.25783765 -9.02297020 1.89631593 -0.30538279 -0.96962905 0.75471574
-0.10741545 -9.16099548 0.92767680 -0.12722281 -0.98446161 0.36920655
-0.35120165 -8.94431782 1.16788793 -0.41596305 -0.96117687 0.46480829
-0.37882361 -8.87410450 1.40355599 -0.44867846 -0.95363164 0.55860192
-0.20133580 -9.03418827 1.89840746 -0.23846202 -0.97083455 0.75554812
-0.31230429 -9.04675007 1.18262720 -0.36989301 -0.97218448 0.47067440
-0.33763483 -8.89354801 1.40643179 -0.39989451 -0.95572108 0.55974650
-0.25746083 -9.12568951 1.19389844 -0.30493647 -0.98066753 0.47516024
-0.80276680 -8.95516205 2.29140997 -0.95079654 -0.96234226 0.91195941
-0.28528622 -9.01587486 1.42592311 -0.33789283 -0.96886659 0.56750387
-0.57099754 -9.00264263 1.81379521 -0.67628914 -0.96744460 0.72187322
-0.33476821 -9.20739365 0.89749700 -0.39649928 -0.98944765 0.35719526
-0.20046848 -9.14493465 1.19649959 -0.23743476 -0.98273563 0.47619545
-0.75787777 -9.09314442 2.32597351 -0.89763004 -0.97717017 0.92571533
-0.22986349 -9.07078171 1.43455040 -0.27225021 -0.97476697 0.57093740
-0.52034467 -9.10580158 1.83426619 -0.61629593 -0.97853029 0.73002052
-0.27679953 -9.20534134 0.89704990 -0.32784122 -0.98922706 0.35701734
-0.14329752 -9.16778088 1.19967866 -0.16972151 -0.98519075 0.47746071
-0.46436754 -9.13237000 1.83908296 -0.54999667 -0.98138541 0.73193753
-0.21809830 -9.16715908 0.89257944 -0.25831550 -0.98512393 0.35523814
-0.39952981 -8.96762657 1.12622321 -0.47320288 -0.96368170 0.44822612
-0.40121034 -9.01180553 1.81379521 -0.47519329 -0.96842927 0.72187322
-0.16016126 -9.14648914 0.89012063 -0.18969491 -0.98290271 0.35425955
-0.34437996 -8.99964142 1.13041103 -0.40788344 -0.96712208 0.44989285
-0.09167276 -9.18482971 2.42669845 -0.10857716 -0.98702288 0.96580291
-0.52195644 -8.81504154 1.31464279 -0.61820495 -0.94728458 0.52321535
-0.34259853 -8.96520615 1.80376053 -0.40577352 -0.96342158 0.71787953
-0.30295867 -9.02887249 1.13431954 -0.35882407 -0.97026336 0.45144838
-0.04836581 -9.17743301 2.42462754 -0.05728444 -0.98622799 0.96497869
-0.49319106 -9.04242706 1.34906316 -0.58413523 -0.97171992 0.53691429
-0.30111769 -8.98826027 1.80817580 -0.35664362 -0.96589905 0.71963680
-0.24780069 -9.08404541 1.14185750 -0.29349500 -0.97619236 0.45444843
0.00928580 -9.17369175 2.42359233 0.01099809 -0.98582596 0.96456671
-0.43088281 -8.93674660 1.33245683 -0.51033735 -0.96036327 0.53030515
-0.24550310 -9.01935101 1.81419671 -0.29077372 -0.96924013 0.72203302
-0.19209927 -9.14482021 1.15023303 -0.22752227 -0.98272336 0.45778182
0.06709062 -9.19083786 2.42825150 0.07946210 -0.98766851 0.96642101
-0.37463614 -8.93730259 1.33215487 -0.44371885 -0.96042305 0.53018498
0.12443998 -9.16512394 2.42152143 0.14738666 -0.98490524 0.96374249
-0.32079574 -9.00072479 1.34151483 -0.37995031 -0.96723855 0.53391016
-0.26529852 -9.03615665 1.34664762 -0.31421942 -0.97104609 0.53595293
-0.36987525 -9.03383350 1.08436418 -0.43808004 -0.97079647 0.43156663
-0.78122783 -8.92527294 2.19511080 -0.92528582 -0.95913029 0.87363321
-0.20926856 -9.06729221 1.35117662 -0.24785756 -0.97439200 0.53775543
-0.57954341 -8.82301044 1.69275689 -0.68641090 -0.94814092 0.67370117
-0.32736766 -9.03745747 1.08463240 -0.38773409 -0.97118592 0.43167338
-0.75006086 -9.06427288 2.22892046 -0.88837165 -0.97406757 0.88708913
-0.16780059 -9.12945366 1.36053658 -0.19874293 -0.98107201 0.54148060
-0.52476674 -8.83823586 1.69505703 -0.62153345 -0.94977707 0.67461658
-0.27277133 -9.11858273 1.09536004 -0.32307020 -0.97990382 0.43594289
-0.15439060 -9.00136471 2.29441547 -0.18286015 -0.96730727 0.91315556
-0.69969809 -9.15783882 2.25113821 -0.82872206 -0.98412234 0.89593160
-0.47041881 -8.86488342 1.69965756 -0.55716377 -0.95264071 0.67644757
-0.21615088 -9.15182018 1.09965110 -0.25600898 -0.98347557 0.43765068
-0.09960973 -9.13768291 2.32947993 -0.11797772 -0.98195636 0.92711085
-0.41802400 -8.94218159 1.71422577 -0.49510741 -0.96094733 0.68224555
-0.16095011 -9.30558968 1.12030196 -0.19062921 -1.00000000 0.44586954
-0.36190563 -8.94659328 1.71460915 -0.42864084 -0.96142143 0.68239814
-0.30618620 -8.96438503 1.71767616 -0.36264676 -0.96333337 0.68361878
-0.35951146 -9.10634518 1.02968276 -0.42580518 -0.97858870 0.40980396
-0.25035793 -8.98575497 1.72150981 -0.29652378 -0.96562982 0.68514454
-0.30193678 -9.09851170 1.02841079 -0.35761374 -0.97774690 0.40929770
-0.67205286 -8.80034256 1.60846150 -0.79597902 -0.94570500 0.64015239
-0.25966665 -9.11966133 1.03095472 -0.30754903 -0.98001969 0.41031018
-0.62284827 -8.88871956 1.62419641 -0.73770118 -0.95520216 0.64641476
-0.20274876 -9.13697815 1.03298974 -0.24013552 -0.98188061 0.41112009
-0.56465417 -8.85714245 1.61760962 -0.66877609 -0.95180881 0.64379323
-0.14547965 -9.14600563 1.03400731 -0.17230602 -0.98285073 0.41152507
-0.74458438 -9.12557220 2.14444804 -0.88188535 -0.98065490 0.85346991
-0.50899231 -8.86051464 1.61760962 -0.60285020 -0.95217121 0.64379323
-0.19149436 -8.97676373 2.19994068 -0.22680582 -0.96466362 0.87555546
-0.68197018 -9.06217575 2.12824202 -0.80772513 -0.97384220 0.84702009
-0.45299560 -8.85764790 1.61651194 -0.53652775 -0.95186317 0.64335638
-0.13647731 -9.08646584 2.22698855 -0.16164365 -0.97645247 0.88632029
-0.40066603 -8.93102551 1.62968540 -0.47454864 -0.95974845 0.64859927
-0.07942087 -9.09296608 2.22843742 -0.09406604 -0.97715098 0.88689691
-0.36007527 -8.96817493 1.63627207 -0.42647293 -0.96374065 0.65122074
-0.30166116 -8.91327667 1.62566018 -0.35728732 -0.95784116 0.64699727
-0.23732476 -8.98933029 2.10555363 -0.28108731 -0.96601403 0.83799034
-0.19673119 -9.06426334 2.12314868 -0.23300833 -0.97406650 0.84499300
-0.14046244 -9.10422707 2.13240933 -0.16636364 -0.97836113 0.84867865
