1.93775916 -10.20245457 2.32383466 0.77136219 -0.95097387 0.88838422
2.04435134 -10.40433693 2.37343836 0.81379324 -0.96979141 0.90734732
2.01979160 -10.64915752 1.85477674 0.80401677 -0.99261117 0.70906693
2.29809713 -10.71057415 2.45315862 0.91480160 -0.99833584 0.93782377
2.07211018 -10.56281281 1.84172964 0.82484317 -0.98456299 0.70407915
2.36152601 -10.67879105 2.44917250 0.94005072 -0.99537331 0.93629992
2.12223887 -10.47044277 1.82765234 0.84479785 -0.97595310 0.69869751
2.43905449 -10.70936298 2.45980191 0.97091240 -0.99822295 0.94036341
2.17861867 -10.41256332 1.81975543 0.86724091 -0.97055817 0.69567859
2.51212621 -10.71850204 2.46555948 1.00000000 -0.99907482 0.94256449
2.24693441 -10.41214561 1.82215881 0.89443535 -0.97051924 0.69659734
2.32093883 -10.43627262 1.82902575 0.92389423 -0.97276813 0.69922256
1.96319592 -10.28781700 2.28338504 0.78148776 -0.95893055 0.87292063
2.04470396 -10.44907570 2.32184505 0.81393361 -0.97396147 0.88762361
2.23001719 -10.68454266 2.38104773 0.88770109 -0.99590945 0.91025633
2.07099891 -10.46958447 1.16367459 0.82440084 -0.97587311 0.44486389
1.99650288 -10.35931301 1.74921227 0.79474622 -0.96559471 0.66871047
2.30240202 -10.69514751 2.38666558 0.91651529 -0.99689794 0.91240400
2.13272810 -10.43692207 1.16125166 0.84897333 -0.97282863 0.44393763
2.09589863 -10.52069187 1.77921140 0.83431262 -0.98063684 0.68017888
2.37878275 -10.72242832 2.39617252 0.94692010 -0.99944079 0.91603839
2.21479821 -10.50098610 1.17094350 0.88164288 -0.97880006 0.44764274
2.15920377 -10.49378967 1.77687812 0.85951245 -0.97812933 0.67928690
2.27186370 -10.52534866 1.17530489 0.90435892 -0.98107094 0.44931006
2.20782471 -10.47963715 1.77621150 0.87886697 -0.97681016 0.67903203
2.28151107 -10.50218773 1.78254473 0.90819925 -0.97891212 0.68145323
2.13139319 -10.60031986 1.11984372 0.84844190 -0.98805898 0.42810768
1.96946347 -10.32292843 2.21338463 0.78398269 -0.96220326 0.84615999
2.17074275 -10.45440006 1.10411894 0.86410576 -0.97445780 0.42209622
2.06410408 -10.45995712 2.24601173 0.82165623 -0.97497576 0.85863310
2.25370669 -10.52217388 1.11383128 0.89713115 -0.98077500 0.42580917
2.16882467 -10.63642597 2.28742313 0.86334223 -0.99142450 0.87446433
2.23142767 -10.68541336 2.30039024 0.88826257 -0.99599057 0.87942159
2.12137628 -10.72842789 1.45776141 0.84445453 -1.00000000 0.55729103
2.05245686 -10.57022572 1.70870614 0.81701982 -0.98525393 0.65322530
2.16875863 -10.61797619 1.44331110 0.86331594 -0.98970479 0.55176675
2.11569333 -10.54164124 1.70614994 0.84219229 -0.98258954 0.65224808
2.21442556 -10.50542068 1.42857182 0.88149452 -0.97921342 0.54613209
2.17460871 -10.49335575 1.70039845 0.86564469 -0.97808886 0.65004933
2.28081298 -10.49323273 1.42886078 0.90792131 -0.97807741 0.54624254
2.22425604 -10.40421963 1.68793678 0.88540775 -0.96978045 0.64528531
2.21637583 -10.61223602 1.08056414 0.88227087 -0.98916972 0.41309139
2.35629368 -10.52116203 1.43521893 0.93796790 -0.98068070 0.54867321
2.28444052 -10.36691189 1.68410242 0.90936536 -0.96630299 0.64381945
2.39976716 -10.57174778 1.72052872 0.95527333 -0.98539579 0.65774494
2.02264619 -10.47301960 2.15096402 0.80515307 -0.97619331 0.82229710
2.12242770 -10.72316360 1.40177667 0.84487301 -0.99950933 0.53588849
2.06481481 -10.42683983 2.14333749 0.82193911 -0.97188890 0.81938154
2.18032646 -10.66303158 1.39507627 0.86792076 -0.99390441 0.53332698
1.94338417 -10.63340092 1.61687744 0.77360135 -0.99114251 0.61811984
2.18552589 -10.68634319 2.20033503 0.86999047 -0.99607730 0.84117121
2.21890974 -10.51342678 1.37553346 0.88327956 -0.97995967 0.52585590
1.97084451 -10.41110611 1.58426869 0.78453243 -0.97042233 0.60565376
2.28408837 -10.49540615 1.37497520 0.90922517 -0.97827995 0.52564251
2.05728769 -10.50721169 1.60117698 0.81894279 -0.97938037 0.61211771
2.12598419 -10.50764751 1.60329044 0.84628874 -0.97942102 0.61292565
2.18835807 -10.47665787 1.60057306 0.87111789 -0.97653246 0.61188680
2.22336483 -10.39853287 1.59000540 0.88505298 -0.96925038 0.60784692
2.15704441 -10.65254688 1.33163786 0.85865289 -0.99292713 0.50907499
2.29076552 -10.39401627 1.59151506 0.91188312 -0.96882939 0.60842401
2.21043086 -10.57478905 1.32278752 0.87990439 -0.98567927 0.50569153
2.28778505 -10.61104393 1.32976043 0.91069669 -0.98905861 0.50835723
2.00441384 -10.46353340 2.04661036 0.79789537 -0.97530913 0.78240347
2.06126118 -10.40646267 2.03779268 0.82052451 -0.96998954 0.77903253
2.13494635 -10.43367481 2.04584360 0.84985632 -0.97252595 0.78211033
1.95691407 -10.46849728 2.61579919 0.77898717 -0.97577178 1.00000000
2.13505745 -10.50349236 1.23548150 0.84990054 -0.97903371 0.47231510
2.00622368 -10.45915985 2.61579919 0.79861581 -0.97490144 1.00000000
2.20302868 -10.49958134 1.23675334 0.87695777 -0.97866917 0.47280133
2.27519369 -10.51462746 1.24056923 0.90568447 -0.98007160 0.47426012
2.00237203 -10.47672653 1.95097136 0.79708260 -0.97653884 0.74584144
2.06249571 -10.43499374 1.94548237 0.82101595 -0.97264892 0.74374300
2.12763000 -10.41990089 1.94511652 0.84694391 -0.97124213 0.74360317
1.94833267 -10.48428726 2.50329471 0.77557117 -0.97724360 0.95699042
2.19868279 -10.43327427 1.95023954 0.87522781 -0.97248864 0.74556166
2.00689149 -10.43361187 2.49403405 0.79888165 -0.97252011 0.95345014
2.26874566 -10.44039726 1.95426476 0.90311772 -0.97315258 0.74710047
2.33813286 -10.44321251 1.95755804 0.93073863 -0.97341502 0.74835944
2.45080781 -10.65403175 2.56719255 0.97559106 -0.99306554 0.98141807
