-2.38131762 7.99983454 1.86101472 -0.78112864 0.93887323 0.96486783
-2.70959973 8.19721413 1.92611957 -0.88881296 0.96203804 0.99862230
-2.76105046 8.18002701 1.92611957 -0.90569001 0.96002096 0.99862230
-2.80791450 8.14962006 1.92301929 -0.92106253 0.95645231 0.99701494
-2.86362290 8.14468575 1.92611957 -0.93933618 0.95587325 0.99862230
-2.34687209 8.01425838 1.81365347 -0.76982969 0.94056606 0.94031274
-2.70024824 8.17832279 1.46679473 -0.88574547 0.95982093 0.76047921
-2.90593147 8.14211273 1.92877686 -0.95321441 0.95557123 1.00000000
-2.54027152 8.39481449 0.62951046 -0.83326930 0.98522872 0.32637808
-2.68312049 7.95971489 1.42971337 -0.88012713 0.93416476 0.74125391
-2.55380058 8.25315952 0.61799777 -0.83770716 0.96860391 0.32040915
-2.72533250 7.92036104 1.42559314 -0.89397365 0.92954612 0.73911768
-2.56201887 8.10028172 0.60543853 -0.84040290 0.95066190 0.31389764
-2.77767253 7.91051102 1.42696655 -0.91114247 0.92839009 0.73982978
-2.49747896 8.16279030 0.90296310 -0.81923229 0.95799798 0.46815321
-2.58385110 7.99499035 0.59724009 -0.84756440 0.93830472 0.30964705
-2.83534789 7.91514158 1.43108666 -0.93006134 0.92893356 0.74196589
-2.52064633 8.05795193 0.89157510 -0.82683176 0.94569403 0.46224895
-2.62270856 7.94457006 0.59410030 -0.86031061 0.93238735 0.30801919
-2.72533774 8.19872475 1.87760949 -0.89397538 0.96221530 0.97347158
-2.55599737 7.99471807 0.88551772 -0.83842772 0.93827277 0.45910844
-2.66488099 7.90529728 0.59200710 -0.87414414 0.92777824 0.30693394
-2.77492785 8.17588711 1.87631309 -0.91024214 0.95953506 0.97279948
-2.58684444 7.96183157 0.88285244 -0.84854633 0.93441319 0.45772657
-2.65731430 8.12811565 0.31762013 -0.87166208 0.95392853 0.16467437
-2.70210409 7.89265156 0.59200710 -0.88635421 0.92629409 0.30693394
-2.54547238 8.36320782 0.58241224 -0.83497530 0.98151934 0.30195937
-2.82100844 8.18489265 1.88149881 -0.92535764 0.96059197 0.97548807
-2.63366938 7.93600750 0.88164097 -0.86390597 0.93138242 0.45709848
-2.70769501 8.10936546 0.31751370 -0.88818818 0.95172799 0.16461921
-2.76752353 7.92062044 0.59619349 -0.90781331 0.92957658 0.30910444
-2.53506136 8.14326191 0.56482887 -0.83156025 0.95570612 0.29284304
-2.69118094 7.94184780 0.88454849 -0.88277113 0.93206787 0.45860592
-2.74237108 8.04497242 0.31485325 -0.89956272 0.94417071 0.16323985
-2.83811498 7.96120262 0.60160094 -0.93096900 0.93433934 0.31190801
-2.56098175 8.04733753 0.55792695 -0.84006274 0.94444829 0.28926465
-3.04856014 7.77203321 1.42078626 -1.00000000 0.91213816 0.73662549
-2.65698957 7.94215202 1.38155544 -0.87155557 0.93210357 0.71628577
-2.34662390 8.04400063 1.75785983 -0.76974827 0.94405669 0.91138577
-2.70573878 7.82355165 0.87146449 -0.88754648 0.91818440 0.45182234
-2.54023790 8.18239594 0.85853368 -0.83325827 0.96029896 0.44511819
-2.79881167 8.04454517 0.31581101 -0.91807657 0.94412059 0.16373642
-2.59008026 7.96469259 0.55217540 -0.84960771 0.93474895 0.28628269
-2.69987750 7.90475607 1.37788892 -0.88562381 0.92771471 0.71438485
-2.39937544 8.03658867 1.75953305 -0.78705204 0.94318676 0.91225332
-2.75284624 7.80078506 0.87073755 -0.90299881 0.91551250 0.45144546
-2.54030681 8.00330925 0.83864641 -0.83328086 0.93928105 0.43480739
-2.86813402 8.07945538 0.31879073 -0.94081593 0.94821769 0.16528130
-2.63633013 7.93690252 0.55118942 -0.86477876 0.93148744 0.28577149
-2.74626803 7.87831783 1.37622225 -0.90084100 0.92461187 0.71352071
-2.44348931 8.00079441 1.75493181 -0.80152243 0.93898588 0.90986770
-2.80519032 7.79266596 0.87194908 -0.92016894 0.91455960 0.45207357
-2.58445954 7.96827841 0.83633393 -0.84776402 0.93516976 0.43360844
-2.67597723 7.88995457 0.54856008 -0.87778395 0.92597759 0.28440827
-2.81409001 7.91297674 1.38555539 -0.92308825 0.92867947 0.71835959
-2.57596588 8.24644375 1.81349325 -0.84497786 0.96781570 0.94022965
-2.61827707 7.94468117 0.83494639 -0.85885698 0.93240035 0.43288904
-2.72408438 7.90932131 0.55135375 -0.89356428 0.92825049 0.28585669
-2.64675450 7.86400557 0.82708400 -0.86819822 0.92293215 0.42881268
-2.48521471 8.12650108 1.10170543 -0.81520933 0.95373905 0.57119381
-2.70362210 8.06553936 0.26750553 -0.88685215 0.94658446 0.13869180
-2.82032585 8.02567673 0.56302124 -0.92513376 0.94190615 0.29190585
-2.57241321 8.33411312 0.53199518 -0.84381253 0.97810471 0.27581996
-2.68906307 7.82653618 0.82454026 -0.88207644 0.91853470 0.42749387
-2.51599050 8.04655457 1.09187925 -0.82530451 0.94435638 0.56609929
-2.75809932 8.05974293 0.26807693 -0.90472198 0.94590420 0.13898805
-2.57878327 8.17336464 0.52034909 -0.84590203 0.95923901 0.26978189
-2.72363973 8.21740055 1.81725800 -0.89341837 0.96440715 0.94218159
-2.73296356 7.79447556 0.82269031 -0.89647686 0.91477203 0.42653471
-2.58932281 8.52067566 0.86285055 -0.84935927 1.00000000 0.44735634
-2.55314445 7.98914766 1.08552110 -0.83749193 0.93761903 0.56280285
-2.81457305 8.05924320 0.26893398 -0.92324668 0.94584554 0.13943240
-2.59988070 8.06407452 0.51284039 -0.85282248 0.94641256 0.26588893
-2.76259065 8.16310406 1.80889201 -0.90619522 0.95803481 0.93784410
-2.82440996 7.89696836 0.83749014 -0.92647344 0.92680073 0.43420789
-2.52873302 8.14009476 0.81993371 -0.82948440 0.95533442 0.42510554
-2.60514760 7.97858763 1.08638811 -0.85455018 0.93637967 0.56325233
-2.63164663 7.99080372 0.50824320 -0.86324251 0.93781340 0.26350546
-3.04327393 7.81076431 1.38288879 -0.99826598 0.91668367 0.71697706
-2.82732797 8.18437386 1.81767631 -0.92743063 0.96053112 0.94239843
-2.33445048 8.09319019 1.69137096 -0.76575512 0.94982964 0.87691379
-2.55255628 8.03886890 0.80987507 -0.83729899 0.94345438 0.41989049
-2.65081239 7.94893074 1.08436501 -0.86952931 0.93289912 0.56220347
-2.67924094 7.96655655 0.50763029 -0.87885457 0.93496770 0.26318768
-2.62920594 7.97424650 1.32495189 -0.86244190 0.93587023 0.68693894
-2.38415456 8.07460117 1.69056809 -0.78205919 0.94764799 0.87649751
-2.58672023 8.01541138 0.80853397 -0.84850556 0.94070137 0.41919518
-2.69079900 7.94384193 1.08552110 -0.88264585 0.93230188 0.56280285
-2.71869993 7.95949888 0.50809002 -0.89179802 0.93413943 0.26342604
-2.65412283 7.92435694 1.31856132 -0.87061518 0.93001509 0.68362564
-2.40596318 8.00881958 1.67892778 -0.78921294 0.93992776 0.87046242
-2.63138986 7.98202610 0.80652219 -0.86315829 0.93678325 0.41815215
-2.74065828 7.92677879 1.08552110 -0.89900088 0.93029934 0.56280285
-2.46114039 8.01087952 1.04218924 -0.80731237 0.94016951 0.54033685
-2.68998551 8.09341240 0.22894700 -0.88237900 0.94985569 0.11870062
-2.80831456 8.05514336 0.51728427 -0.92119378 0.94536442 0.26819292
-2.70064378 7.89819145 1.31696367 -0.88587517 0.92694426 0.68279731
-2.45794916 7.99916744 1.68013191 -0.80626559 0.93879497 0.87108672
-2.65722108 7.89381647 0.79802829 -0.87163150 0.92643082 0.41374838
-2.49677539 8.36303043 0.78317416 -0.81900150 0.98149848 0.40604705
-2.80234218 7.94296598 1.09072316 -0.91923469 0.93219906 0.56549990
-2.51672530 8.01227474 1.04470181 -0.82554555 0.94033325 0.54163957
-2.73884463 8.07067871 0.22868910 -0.89840597 0.94718766 0.11856691
-2.59659910 8.19639587 0.46909702 -0.85174608 0.96194202 0.24320959
-2.75283599 7.88851690 1.31824183 -0.90299547 0.92580885 0.68346000
-2.51223946 7.99666071 1.68294168 -0.82407409 0.93850076 0.87254345
-2.69570851 7.84503889 0.79422832 -0.88425630 0.92070621 0.41177824
-2.56541443 8.40047741 0.78905588 -0.84151673 0.98589337 0.40909651
-2.84679651 7.91031790 1.08841109 -0.93381673 0.92836744 0.56430119
-2.55920792 7.97177172 1.04107249 -0.83948088 0.93557978 0.53975785
-2.79871869 8.07972240 0.22989260 -0.91804606 0.94824904 0.11919087
-2.60778999 8.05455303 0.45979673 -0.85541695 0.94529510 0.23838772
-2.80634665 7.88221502 1.32015896 -0.92054826 0.92506927 0.68445396
-2.56718969 7.99565363 1.68615282 -0.84209907 0.93838257 0.87420833
-2.74825811 7.83731604 0.79534596 -0.90149379 0.91979980 0.41235769
-2.53340721 8.11060810 0.75880688 -0.83101761 0.95187384 0.39341351
-2.85663557 7.78461599 1.07164872 -0.93704420 0.91361487 0.55561054
-2.60679483 7.94800138 1.03995574 -0.85509050 0.93279004 0.53917885
-2.86953974 8.11844826 0.23247153 -0.94127709 0.95279396 0.12052795
-2.65585876 8.03042603 0.45923308 -0.87118465 0.94246352 0.23809549
-2.73800349 8.35013866 1.76602972 -0.89813006 0.97998554 0.91562158
-2.83146477 7.95335960 0.81076920 -0.92878759 0.93341887 0.42035407
-2.53515768 7.98285675 0.74599308 -0.83159184 0.93688071 0.38677004
-2.89189768 7.76736212 1.07107067 -0.94861102 0.91158992 0.55531085
-2.64173388 7.92810726 1.03883898 -0.86655134 0.93045521 0.53859985
-2.69051766 8.00835800 0.45852849 -0.88255358 0.93987358 0.23773019
-2.72751212 8.18645954 1.73351705 -0.89468867 0.96077585 0.89876497
-2.59135818 7.98570347 0.74809366 -0.85002691 0.93721479 0.38785911
-2.69972777 7.93574619 1.04246843 -0.88557470 0.93135172 0.54048163
-2.75749207 8.04040051 0.46219227 -0.90452278 0.94363415 0.23962973
-2.56239772 8.08416080 1.26120067 -0.84052718 0.94876993 0.65388626
-2.78453445 8.18586826 1.73712957 -0.91339332 0.96070647 0.90063792
-2.61414981 7.88612843 0.73885095 -0.85750312 0.92552853 0.38306710
-2.75211620 7.92611647 1.04358518 -0.90275937 0.93022162 0.54106063
-2.48951960 8.18977070 1.01919329 -0.81662142 0.96116447 0.52841431
-2.57625484 7.95307875 1.24278283 -0.84507269 0.93338591 0.64433730
-2.65288591 7.83749437 0.73527986 -0.87020946 0.91982079 0.38121560
-2.80646038 7.92174625 1.04553938 -0.92058551 0.92970872 0.54207379
-2.51681447 8.51782322 0.75567484 -0.82557482 0.99966526 0.39178967
-2.46326828 7.92622042 0.98406011 -0.80801040 0.93023378 0.51019907
-3.01431990 7.72880745 1.30865598 -0.98876840 0.90706509 0.67849010
-2.62555766 7.93485641 1.24248087 -0.86124516 0.93124735 0.64418072
-2.70078778 7.81690788 0.73485976 -0.88592243 0.91740471 0.38099781
-2.81472898 7.78837824 1.02823007 -0.92329782 0.91405642 0.53309953
-2.55751872 8.45996475 0.75126719 -0.83892679 0.99287486 0.38950446
-2.54325581 8.00495911 0.99746972 -0.83424819 0.93947470 0.51715142
-2.60623932 8.13810158 0.41971949 -0.85490829 0.95510048 0.21760915
-2.66405249 7.88446045 1.23704612 -0.87387240 0.92533278 0.64136302
-2.78202748 7.89177656 0.74515283 -0.91257095 0.92619139 0.38633439
-2.85952759 7.75937939 1.02655494 -0.93799281 0.91065305 0.53223103
-2.54785371 8.24235058 0.73003060 -0.83575642 0.96733534 0.37849405
-2.59103584 7.98128653 0.99639696 -0.84992117 0.93669641 0.51659524
-2.63981700 8.06849670 0.41607139 -0.86592257 0.94693154 0.21571773
-2.71353912 7.86756611 1.23704612 -0.89010519 0.92335004 0.64136302
-2.40958261 8.04941654 1.60688126 -0.79040021 0.94469225 0.83310896
-2.86030245 7.95468998 0.75418550 -0.93824703 0.93357503 0.39101750
-2.55126381 8.07449722 0.71400297 -0.83687502 0.94763577 0.37018433
-2.63924718 7.95921040 0.99559236 -0.86573565 0.93410558 0.51617807
-2.67899394 8.01770592 0.41372621 -0.87877351 0.94097066 0.21450186
-2.77595448 7.88769245 1.24308479 -0.91057891 0.92571211 0.64449382
-2.43653774 8.00232124 1.59959722 -0.79924214 0.93916512 0.82933241
-2.56353855 7.98287201 0.70558846 -0.84090143 0.93688250 0.36582172
-2.68182230 7.96169853 0.99773788 -0.87970132 0.93439758 0.51729047
-2.71610069 8.00310421 0.41359591 -0.89094543 0.93925697 0.21443430
-2.47677183 7.95501709 1.59307981 -0.81243986 0.93361342 0.82595342
-2.60989618 7.95527172 0.70438635 -0.85610783 0.93364328 0.36519846
-2.72919798 7.93720007 0.99666512 -0.89524162 0.93152237 0.51673430
-2.48821306 8.13436127 0.95184046 -0.81619287 0.95466155 0.49349433
-2.81369233 8.12154579 0.42297670 -0.92295778 0.95315748 0.21929790
-2.52610540 7.93742895 1.59269643 -0.82862246 0.93154925 0.82575464
-2.64199948 7.88592768 0.69877672 -0.86663848 0.92550498 0.36229008
-2.78628278 7.94044971 0.99961525 -0.91396683 0.93190378 0.51826382
-2.50225163 7.99919939 0.93581414 -0.82079786 0.93879873 0.48518530
-2.57837391 7.92886162 1.59422994 -0.84576780 0.93054378 0.82654971
-2.69214416 7.87105322 0.69897705 -0.88308710 0.92375928 0.36239395
-2.54040122 8.36340427 0.67421246 -0.83331186 0.98154241 0.34955442
-2.79308057 7.80346727 0.98245090 -0.91619664 0.91582727 0.50936472
-2.54346919 7.95495462 0.93199831 -0.83431822 0.93360609 0.48320693
-2.92275834 7.71831512 1.22647846 -0.95873404 0.90583372 0.63588405
-2.63437414 7.93111801 1.59806371 -0.86413717 0.93080860 0.82853734
-2.74748969 7.87087727 0.70078015 -0.90124178 0.92373866 0.36332878
-2.53133631 8.14744663 0.65477192 -0.83033830 0.95619726 0.33947521
-2.84000301 7.78018332 0.98164636 -0.93158829 0.91309464 0.50894761
-2.58973265 7.92749357 0.93047202 -0.84949368 0.93038321 0.48241559
-2.65867901 8.07633877 0.36847579 -0.87210977 0.94785190 0.19104117
-3.04545331 7.89365625 1.25818133 -0.99898088 0.92641199 0.65232086
-2.69304395 7.94041252 1.60343087 -0.88338226 0.93189937 0.83132005
-2.83184290 7.95085382 0.71119809 -0.92891163 0.93312478 0.36873010
-2.53820634 7.99082422 0.64107090 -0.83259183 0.93781579 0.33237174
-2.63699794 7.90353203 0.92945445 -0.86499786 0.92757106 0.48188803
-2.70431805 8.04432297 0.36752424 -0.88708043 0.94409448 0.19054782
-2.80574679 8.14459419 1.64828551 -0.92035145 0.95586246 0.85457551
-2.55822492 7.92377377 0.63570160 -0.83915842 0.92994666 0.32958794
-2.69064832 7.93990660 0.93606853 -0.88259643 0.93184000 0.48531717
-2.73835254 8.02014446 0.36681056 -0.89824456 0.94125688 0.19017781
-2.59743571 7.87536716 0.63255411 -0.85202050 0.92426556 0.32795608
-2.70377898 7.81589317 0.92156845 -0.88690358 0.91728562 0.47779942
-2.81478739 8.07825470 0.37156832 -0.92331702 0.94807678 0.19264454
-2.64181852 7.84378147 0.63107288 -0.86657912 0.92055863 0.32718813
-2.74168706 7.76692200 0.91724390 -0.89933836 0.91153830 0.47555730
-2.69683552 7.84399080 0.63273925 -0.88462597 0.92058319 0.32805207
-2.79844308 7.77195978 0.92029655 -0.91795570 0.91212952 0.47713998
-2.51507044 8.01595879 1.52942073 -0.82500273 0.94076562 0.79294848
-2.76636219 7.88519382 0.63847882 -0.90743238 0.92541885 0.33102784
-2.55406475 7.96439600 1.52246809 -0.83779377 0.93471414 0.78934383
-2.84517670 7.95022583 0.64662540 -0.93328542 0.93305111 0.33525154
-2.58370662 7.92794991 1.51771092 -0.84751701 0.93043679 0.78687739
-2.64086533 7.93396473 1.52210212 -0.86626643 0.93114269 0.78915405
-2.68563819 7.90230942 1.51917470 -0.88095301 0.92742753 0.78763634
-2.74547410 7.91502666 1.52502954 -0.90058059 0.92892009 0.79067183
