12.24047947 7.43861961 1.11565900 0.99040025 0.92650306 0.47996929
12.18333244 7.50909472 1.11461234 0.98577636 0.93528098 0.47951901
12.15447903 7.59713888 1.11653113 0.98344177 0.94624716 0.48034447
12.15774822 7.44056702 1.60077834 0.98370630 0.92674565 0.68867320
12.11827374 7.68084002 1.11775219 0.98051232 0.95667237 0.48086980
12.14109230 7.53569746 1.60513961 0.98235863 0.93859440 0.69054943
12.14010715 7.80217028 1.12507844 0.98227894 0.97178447 0.48402163
12.09854126 7.61501265 1.60586655 0.97891575 0.94847339 0.69086218
12.22092915 7.96331739 1.13868427 0.98881841 0.99185580 0.48987502
12.09934235 7.69543266 1.61119711 0.97898054 0.95848995 0.69315547
12.25856781 7.44640875 1.04418182 0.99186379 0.92747325 0.44921899
12.15409946 7.83815718 1.62621951 0.98341107 0.97626674 0.69961828
12.17077446 7.49824953 1.04023778 0.98476028 0.93393016 0.44752222
12.17248726 7.60513115 1.04500341 0.98489887 0.94724262 0.44957244
12.08491707 7.43270206 1.51273382 0.97781336 0.92576605 0.65079540
12.13963032 7.69104195 1.04648244 0.98224032 0.95794308 0.45020872
12.12570572 7.56303120 1.52475870 0.98111367 0.94199896 0.65596867
12.18338680 7.82628584 1.05552065 0.98578078 0.97478813 0.45409709
12.07962704 7.64012909 1.52498996 0.97738534 0.95160168 0.65606815
12.23929405 7.97106504 1.06587350 0.99030429 0.99282080 0.45855099
12.13396454 7.75460863 1.53747737 0.98178190 0.96586049 0.66144037
12.13506317 7.86303282 1.54441476 0.98187083 0.97936505 0.66442490
12.19053745 7.50130939 0.96167535 0.98635936 0.93431127 0.41372374
12.12769032 7.52533579 1.94502640 0.98127425 0.93730384 0.83677262
12.22767735 7.63066149 0.96933728 0.98936439 0.95042247 0.41701999
12.16718960 7.65631819 1.96005476 0.98447019 0.95361811 0.84323800
12.20474529 7.72336960 0.97163588 0.98750889 0.96196955 0.41800889
12.22747517 7.63641119 2.29919553 0.98934805 0.95113862 0.98914027
12.23875237 7.56270361 1.47933304 0.99026048 0.94195813 0.63642603
12.27719116 7.83396721 1.98751032 0.99337065 0.97574484 0.85504973
12.24652481 7.85818195 0.97991073 0.99088937 0.97876090 0.42156881
12.12092686 7.67603397 2.28801203 0.98072702 0.95607376 0.98432899
12.12200546 7.59608507 1.47016847 0.98081428 0.94611591 0.63248330
12.23104763 7.91310644 1.98808837 0.98963708 0.98560190 0.85529840
12.26167393 7.87391949 2.32443833 0.99211514 0.98072106 1.00000000
12.12466049 7.67763424 1.47530961 0.98102909 0.95627308 0.63469511
12.15327930 7.88530588 2.31069851 0.98334467 0.98213923 0.99408895
12.16641045 7.81177664 1.48737991 0.98440719 0.97298092 0.63988787
12.09195995 7.95389986 2.30846190 0.97838324 0.99068284 0.99312675
12.18791485 7.55107975 1.88197112 0.98614711 0.94051033 0.80964553
12.24190140 7.62683249 0.88056517 0.99051529 0.94994557 0.37882921
12.18554688 7.65589142 1.88950908 0.98595554 0.95356494 0.81288844
12.16672897 7.68658876 0.87831050 0.98443294 0.95738840 0.37785923
12.21757221 7.54295444 1.37786150 0.98854679 0.93949831 0.59277183
12.26927280 7.81617975 1.91156459 0.99272996 0.97352934 0.82237697
12.11314869 7.75966120 0.87788779 0.98009765 0.96648979 0.37767738
12.12775517 7.59324360 1.37260985 0.98127949 0.94576198 0.59051245
12.22658062 7.89740372 1.91268122 0.98927563 0.98364604 0.82285738
12.08847427 7.64818764 1.37218976 0.97810119 0.95260543 0.59033173
12.11527634 7.55019999 2.14616537 0.98026979 0.94040078 0.92330492
11.97483253 7.68219900 1.36399734 0.96890622 0.95684165 0.58680731
12.19975090 7.70942450 2.17001820 0.98710483 0.96023268 0.93356669
11.92132092 7.75404072 1.36336720 0.96457654 0.96578974 0.58653617
12.21031761 7.54805899 1.80338883 0.98795980 0.94013411 0.77583855
12.24770832 7.84765434 2.18753028 0.99098516 0.97744960 0.94110060
12.18278408 7.63729000 1.80660713 0.98573202 0.95124811 0.77722311
12.17056847 7.66810369 0.80094475 0.98474360 0.95508605 0.34457561
12.35912418 8.02870464 2.21681762 1.00000000 1.00000000 0.95370036
12.12696457 7.46947241 1.29540563 0.98121554 0.93034589 0.55729836
12.28495598 7.80958986 1.83074450 0.99399889 0.97270858 0.78760725
12.13222980 7.75088263 0.80172646 0.98164153 0.96539640 0.34491190
12.09328270 7.55397367 1.29700840 0.97849029 0.94087076 0.55798787
12.22898769 7.88231945 1.82967174 0.98947042 0.98176730 0.78714573
12.02056408 7.58745718 1.29260087 0.97260648 0.94504124 0.55609173
12.01116753 7.68756199 1.29720879 0.97184616 0.95750964 0.55807406
11.92427158 7.73790884 1.29260087 0.96481526 0.96378046 0.55609173
12.19275475 7.53410912 1.69897366 0.98653871 0.93839657 0.73091793
11.85548687 7.79952526 1.29019666 0.95924973 0.97145498 0.55505741
12.24021721 7.42589283 1.19262803 0.99037904 0.92491794 0.51308227
12.13339901 7.60321236 1.69719303 0.98173612 0.94700360 0.73015189
12.14411354 7.64914179 0.71698052 0.98260307 0.95272428 0.30845323
11.81286335 7.87828684 1.29099810 0.95580101 0.98126501 0.55540216
12.13560104 7.46725273 1.18633294 0.98191434 0.93006945 0.51037401
12.18426228 7.74192810 1.71220183 0.98585159 0.96428108 0.73660886
12.08402443 7.71778870 0.71614790 0.97774118 0.96127445 0.30809504
12.15439129 7.58437681 1.19355369 0.98343468 0.94465762 0.51348048
12.15874577 7.83333921 1.71576321 0.98378700 0.97566664 0.73814100
12.10671425 7.63415003 1.19225764 0.97957706 0.95085698 0.51292288
12.10217094 7.73789692 1.19707155 0.97920942 0.96377897 0.51499391
12.16704655 7.88728476 1.20966160 0.98445863 0.98238569 0.52041030
