-4.36383629 7.90136480 1.53889763 -0.87365884 0.97562295 0.79987466
-4.46562672 7.96648407 1.55743837 -0.89403772 0.98366362 0.80951160
-4.51657104 7.93997908 1.55778170 -0.90423703 0.98039091 0.80969006
-4.29705572 8.04807854 0.66038531 -0.86028910 0.99373847 0.34324926
-4.57563066 7.95613480 1.56533539 -0.91606098 0.98238569 0.81361622
-4.34181833 8.01042366 0.65933871 -0.86925077 0.98908901 0.34270528
-4.24475002 8.01356506 0.96789867 -0.84981728 0.98947692 0.50308585
-4.36506271 7.93416834 0.65445459 -0.87390441 0.97967339 0.34016663
-4.69942427 7.93864822 1.57357562 -0.94084501 0.98022658 0.81789929
-4.25536013 7.91338921 0.95772219 -0.85194147 0.97710770 0.49779639
-4.39922428 7.87878752 0.65166360 -0.88074368 0.97283524 0.33871597
-4.79909515 7.99162340 1.59039962 -0.96079957 0.98676765 0.82664388
-4.31741428 7.90912104 0.96087205 -0.86436498 0.97658068 0.49943361
-4.48315573 7.91158342 0.65776885 -0.89754713 0.97688472 0.34188929
-4.86361361 7.98483896 1.59520650 -0.97371644 0.98592997 0.82914239
-4.40083551 7.94254065 0.96935242 -0.88106626 0.98070717 0.50384146
-4.52679491 7.87290907 0.65672225 -0.90628386 0.97210938 0.34134531
-4.84094667 7.83694315 1.57117224 -0.96917838 0.96766847 0.81665003
-4.39661694 8.01076889 1.51055205 -0.88022166 0.98913169 0.78514141
-4.42360115 7.89576721 0.96571797 -0.88562405 0.97493184 0.50195235
-4.56987524 7.86181116 0.65776885 -0.91490877 0.97073907 0.34188929
-4.30550575 8.03600979 0.61330646 -0.86198080 0.99224830 0.31877902
-4.83280087 7.74227285 1.55640829 -0.96754760 0.95597905 0.80897617
-4.33995962 7.81904697 1.47755289 -0.86887866 0.96545875 0.76798940
-4.49972153 7.91435528 0.97226000 -0.90086365 0.97722697 0.50535274
-4.55775547 7.98080349 0.35167402 -0.91248232 0.98543167 0.18279003
-4.62324572 7.83979845 0.65846658 -0.92559373 0.96802104 0.34225196
-4.34453058 7.98776197 0.61133444 -0.86979377 0.98629087 0.31775403
-4.87394905 7.70011759 1.55400491 -0.97578561 0.95077389 0.80772698
-4.47961235 7.95334005 1.50888538 -0.89683771 0.98204064 0.78427517
-4.54537582 7.87905693 0.97129083 -0.91000384 0.97286850 0.50484902
-4.24840879 7.94624138 0.91010195 -0.85054976 0.98116410 0.47304478
-4.56056929 7.87089634 0.34667236 -0.91304564 0.97186089 0.18019031
-4.67754602 7.81913280 0.65933871 -0.93646491 0.96546936 0.34270528
-4.38503885 7.94283581 0.60969114 -0.87790370 0.98074359 0.31689990
-4.56166220 7.98160887 1.51988506 -0.91326445 0.98553115 0.78999245
-4.59579802 7.85205317 0.97153312 -0.92009860 0.96953422 0.50497490
-4.24163055 7.81450319 0.89622712 -0.84919274 0.96489769 0.46583304
-4.61704493 7.85412216 0.34741729 -0.92435229 0.96978968 0.18057750
-4.74214268 7.81510401 0.66195524 -0.94939744 0.96497190 0.34406525
-4.43582869 7.91686821 0.60985547 -0.88807201 0.97753727 0.31698531
-4.65725183 7.84347963 0.97444069 -0.93240190 0.96847558 0.50648618
-4.34315252 7.88351774 0.90894574 -0.86951786 0.97341931 0.47244382
-4.67862320 7.84551430 0.34869432 -0.93668056 0.96872681 0.18124126
-4.80792093 7.81226587 0.66474622 -0.96256649 0.96462148 0.34551594
-4.48940897 7.89578056 0.61051279 -0.89879906 0.97493345 0.31732696
-4.72934055 8.03938675 1.54255116 -0.94683439 0.99266529 0.80177367
-4.72391891 7.84293413 0.97855973 -0.94574893 0.96840823 0.50862718
-4.41191196 7.89079618 0.91357070 -0.88328379 0.97431803 0.47484773
-4.52900887 7.85012960 0.60886949 -0.90672714 0.96929669 0.31647283
-4.77271175 7.99764299 1.54021788 -0.95551747 0.98751092 0.80056089
-4.47241783 7.91147518 0.91912061 -0.89539737 0.97687137 0.47773242
-4.58195686 7.85628510 0.61149883 -0.91732752 0.97005677 0.31783947
-4.82252455 7.99535370 1.54421771 -0.96549022 0.98722827 0.80263990
-4.80463552 7.78208399 0.97734821 -0.96190876 0.96089476 0.50799745
-4.51120758 7.86423874 0.91657692 -0.90316319 0.97103882 0.47641027
-4.55424547 7.95896912 0.29912236 -0.91177958 0.98273569 0.15547518
-4.62516165 7.81703424 0.61051279 -0.92597729 0.96521026 0.31732696
-4.35702944 8.05150795 0.56524789 -0.87229609 0.99416196 0.29379958
-4.47105742 7.98308802 1.92266870 -0.89512497 0.98571378 0.99934781
-4.91793013 7.85424185 0.99212837 -0.98459083 0.96980447 0.51567972
-4.57247591 7.85636950 0.91935188 -0.91542941 0.97006714 0.47785261
-4.40632105 8.07229233 1.20372474 -0.88216448 0.99672830 0.62566143
-4.57318735 7.87657070 0.29617020 -0.91557181 0.97256154 0.15394074
-4.68338299 7.80322170 0.61199182 -0.93763345 0.96350473 0.31809571
-4.38825369 7.98906040 0.56218314 -0.87854731 0.98645121 0.29220659
-4.81279612 7.75625801 1.50888538 -0.96354252 0.95770586 0.78427517
-4.52403831 7.95993280 1.92392349 -0.90573198 0.98285466 1.00000000
-4.62376070 7.83091068 0.91981441 -0.92569685 0.96692365 0.47809303
-4.26057100 7.96014643 0.87670910 -0.85298467 0.98288107 0.45568812
-4.41169691 7.96318674 1.19014144 -0.88324076 0.98325646 0.61860120
-4.62359667 7.84940481 0.29626542 -0.92566401 0.96920723 0.15399022
-4.74058056 7.78728008 0.61330646 -0.94908470 0.96153635 0.31877902
-4.43251419 7.95089340 0.56126368 -0.88740844 0.98173851 0.29172868
-4.86038828 7.72419405 1.50855207 -0.97307068 0.95374680 0.78410190
-4.42819977 8.05297565 1.45340252 -0.88654470 0.99434316 0.75543678
-4.68914366 7.82900906 0.92351437 -0.93878680 0.96668881 0.48001617
-4.26286173 7.84600973 0.86553288 -0.85344332 0.96878797 0.44987905
-4.45385361 7.92152739 1.18782938 -0.89168072 0.97811258 0.61739951
-4.69120026 7.85110855 0.29797959 -0.93919855 0.96941757 0.15488121
-4.83114958 7.82527494 0.61987966 -0.96721697 0.96622777 0.32219559
-4.48534060 7.92808628 0.56172341 -0.89798456 0.97892243 0.29196763
-4.44779921 7.96989393 1.44317758 -0.89046860 0.98408461 0.75012213
-4.32845879 7.84861946 0.86933279 -0.86657614 0.96911025 0.45185414
-4.52716732 7.93458796 1.19476557 -0.90635842 0.97972518 0.62100470
-4.53207541 7.89456606 0.56126368 -0.90734106 0.97478348 0.29172868
-4.49778748 7.94179058 1.44317758 -0.90047646 0.98061454 0.75012213
-4.75112247 7.73798561 0.91819566 -0.95119524 0.95544970 0.47725165
-4.39941311 7.88881159 0.87715620 -0.88078147 0.97407293 0.45592052
-4.55557394 7.89775753 1.19216442 -0.91204554 0.97517759 0.61965269
-4.57224131 7.87828922 0.56172341 -0.91538244 0.97277373 0.29196763
-4.55584383 7.95644093 1.44988775 -0.91209960 0.98242348 0.75360990
-4.88439798 7.84476757 0.93692672 -0.97787756 0.96863461 0.48698750
-4.48427343 7.92320251 0.88520306 -0.89777088 0.97831941 0.46010303
-4.60510683 7.86897850 1.19216442 -0.92196226 0.97162408 0.61965269
-4.62672949 7.85798645 0.56248957 -0.92629123 0.97026682 0.29236588
-4.54986572 7.92241096 0.88877946 -0.91090274 0.97822165 0.46196195
-4.28255653 8.09878922 0.82896781 -0.85738629 1.00000000 0.43087357
-4.66155624 7.85178471 1.19418752 -0.93326366 0.96950108 0.62070429
-4.38790512 8.02112675 1.14967465 -0.87847751 0.99041063 0.59756774
-4.57191038 7.91456413 0.25525197 -0.91531616 0.97725278 0.13267262
-4.67806387 7.83218002 0.56279606 -0.93656856 0.96708035 0.29252517
-4.40201187 7.99703169 0.50658005 -0.88130176 0.98743546 0.26330572
-4.66049671 7.90705729 1.45148540 -0.93305153 0.97632587 0.75444031
-4.60457563 7.90224218 0.88989711 -0.92185593 0.97573131 0.46254289
-4.23966980 7.89627504 0.80796152 -0.84880018 0.97499454 0.41995513
-4.73539162 7.86297369 1.20112371 -0.94804585 0.97088259 0.62430948
-4.60430765 7.85641384 0.25379059 -0.92180228 0.97007263 0.13191304
-4.74170160 7.82647753 0.56494141 -0.94930911 0.96637625 0.29364026
-4.44538736 7.95700836 0.50559372 -0.88998574 0.98249358 0.26279303
-4.77720213 7.98930836 1.47257423 -0.95641649 0.98648185 0.76540166
-4.37850666 7.88011980 1.81259108 -0.87659591 0.97299975 0.94213259
-4.65007496 7.86632061 0.88900304 -0.93096507 0.97129589 0.46207815
-4.26171112 7.81877327 0.80186975 -0.85321295 0.96542495 0.41678879
-4.42637682 7.85479403 1.13180685 -0.88617975 0.96987265 0.58828062
-4.66997910 7.85477304 0.25516599 -0.93494993 0.96987003 0.13262793
-4.82221603 7.84743071 0.56953853 -0.96542847 0.96896344 0.29602972
-4.50215530 7.94108438 0.50658005 -0.90135092 0.98052734 0.26330572
-4.82422352 7.95407724 1.47161567 -0.96583039 0.98213166 0.76490343
-4.48640203 7.95669222 1.83707595 -0.89819705 0.98245454 0.95485914
-4.70351219 7.84375715 0.88989711 -0.94166344 0.96850985 0.46254289
-4.37883186 7.91556311 0.81678414 -0.87666100 0.97737610 0.42454088
-4.99489737 8.06157207 1.24563062 -1.00000000 0.99540460 0.64744294
-4.51089334 7.88879776 1.14185750 -0.90310031 0.97407126 0.59350461
-4.55196142 7.91263962 0.50658005 -0.91132230 0.97701514 0.26330572
-4.85957146 7.90009785 1.46714234 -0.97290719 0.97546655 0.76257831
-4.55472183 7.96069908 1.84470236 -0.91187495 0.98294926 0.95882314
-4.79728746 7.91486073 0.90219098 -0.96043766 0.97728938 0.46893287
-4.38900661 7.84617615 0.81090242 -0.87869805 0.96880853 0.42148373
-4.86948681 7.77830696 1.20083463 -0.97489226 0.96042836 0.62415922
-4.55295515 7.87603712 1.14325345 -0.91152126 0.97249562 0.59423018
-4.59519291 7.90146208 0.50742555 -0.91997743 0.97563499 0.26374519
-4.81724930 7.74985218 1.44285810 -0.96443409 0.95691490 0.74995607
-4.42012787 8.02597237 1.36536753 -0.88492864 0.99100894 0.70967871
-4.81871986 7.83890963 0.89615583 -0.96472847 0.96791130 0.46579599
-4.48907232 7.90850306 0.82182568 -0.89873165 0.97650439 0.42716131
-4.59636307 7.83701181 1.14157832 -0.92021173 0.96767700 0.59335953
-4.29855919 8.02622032 1.09294629 -0.86059010 0.99103951 0.56808197
-4.64272833 7.86899328 0.50714374 -0.92949426 0.97162586 0.26359871
-4.86796045 7.72276735 1.44349718 -0.97458667 0.95357060 0.75028825
-4.44260597 7.94793224 1.35661149 -0.88942885 0.98137289 0.70512754
-4.88898087 7.84216309 0.90062630 -0.97879505 0.96831304 0.46811959
-4.53373003 7.87151289 0.82077533 -0.90767229 0.97193700 0.42661536
-4.66064548 7.83354044 1.14576602 -0.93308133 0.96724832 0.59553617
-4.35365725 8.00774860 1.09428728 -0.87162095 0.98875874 0.56877899
-4.70024443 7.85337973 0.50827104 -0.94100922 0.96969801 0.26418465
-4.51383209 7.95774221 1.36325395 -0.90368867 0.98258418 0.70858014
-4.58509779 7.84631062 0.82119548 -0.91795635 0.96882516 0.42683375
-4.74239635 7.85843372 1.15469992 -0.94944823 0.97032207 0.60017973
-4.28830004 8.03838348 0.77871454 -0.85853618 0.99254137 0.40475339
-4.40965366 7.99063492 1.09589648 -0.88283169 0.98664564 0.56961542
-4.61188173 8.01329422 1.37804866 -0.92331862 0.98944348 0.71626997
-4.84494591 8.02416706 1.88604569 -0.96997905 0.99078602 0.98031223
-4.64441109 7.83447838 0.82329613 -0.92983115 0.96736413 0.42792562
-4.42865849 7.90750551 1.08731425 -0.88663656 0.97638118 0.56515461
-4.49022627 7.97242308 0.45919701 -0.89896268 0.98439693 0.23867738
-4.66313219 7.98586845 1.37835062 -0.93357921 0.98605710 0.71642691
-4.90648317 8.01197147 1.89046097 -0.98229909 0.98928016 0.98260713
-4.71590710 7.87059021 0.83043826 -0.94414496 0.97182310 0.43163788
-4.80983019 7.77545691 1.14967465 -0.96294874 0.96007645 0.59756774
-4.28044748 7.81642818 0.75867999 -0.85696405 0.96513540 0.39434001
-4.47763777 7.90721750 1.09053254 -0.89644241 0.97634566 0.56682742
-4.51981401 7.93731785 0.45815471 -0.90488625 0.98006231 0.23813562
-4.71072531 7.98085356 1.38136995 -0.94310755 0.98543787 0.71799630
-4.77658701 7.85952520 0.83274895 -0.95629334 0.97045684 0.43283892
-4.40033674 7.91618872 0.77330524 -0.88096642 0.97745335 0.40194178
-4.52029276 7.86691427 1.08865523 -0.90498209 0.97136921 0.56585163
-4.23606825 8.00183105 1.02205110 -0.84807914 0.98802805 0.53123271
-4.58763742 7.93982744 0.46049991 -0.91846478 0.98037213 0.23935458
-4.78000355 7.98336887 1.38710666 -0.95697731 0.98574847 0.72097808
-4.82899523 7.83444452 0.83337909 -0.96678567 0.96735996 0.43316644
-4.47649193 7.93512106 0.77871454 -0.89621300 0.97979105 0.40475339
-4.58165693 7.85887671 1.09187353 -0.91726750 0.97037673 0.56752437
-4.26288128 7.93132067 1.01569152 -0.85344720 0.97932178 0.52792716
-4.63642073 7.90912628 0.46036962 -0.92823142 0.97658134 0.23928687
-4.39979362 7.96471071 1.74297869 -0.88085765 0.98344463 0.90595013
-4.52229118 7.89993906 0.77791315 -0.90538222 0.97544694 0.40433684
-4.63600874 7.83845282 1.09321451 -0.92814893 0.96785492 0.56822139
-4.32209253 7.92181540 1.01823533 -0.86530155 0.97814810 0.52924937
-4.73736620 7.69005537 1.34543991 -0.94844115 0.94953150 0.69932091
-4.46227932 7.95913935 1.74796259 -0.89336759 0.98275667 0.90854061
-4.57083511 7.86965036 0.77771282 -0.91510093 0.97170705 0.40423271
-4.24923706 7.94230747 0.69902235 -0.85071558 0.98067838 0.36333168
-4.70256567 7.83802271 1.09777379 -0.94147396 0.96780181 0.57059121
-4.38135242 7.91187859 1.02077925 -0.87716568 0.97692114 0.53057164
-4.84404039 7.75416803 1.36234820 -0.96979779 0.95744783 0.70810932
-4.53461218 7.97013569 1.75678015 -0.90784889 0.98411447 0.91312373
-4.62323332 7.84591246 0.77831388 -0.92559123 0.96877599 0.40454513
-4.83031034 7.93682051 1.11815643 -0.96704894 0.98000085 0.58118552
-4.44452953 7.90843534 1.02434063 -0.88981396 0.97649598 0.53242272
-4.94537973 7.80720520 1.37744474 -0.99008638 0.96399659 0.71595609
-4.66935396 7.83940506 0.78011698 -0.93482482 0.96797246 0.40548232
-4.32962561 7.88287210 0.69772631 -0.86680973 0.97333956 0.36265802
-4.89683533 7.96117496 1.12566578 -0.98036754 0.98300803 0.58508867
-4.47589064 7.87704134 1.02281427 -0.89609259 0.97261965 0.53162938
-4.58772516 8.02911377 0.41284174 -0.91848236 0.99139678 0.21458323
-4.77738905 7.90686464 0.79153669 -0.95645392 0.97630209 0.41141796
-4.45439386 7.99135733 0.71216792 -0.89178884 0.98673481 0.37016436
-4.91623402 7.88155031 1.11788821 -0.98425126 0.97317636 0.58104610
-4.52529478 7.84876347 1.02281427 -0.90598351 0.96912801 0.53162938
-4.56825542 7.87907314 0.40451568 -0.91458446 0.97287053 0.21025559
-4.81132221 7.85127544 0.78853148 -0.96324748 0.96943820 0.40985593
-4.45861530 7.88164377 0.70346594 -0.89263403 0.97318792 0.36564133
-4.58848953 7.84417915 1.02637577 -0.91863543 0.96856195 0.53348053
-4.61565351 7.84676838 0.40427780 -0.92407376 0.96888167 0.21013196
-4.72417116 7.86613083 1.75793028 -0.94579947 0.97127247 0.91372150
-4.88269472 7.85633421 0.79273874 -0.97753656 0.97006279 0.41204277
-4.50212383 7.84309816 0.70235503 -0.90134460 0.96842849 0.36506391
-4.64474487 7.82715178 1.02815640 -0.92989796 0.96645951 0.53440607
-4.85856724 7.97524405 1.78975022 -0.97270614 0.98474520 0.93026060
-4.56029940 7.83016348 0.70402139 -0.91299158 0.96683139 0.36593005
-4.73460293 7.86588907 1.03833187 -0.94788796 0.97124261 0.53969496
-4.39520264 8.04139328 1.67140126 -0.87993854 0.99291301 0.86874622
-4.60940742 7.80135584 0.70402139 -0.92282325 0.96327436 0.36593005
-4.33547401 7.84312439 1.63371062 -0.86798060 0.96843171 0.84915572
-4.65832615 7.80009222 0.70624316 -0.93261701 0.96311831 0.36708483
-4.79070568 7.76432848 1.03095472 -0.95911992 0.95870239 0.53586054
-4.45844364 7.94793797 1.66188717 -0.89259964 0.98137361 0.86380106
-4.73088646 7.80989742 0.71050155 -0.94714385 0.96432900 0.36929825
-4.92117929 7.86542749 1.05079687 -0.98524135 0.97118562 0.54617393
-4.53057861 7.95911980 1.67030346 -0.90704137 0.98275429 0.86817563
-4.77778673 7.77662039 0.71013129 -0.95653349 0.96022010 0.36910579
-4.70581579 7.91631365 1.67981768 -0.94212461 0.97746879 0.87312084
-4.81268501 8.01049709 1.70506680 -0.96352029 0.98909813 0.88624460
-4.88840914 8.02213192 1.71421504 -0.97868061 0.99053472 0.89099962
-4.82643986 7.80870247 1.67432868 -0.96627408 0.96418148 0.87026781
-4.86396122 7.75987148 1.67030346 -0.97378600 0.95815206 0.86817563
