12.43622875 7.45358944 1.13100922 0.99072462 0.93029976 0.48497310
12.41977024 7.55025339 1.13414896 0.98941350 0.94236463 0.48631942
12.36530781 7.62394714 1.13345122 0.98507476 0.95156252 0.48602024
12.32290745 7.40945292 1.61604297 0.98169696 0.92479098 0.69295400
12.36979198 7.70747614 1.13763773 0.98543203 0.96198797 0.48781541
12.39126492 7.55718613 1.63251925 0.98714262 0.94322991 0.70001900
12.36487389 7.81277657 1.14217293 0.98504019 0.97513074 0.48976007
12.35534573 7.64222002 1.63421524 0.98428118 0.95384318 0.70074624
12.50494194 8.01202965 1.16188407 0.99619865 1.00000000 0.49821216
12.40622425 7.78207874 1.64851081 0.98833436 0.97129929 0.70687610
12.37590885 7.41396332 1.05108368 0.98591930 0.92535394 0.45070130
12.40394497 7.88977385 1.65529513 0.98815280 0.98474097 0.70978522
12.40921021 7.54011154 1.05880725 0.98857224 0.94109881 0.45401314
12.40404892 7.64401531 1.06291544 0.98816109 0.95406729 0.45577472
12.36067009 7.46887732 1.54233360 0.98470533 0.93220788 0.66134769
12.39159775 7.71710157 1.06521606 0.98716915 0.96318936 0.45676121
12.37622261 7.58471394 1.55088973 0.98594427 0.94666576 0.66501653
12.44238567 7.85746288 1.07491159 0.99121511 0.98070818 0.46091864
12.32832241 7.66232538 1.55088973 0.98212838 0.95635259 0.66501653
12.38927364 7.80833292 1.56592083 0.98698401 0.97457612 0.67146182
12.48087025 7.46874857 0.97945100 0.99428099 0.93219185 0.41998544
12.37012577 7.90523624 1.57008326 0.98545861 0.98667085 0.67324662
12.44561958 7.55427980 0.98052371 0.99147278 0.94286716 0.42044541
12.35982037 7.56358957 1.97681713 0.98463762 0.94402915 0.84765279
12.43014622 7.65223598 0.98343521 0.99024010 0.95509332 0.42169386
12.48216248 7.47229576 1.49743855 0.99438393 0.93263453 0.64209682
12.47875404 7.71773243 2.00340581 0.99411243 0.96326810 0.85905397
12.42270660 7.72867441 0.98604023 0.98964739 0.96463376 0.42281088
12.45815277 7.65015602 2.33210707 0.99247122 0.95483369 1.00000000
12.43496704 7.55057526 1.49743855 0.99062413 0.94240481 0.64209682
12.54057217 7.86553907 2.02248025 0.99903709 0.98171616 0.86723304
12.49016953 7.88015413 0.99661368 0.99502182 0.98354030 0.42734474
12.32109356 7.67284298 2.31517196 0.98155248 0.95766532 0.99273831
12.38897133 7.62960148 1.49766207 0.98695993 0.95226824 0.64219266
12.34584141 7.71045828 1.49833274 0.98352402 0.96236020 0.64248025
12.41793823 7.86460781 1.51442647 0.98926753 0.98159993 0.64938122
12.38514328 7.56687117 1.90681839 0.98665494 0.94443876 0.81763756
12.45999622 7.65730762 0.89479744 0.99261808 0.95572633 0.38368627
12.43367481 7.67705536 1.92077756 0.99052119 0.95819110 0.82362324
12.39832973 7.70018578 0.89268374 0.98770547 0.96107805 0.38277993
12.42924786 7.53999424 1.39676714 0.99016851 0.94108415 0.59892923
12.50615215 7.83053112 1.94087875 0.99629503 0.97734672 0.83224255
12.25107861 7.53786945 1.38059223 0.97597480 0.94081897 0.59199351
12.49853897 7.93543482 1.94785833 0.99568856 0.99044001 0.83523536
12.23556423 7.63465595 1.38458347 0.97473884 0.95289910 0.59370494
12.30026531 7.56312943 2.17122579 0.97989321 0.94397169 0.93101460
12.20417500 7.72199392 1.38668406 0.97223824 0.96379995 0.59460568
12.39354801 7.72794008 2.19658828 0.98732454 0.96454215 0.94189000
12.55265903 7.65335274 1.85032248 1.00000000 0.95523268 0.79341233
12.44677067 7.86996937 2.21500611 0.99156445 0.98226911 0.94978750
12.43907547 7.42294550 1.31984782 0.99095142 0.92647505 0.56594652
12.43890285 7.66448689 1.83798563 0.99093771 0.95662236 0.78812230
12.36101055 7.65707016 0.81110728 0.98473245 0.95569670 0.34780020
12.29353714 7.44105148 1.30822778 0.97935718 0.92873490 0.56096387
12.52316666 7.82564688 1.85917282 0.99765050 0.97673714 0.79720730
12.34980202 7.75799227 0.81397361 0.98383951 0.96829301 0.34902927
12.26517963 7.52962494 1.31043160 0.97709811 0.93978995 0.56190884
12.49716663 7.91906118 1.86292756 0.99557924 0.98839641 0.79881734
12.16193008 7.57175446 1.30382013 0.96887279 0.94504821 0.55907387
12.11411572 7.64802027 1.30382013 0.96506369 0.95456713 0.55907387
12.08926487 7.73903751 1.30662501 0.96308398 0.96592724 0.56027657
12.34925461 7.52561235 1.71550882 0.98379588 0.93928915 0.73560464
12.31975651 7.96922016 1.33868027 0.98144597 0.99465686 0.57402182
12.44988537 7.42114592 1.20910621 0.99181259 0.92625046 0.51846087
12.36775208 7.61693621 1.72364914 0.98526949 0.95068747 0.73909521
12.33462715 7.63806820 0.72625810 0.98263061 0.95332503 0.31141713
12.36890030 7.47866440 1.20540321 0.98536098 0.93342942 0.51687300
12.47457886 7.79095745 1.74705279 0.99377978 0.97240746 0.74913061
12.29654598 7.72177362 0.72697181 0.97959691 0.96377248 0.31172317
12.37263870 7.58739281 1.21095765 0.98565876 0.94700009 0.51925474
12.44215488 7.87977409 1.74959660 0.99119675 0.98349285 0.75022137
12.33826256 7.67337656 1.21243882 0.98292023 0.95773190 0.51988989
12.33532524 7.77936649 1.21743786 0.98268622 0.97096080 0.52203345
12.46084023 7.96805096 1.23669326 0.99268532 0.99451089 0.53029007
12.11904049 7.93906593 1.20855069 0.96545607 0.99089324 0.51822263
