-0.66394150 6.35719728 2.12983179 -0.48124158 0.96573901 0.97088146
-0.74095154 6.40970612 2.15036607 -0.53706038 0.97371578 0.98024201
-0.76465148 6.06952477 1.35479164 -0.55423874 0.92203790 0.61758029
-0.68376851 6.31770754 1.07331920 -0.49561271 0.95974004 0.48927137
-0.82612228 6.23660374 1.39420879 -0.59879428 0.94741935 0.63554853
-0.72282428 6.22725964 1.74601448 -0.52392131 0.94599986 0.79591876
-0.71883851 6.27415133 1.06645226 -0.52103233 0.95312327 0.48614109
-0.86776197 6.24866819 1.39819479 -0.62897581 0.94925207 0.63736558
-0.76330143 6.31351805 1.77170110 -0.55326015 0.95910358 0.80762798
-0.74839669 6.27069426 1.06645226 -0.54245687 0.95259809 0.48614109
-0.89407879 6.22328377 1.39332306 -0.64805090 0.94539589 0.63514477
-0.80444920 6.32004356 1.77498031 -0.58308512 0.96009493 0.80912280
-0.78274000 6.22678566 1.05958533 -0.56734973 0.94592786 0.48301080
-0.93523294 6.23103809 1.39642322 -0.67788047 0.94657385 0.63655800
-0.84205514 6.29961586 1.77060807 -0.61034286 0.95699167 0.80712974
-0.66371429 6.28606701 2.06206870 -0.48107690 0.95493346 0.93999177
-0.83004326 6.28227234 1.07022905 -0.60163635 0.95435697 0.48786274
-0.96513033 6.16726160 1.38313651 -0.69955087 0.93688542 0.63050127
-0.71406794 6.38179016 2.09545135 -0.51757449 0.96947503 0.95520920
-0.86562669 6.24962187 1.06542230 -0.62742811 0.94939697 0.48567158
-0.99650306 6.11682558 1.37295008 -0.72229058 0.92922354 0.62585777
-0.75675499 6.39980698 2.10300970 -0.54851514 0.97221196 0.95865464
-0.89072245 6.14855766 1.04859829 -0.64561814 0.93404400 0.47800237
-1.04122424 6.14695930 1.38136494 -0.75470567 0.93380123 0.62969369
-0.91521615 6.11507750 1.04344809 -0.66337180 0.92895794 0.47565466
-0.77009970 6.33581543 1.37806046 -0.55818772 0.96249086 0.62818736
-0.95734334 6.13255501 1.04756820 -0.69390666 0.93161303 0.47753280
-0.68525690 6.47508717 1.06656396 -0.49669152 0.98364800 0.48619202
-0.78138226 6.10219717 1.32706845 -0.56636560 0.92700130 0.60494268
-1.03443146 6.30014467 1.77880597 -0.74978209 0.95707202 0.81086671
-0.99875861 6.14391232 1.05065835 -0.72392547 0.93333834 0.47894144
-0.69108838 6.15110683 1.01223207 -0.50091833 0.93443125 0.46142486
-0.83747309 6.23270082 1.35731804 -0.60702169 0.94682646 0.61873192
-1.10300696 6.46031809 1.82690001 -0.79948729 0.98140436 0.83279037
-0.74576622 6.28457689 1.71258676 -0.54055023 0.95470709 0.78068078
-1.05642009 6.24819088 1.07022905 -0.76571995 0.94917959 0.48786274
-0.74373806 6.26810265 1.03289819 -0.53908014 0.95220441 0.47084549
-0.87369210 6.20603561 1.35256445 -0.63327414 0.94277567 0.61656499
-1.15109098 6.49491310 1.83892345 -0.83433986 0.98665982 0.83827120
-0.79292917 6.34291983 1.73015237 -0.57473511 0.96357012 0.78868806
-0.78119993 6.24764538 1.03023160 -0.56623346 0.94909668 0.46962994
-0.91322446 6.20428944 1.35342872 -0.66192818 0.94251037 0.61695898
-0.83105153 6.32442713 1.72642636 -0.60236716 0.96076083 0.78698957
-0.82620430 6.28760242 1.03789806 -0.59885377 0.95516670 0.47312468
-0.94580364 6.15594530 1.34392178 -0.68554240 0.93516630 0.61262524
-0.87900472 6.35354710 0.64394766 -0.63712484 0.96518451 0.29354283
-0.86135352 6.32426262 1.72749090 -0.62433082 0.96073586 0.78747481
-0.85218656 6.25627184 1.03323150 -0.61768633 0.95040715 0.47099745
-0.97031218 6.12247515 1.33743978 -0.70330679 0.93008178 0.60967046
-0.90902561 6.28112698 0.63570952 -0.65888476 0.95418298 0.28978747
-0.87896037 6.16094875 1.01789856 -0.63709271 0.93592638 0.46400794
-1.01218736 6.13746262 1.34219325 -0.73365897 0.93235856 0.61183733
-0.94635201 6.26155710 0.63401347 -0.68593985 0.95121008 0.28901434
-0.67716289 6.35887241 2.03619194 -0.49082476 0.96599352 0.92819583
-0.91424024 6.13188744 1.01389873 -0.66266441 0.93151158 0.46218461
-0.98788273 6.26920795 0.63570952 -0.71604240 0.95237231 0.28978747
-1.15067828 6.41991425 2.12883377 -0.83404070 0.97526652 0.97042650
-0.71556759 6.34126234 2.03187752 -0.51866150 0.96331829 0.92622912
-0.95363969 6.13187075 1.01489866 -0.69122213 0.93150908 0.46264043
-0.71749604 6.28295612 1.31823039 -0.52005929 0.95446086 0.60091388
-1.02725351 6.26287746 0.63570952 -0.74457932 0.95141065 0.28978747
-1.03420603 6.39011049 1.75250864 -0.74961865 0.97073895 0.79887915
-1.20735145 6.50219202 2.15906715 -0.87511885 0.98776555 0.98420841
-0.75817150 6.35930395 2.03927350 -0.54954189 0.96605909 0.92960060
-0.99956208 6.17250204 1.02289844 -0.72450787 0.93768150 0.46628714
-0.75984275 6.30161524 1.32324994 -0.55075324 0.95729542 0.60320204
-1.06964302 6.27390289 0.63789022 -0.77530432 0.95308554 0.29078156
-0.88608700 6.35870504 0.60855478 -0.64225823 0.96596807 0.27740902
-1.09191871 6.49000502 1.78231704 -0.79145026 0.98591423 0.81246728
-1.25135469 6.51126480 2.16473579 -0.90701354 0.98914385 0.98679245
-1.05470312 6.26533079 1.03989792 -0.76447546 0.95178336 0.47403631
-0.80497760 6.33938360 1.33245254 -0.58346808 0.96303290 0.60739702
-1.11176443 6.33914852 0.64661288 -0.80583495 0.96299720 0.29475778
-0.90966564 6.30921412 0.60323608 -0.65934867 0.95844978 0.27498451
-1.12281287 6.48668814 1.78284931 -0.81384313 0.98541033 0.81270987
-1.28563750 6.52393055 2.17103457 -0.93186253 0.99106795 0.98966372
-0.71558619 6.43783712 1.01436985 -0.51867497 0.97798926 0.46239936
-0.80579615 6.12038136 1.28602159 -0.58406138 0.92976367 0.58623153
-0.94465619 6.27192831 0.59953612 -0.68471068 0.95278561 0.27329788
-1.34003150 6.58272791 2.19370937 -0.97128868 1.00000000 1.00000000
-0.73685831 6.27444696 0.98848802 -0.53409350 0.95316821 0.45060116
-0.98978144 6.30317593 0.60392982 -0.71741861 0.95753253 0.27530074
-0.82149768 6.46106434 0.81183189 -0.59544230 0.98151773 0.37007266
-0.77328020 6.24619102 0.98465365 -0.56049305 0.94887578 0.44885328
-0.86977100 6.02270889 1.26719820 -0.63043201 0.91492599 0.57765090
-1.02810860 6.28898621 0.60300481 -0.74519908 0.95537692 0.27487907
-0.85108650 6.37538385 0.79998261 -0.61688900 0.96850181 0.36467120
-0.79419935 6.27807093 1.66104686 -0.57565576 0.95371872 0.75718635
-0.81068230 6.22750998 0.98241699 -0.58760303 0.94603789 0.44783369
-0.92727405 6.14469719 1.29480577 -0.67211169 0.93345755 0.59023577
-1.06825614 6.28632116 0.60346735 -0.77429903 0.95497203 0.27508992
-0.87682766 6.26999903 0.78524327 -0.63554686 0.95249254 0.35795227
-0.83545423 6.28635645 1.66467059 -0.60555834 0.95497739 0.75883824
-0.85143554 6.23402548 0.98433411 -0.61714202 0.94702768 0.44870761
-0.96089894 6.10785389 1.28811312 -0.69648385 0.92786062 0.58718497
-0.65930706 6.19373798 1.24181259 -0.47788242 0.94090748 0.56607890
-0.91913253 6.28393841 0.78813332 -0.66621047 0.95461005 0.35926971
-0.87548113 6.28480816 1.66570592 -0.63457084 0.95474219 0.75931019
-0.69954836 6.35918283 1.97493517 -0.50705034 0.96604067 0.90027201
-0.88372952 6.18166828 0.97666544 -0.64054948 0.93907392 0.44521186
-0.99925649 6.10169554 1.28811312 -0.72428638 0.92692506 0.58718497
-0.70802063 6.27906609 1.26027656 -0.51319122 0.95386994 0.57449567
-0.94299835 6.24237633 0.78264225 -0.68350905 0.94829625 0.35676661
-0.90198934 6.25958967 1.66001153 -0.65378469 0.95091122 0.75671440
-0.73035359 6.36340094 1.97733319 -0.52937877 0.96668142 0.90136516
-0.90724558 6.14034414 0.97059441 -0.65759450 0.93279630 0.44244438
-1.04888415 6.21834946 1.31446576 -0.76025772 0.94464630 0.59919775
-0.73849183 6.28344631 1.26188219 -0.53527755 0.95453531 0.57522762
-0.90636027 6.34877157 0.58254999 -0.65695286 0.96445906 0.26555476
-0.99225551 6.29885340 0.79189044 -0.71921188 0.95687586 0.36098239
-0.79112864 6.40280676 0.77026516 -0.57343000 0.97266769 0.35112453
-0.77121520 6.36626577 1.97973120 -0.55899626 0.96711665 0.90245831
-0.94365770 6.12087059 0.96835768 -0.68398696 0.92983800 0.44142479
-0.77490634 6.25339460 1.25666404 -0.56167167 0.94997007 0.57284892
-0.93844622 6.29186726 0.57673830 -0.68020952 0.95581460 0.26290551
-0.82337463 6.33483934 0.76133132 -0.59680271 0.96234256 0.34705204
-1.00900352 6.42515850 1.70815587 -0.73135126 0.97606319 0.77866095
-1.15713751 6.41690540 2.07686901 -0.83872253 0.97480947 0.94673842
-0.98209739 6.11482096 0.96835768 -0.71184903 0.92891902 0.44142479
-0.81270069 6.23674011 1.25425577 -0.58906597 0.94744009 0.57175112
-0.97764862 6.28388405 0.57651478 -0.70862442 0.95460182 0.26280361
-0.85793418 6.29027891 0.75574762 -0.62185240 0.95557326 0.34450671
-1.05189502 6.43393660 1.71229732 -0.76244009 0.97739673 0.78054887
-1.21057713 6.47866917 2.09967303 -0.87745690 0.98419213 0.95713365
-1.03011799 6.16497040 0.97762400 -0.74665552 0.93653733 0.44564882
-0.73209649 6.34870434 0.94205785 -0.53064203 0.96444887 0.42943603
-0.85472101 6.25287390 1.25867105 -0.61952341 0.94989097 0.57376379
-1.01873255 6.28742123 0.57763243 -0.73840308 0.95513916 0.26331311
-0.89771366 6.28672552 0.75602680 -0.65068555 0.95503348 0.34463400
-1.09394765 6.43671799 1.71488571 -0.79292089 0.97781926 0.78172874
-1.25823236 6.50640678 2.11138320 -0.91199863 0.98840582 0.96247172
-1.08843756 6.26919127 0.99583715 -0.78892708 0.95236981 0.45395127
-0.76104093 6.25170183 0.92786705 -0.55162168 0.94971293 0.42296717
-0.89399189 6.24738026 1.25867105 -0.64798790 0.94905645 0.57376379
-1.06057239 6.29460812 0.57919711 -0.76872969 0.95623094 0.26402637
-0.94034225 6.30251694 0.75909781 -0.68158382 0.95743239 0.34603390
-1.14120030 6.46774530 1.72523940 -0.82717085 0.98253268 0.78644848
-1.30211782 6.51328945 2.11631370 -0.94380790 0.98945141 0.96471924
-0.79908174 6.23698711 0.92635739 -0.57919466 0.94747758 0.42227900
-0.91451764 6.11368608 1.23217916 -0.66286552 0.92874658 0.56168753
-1.09264290 6.30324030 0.58076179 -0.79197520 0.95754230 0.26473963
-0.97445995 6.32739019 0.76328558 -0.70631319 0.96121097 0.34794289
-0.78957570 6.18560266 1.57859957 -0.57230443 0.93967164 0.71960288
-1.33357131 6.51080656 2.11754632 -0.96660620 0.98907423 0.96528113
-0.82846385 6.23315239 0.92635739 -0.60049152 0.94689506 0.42227900
-0.94361001 6.11124611 1.23258054 -0.68395239 0.92837590 0.56187046
-0.91996336 6.30211687 0.53403986 -0.66681272 0.95737159 0.24344148
-1.01880944 6.35048866 0.76747334 -0.73845881 0.96471989 0.34985188
-0.84197754 6.28419495 1.60564935 -0.61028659 0.95464903 0.73193347
-1.37964284 6.52648354 2.12555861 -1.00000000 0.99145579 0.96893352
-0.85988390 6.17101192 0.91760135 -0.62326556 0.93745512 0.41828758
-0.98198926 6.10519648 1.23258054 -0.71177065 0.92745692 0.56187046
-0.95807546 6.28637648 0.53298956 -0.69443733 0.95498043 0.24296270
-0.88170844 6.28069925 1.60615027 -0.63908458 0.95411801 0.73216182
-0.89585263 6.14591408 0.91458201 -0.64933664 0.93364245 0.41691121
-1.04726923 6.26325369 1.26669884 -0.75908720 0.95146781 0.57742327
-0.64725077 6.34762716 1.21200693 -0.46914372 0.96428519 0.55249202
-0.99724901 6.27826738 0.53277951 -0.72283131 0.95374858 0.24286695
-0.82741517 6.27981234 0.71801293 -0.59973145 0.95398325 0.32730541
-0.92390436 6.29420137 1.61115944 -0.66966921 0.95616913 0.73444527
-0.93299532 6.13038635 0.91307235 -0.67625856 0.93128359 0.41622302
-0.66383725 6.13469791 1.17098594 -0.48116601 0.93193853 0.53379267
-1.03922117 6.28758430 0.53446001 -0.75325376 0.95516396 0.24363300
-0.88323081 6.39027166 0.73383629 -0.64018804 0.97076344 0.33451846
-0.98439276 6.42805576 1.64772666 -0.71351278 0.97650331 0.75111437
-1.15391064 6.50976419 2.04207897 -0.83638358 0.98891586 0.93087947
-0.70558143 6.29595280 1.88859200 -0.51142323 0.95643520 0.86091256
-0.97210169 6.12831068 0.91367620 -0.70460385 0.93096823 0.41649830
-0.71478170 6.23567390 1.19168806 -0.51809186 0.94727808 0.54322970
-1.08300161 6.30642748 0.53719079 -0.78498691 0.95802647 0.24487783
-0.91292918 6.31401348 0.72418135 -0.66171414 0.95917886 0.33011729
-1.02894974 6.44852591 1.65473950 -0.74580878 0.97961301 0.75431120
-1.19445062 6.50050783 2.04147959 -0.86576802 0.98750973 0.93060625
-0.75183010 6.34648705 1.90544319 -0.54494548 0.96411198 0.86859417
-1.01532173 6.15135765 0.91820520 -0.73593086 0.93446940 0.41856283
-0.75085175 6.28678894 1.20242250 -0.54423630 0.95504314 0.54812294
-0.94117749 6.29984522 0.72284037 -0.68218923 0.95702654 0.32950598
-1.06179130 6.45889807 1.65874696 -0.76961315 0.98118865 0.75613797
-1.23028851 6.52294779 2.05047202 -0.89174420 0.99091864 0.93470544
-0.78268933 6.35046816 1.90776742 -0.56731302 0.96471679 0.86965370
-1.06183720 6.25181627 0.93450958 -0.76964641 0.94973034 0.42599517
-0.78154296 6.21381044 1.18900454 -0.56648207 0.94395673 0.54200643
-0.98354441 6.31142282 0.72525412 -0.71289784 0.95878530 0.33060628
-1.10555410 6.47119522 1.66375613 -0.80133355 0.98305678 0.75842142
-0.82136035 6.21461248 1.19015467 -0.59534276 0.94407856 0.54253072
-1.02900720 6.34031439 0.73008162 -0.74585044 0.96317428 0.33280692
-0.86811167 6.26374578 1.20088911 -0.62922931 0.95154256 0.54742396
-0.97528541 6.32568359 0.50584394 -0.70691150 0.96095169 0.23058841
-0.88556802 6.11059999 1.17175269 -0.64188206 0.92827779 0.53414220
-1.01340222 6.30961227 0.50484222 -0.73453957 0.95851028 0.23013178
-0.89806503 6.34235525 0.68244511 -0.65094024 0.96348435 0.31109184
-0.79907471 6.25158644 1.53389108 -0.57918954 0.94969541 0.69922256
-0.91554087 6.05060005 1.16101825 -0.66360718 0.91916299 0.52924889
-1.05469728 6.31292868 0.50584394 -0.76447123 0.95901406 0.23058841
-0.92681247 6.26001883 0.67252403 -0.67177713 0.95097637 0.30656934
-0.83595926 6.22913790 1.52954412 -0.60592437 0.94628519 0.69724101
-0.95393974 6.10824680 1.17328620 -0.69143963 0.92792028 0.53484124
-0.64760208 6.21458578 1.12872803 -0.46939835 0.94407451 0.51452941
-0.95131266 6.22222900 0.66819948 -0.68953544 0.94523561 0.30459800
-0.86831164 6.24626541 1.53485715 -0.62937421 0.94888705 0.69966292
-0.99422848 6.11375141 1.17558646 -0.72064191 0.92875654 0.53588980
-0.69187927 6.25926971 1.13787627 -0.50149161 0.95086259 0.51869965
-1.00109184 6.28473043 0.67710304 -0.72561669 0.95473039 0.30865666
-0.90754068 6.24068642 1.53485715 -0.65780842 0.94803953 0.69966292
-0.71563047 6.33007574 1.83199143 -0.51870704 0.96161890 0.83511126
-1.05997717 6.26600122 1.20702302 -0.76829827 0.95188516 0.55022013
-0.73252547 6.26652098 1.14007187 -0.53095299 0.95196414 0.51970053
-1.04215050 6.28810692 0.67837495 -0.75537699 0.95524335 0.30923647
-0.94851923 6.24636793 1.53775513 -0.68751073 0.94890267 0.70098400
-1.13406730 6.54984903 1.98330724 -0.82200062 0.99500531 0.90408844
-0.75228816 6.29876375 1.82411683 -0.54527748 0.95686221 0.83152163
-0.76649636 6.21689320 1.13165545 -0.55557591 0.94442505 0.51586390
-1.09022939 6.33229208 0.68498898 -0.79022580 0.96195561 0.31225148
-0.99703509 6.29776335 1.55224490 -0.72267622 0.95671028 0.70758915
-1.18035996 6.57083225 1.99202335 -0.85555470 0.99819291 0.90806162
-0.79395062 6.31105804 1.82917905 -0.57547545 0.95872992 0.83382922
-0.81466430 6.28413153 1.14519477 -0.59048927 0.95463943 0.52203578
-0.65929860 6.26982307 2.16758084 -0.47787628 0.95246577 0.98808932
-1.05781245 6.41769648 1.58412254 -0.76672918 0.97492963 0.72212052
-1.22019851 6.55576468 1.98969901 -0.88443071 0.99590397 0.90700209
-0.83530629 6.31926966 1.83311629 -0.60545111 0.95997733 0.83562404
-0.85257965 6.26719379 1.14299929 -0.61797130 0.95206636 0.52103496
-1.10678959 6.46063328 1.59668040 -0.80222905 0.98145229 0.72784501
-0.86602604 6.14623308 1.12104344 -0.62771755 0.93369091 0.51102644
-0.77282840 6.28149652 1.47166848 -0.56016558 0.95423913 0.67085844
-0.89818215 6.09590816 1.11262715 -0.65102512 0.92604589 0.50718987
-0.80083549 6.18578959 1.44990611 -0.58046579 0.93970001 0.66093808
-0.94114453 6.12125444 1.11848199 -0.68216532 0.92989630 0.50985879
-0.84940016 6.25393009 1.46750116 -0.61566669 0.95005143 0.66895878
-0.98811620 6.16961050 1.12872803 -0.71621162 0.93724221 0.51452941
-0.88680351 6.23497963 1.46425998 -0.64277762 0.94717264 0.66748130
-1.04301929 6.26224804 1.14739037 -0.75600672 0.95131505 0.52303666
-0.92736053 6.23891163 1.46657515 -0.67217433 0.94776994 0.66853666
-1.06741261 6.31148195 1.84099090 -0.77368766 0.95879430 0.83921367
-0.96303886 6.20987797 1.46101880 -0.69803488 0.94335938 0.66600382
-1.13735843 6.48055124 1.89330077 -0.82438612 0.98447806 0.86305904
-1.00162268 6.26486015 1.47537267 -0.72600144 0.95171183 0.67254698
-1.17625535 6.52236557 1.90736258 -0.85257959 0.99083018 0.86946911
-1.07133484 6.44471312 1.52028644 -0.77653056 0.97903383 0.69302088
