3.96772408 -9.03518963 2.20646882 0.89267600 -0.97274792 0.81256807
4.01163006 -8.98161507 2.19938254 0.90255415 -0.96697992 0.80995846
4.03800535 -8.89059162 2.18299580 0.90848821 -0.95718014 0.80392373
3.97384262 -9.17400551 1.70816767 0.89405257 -0.98769313 0.62906057
3.89748096 -8.44226360 2.07714510 0.87687242 -0.90891218 0.76494253
3.94704080 -8.99654293 1.67795312 0.88802260 -0.96858710 0.61793357
4.02599764 -8.61266518 2.12453413 0.90578663 -0.92725801 0.78239429
3.98332334 -8.92662525 1.66936946 0.89618558 -0.96105963 0.61477250
4.05733204 -8.53968430 2.11257625 0.91283637 -0.91940075 0.77799058
4.13901758 -8.57192135 2.12719154 0.93121439 -0.92287141 0.78337294
4.06781864 -8.81688404 1.65803897 0.91519570 -0.94924468 0.61059988
4.19883394 -8.55799007 2.13029170 0.94467211 -0.92137158 0.78451461
4.11809397 -8.78045845 1.65597892 0.92650688 -0.94532299 0.60984123
4.28834724 -8.60293007 2.14845037 0.96481121 -0.92620993 0.79120183
3.95087624 -9.12572861 2.16627622 0.88888550 -0.98249555 0.79776651
4.17658758 -8.76151752 1.65735233 0.93966705 -0.94328380 0.61034697
4.36797285 -8.62622166 2.16129422 0.98272574 -0.92871755 0.79593182
4.22814798 -8.76301193 1.66147244 0.95126730 -0.94344467 0.61186427
4.41839647 -8.62461567 2.16616583 0.99407023 -0.92854464 0.79772586
4.03672504 -9.04960537 2.15849781 0.90820014 -0.97429991 0.79490197
4.06700468 -8.96532440 2.14423728 0.91501260 -0.96522605 0.78965026
3.91612792 -8.99922466 1.62488222 0.88106769 -0.96887583 0.59838933
4.04346228 -8.76565170 2.10188794 0.90971589 -0.94372886 0.77405447
3.99881196 -9.03400326 1.63588190 0.89967030 -0.97262019 0.60244012
4.02582788 -8.58433437 2.06386018 0.90574843 -0.92420787 0.76005012
4.08996105 -9.08233929 2.71542645 0.92017740 -0.97782415 1.00000000
4.03776741 -8.96910286 1.62854886 0.90843469 -0.96563286 0.59973961
4.11481571 -8.63298035 2.08200979 0.92576933 -0.92944521 0.76673400
4.11658239 -8.98979282 2.69519925 0.92616683 -0.96786040 0.99255103
4.06544304 -8.88073826 1.61688244 0.91466123 -0.95611936 0.59544331
4.17067194 -8.61047459 2.08287406 0.93833613 -0.92702216 0.76705229
4.16245461 -8.94100761 2.68827963 0.93648732 -0.96260804 0.99000275
4.12199020 -8.85680962 1.61721575 0.92738348 -0.95354313 0.59556603
4.24100304 -8.61742401 2.09108472 0.95415950 -0.92777038 0.77007598
4.22581720 -8.96667862 2.70211911 0.95074296 -0.96537185 0.99509937
4.16284418 -8.83550072 1.61688244 0.93657500 -0.95124894 0.59544331
4.32230473 -8.67958450 2.11139512 0.97245109 -0.93446267 0.77755564
3.93406010 -9.25173473 2.11592150 0.88510215 -0.99606162 0.77922255
4.23693275 -8.84833908 1.62421560 0.95324373 -0.95263118 0.59814382
3.95856190 -9.14971828 2.09793472 0.89061463 -0.98507828 0.77259862
4.43636370 -8.63501835 2.11398792 0.99811262 -0.92966461 0.77851045
4.05235434 -9.05288315 2.08705902 0.91171652 -0.97465283 0.76859349
4.01371050 -9.22834492 1.33030951 0.90302223 -0.99354339 0.48990813
4.07008743 -8.94188118 2.06698084 0.91570616 -0.96270210 0.76119936
4.01289654 -9.07094765 1.30921209 0.90283912 -0.97659767 0.48213866
4.01458216 -9.15838432 1.58440936 0.90321833 -0.98601133 0.58348453
4.10226297 -8.86470890 2.05485034 0.92294514 -0.95439357 0.75673211
4.06941605 -9.08261108 1.31412518 0.91555512 -0.97785342 0.48394799
4.03274584 -9.08347607 1.57450402 0.90730488 -0.97794652 0.57983673
4.14149141 -8.83997059 2.05359530 0.93177092 -0.95173019 0.75626993
4.12063408 -9.04426861 1.31210220 0.92707837 -0.97372538 0.48320299
4.05138111 -8.97346497 1.55948615 0.91149753 -0.96610248 0.57430619
4.09814405 -8.60738277 2.00465465 0.92201847 -0.92668927 0.73824674
4.08286095 -8.89405537 1.54990029 0.91858000 -0.95755309 0.57077605
4.19150162 -8.66236305 2.02389646 0.94302243 -0.93260860 0.74533284
4.12925720 -8.92974567 2.60167480 0.92901844 -0.96139556 0.95810908
4.13111496 -8.85214138 1.54702449 0.92943639 -0.95304054 0.56971693
4.24497890 -8.63410378 2.02347803 0.95505399 -0.92956614 0.74517876
3.92379117 -9.16436195 2.00806856 0.88279176 -0.98665488 0.73950392
4.20344210 -8.94204998 2.61306381 0.94570887 -0.96272027 0.96230328
4.19175196 -8.83670235 1.54894173 0.94307876 -0.95137835 0.57042301
4.34302521 -8.69465160 2.04439282 0.97711289 -0.93608487 0.75288093
3.97117019 -9.11615467 2.00285053 0.89345133 -0.98146474 0.73758233
3.99180317 -9.00909424 1.24990129 0.89809340 -0.96993840 0.46029651
4.37747478 -9.16099930 2.68605709 0.98486352 -0.98629284 0.98918426
4.40290070 -8.67764568 2.04690266 0.99058396 -0.93425393 0.75380522
4.08344412 -9.10050201 1.26693141 0.91871119 -0.97977954 0.46656811
3.99690390 -8.75714874 1.93782520 0.89924103 -0.94281340 0.71363568
4.04526043 -9.22187042 1.50395465 0.91012049 -0.99284637 0.55385578
4.10356760 -8.84394169 1.96311283 0.92323869 -0.95215774 0.72294825
4.05260181 -9.08242130 1.48493278 0.91177219 -0.97783297 0.54685068
4.16737556 -8.83572197 1.96712673 0.93759447 -0.95127279 0.72442645
4.08762980 -9.00812340 1.47678065 0.91965294 -0.96983391 0.54384851
4.16799831 -8.69440651 1.94103634 0.93773460 -0.93605846 0.71481824
4.11965752 -9.05017757 2.53786302 0.92685866 -0.97436154 0.93460935
4.12188530 -8.93374538 1.46862853 0.92735988 -0.96182621 0.54084635
4.19947720 -8.62043953 1.93019879 0.94481683 -0.92809498 0.71082711
4.12594938 -8.95145798 2.51532149 0.92827421 -0.96373320 0.92630810
4.16810369 -8.92318726 1.47013819 0.93775827 -0.96068949 0.54140234
4.16984272 -8.89903259 2.50780773 0.93814957 -0.95808893 0.92354101
3.95763993 -9.28831577 1.93773234 0.89040720 -1.00000000 0.71360147
4.15770149 -8.72916985 2.46673226 0.93541795 -0.93980116 0.90841430
3.91159701 -9.02394867 1.88674366 0.88004827 -0.97153765 0.69482410
4.16627073 -8.60692120 2.43918157 0.93734592 -0.92663962 0.89826834
3.97697115 -9.01893234 1.89096081 0.89475644 -0.97099763 0.69637710
4.24664354 -8.63449192 2.45471001 0.95542854 -0.92960793 0.90398693
4.01419306 -8.95082188 1.88175988 0.90313083 -0.96366471 0.69298869
4.28099060 -8.56775951 2.44318891 0.96315610 -0.92242336 0.89974409
4.02061844 -8.70851898 1.83920538 0.90457642 -0.93757784 0.67731732
4.07525587 -8.68308544 1.83920538 0.91686898 -0.93483961 0.67731732
4.12379074 -8.64491940 1.83652174 0.92778856 -0.93073058 0.67632902
4.11046743 -9.00708675 2.42936325 0.92479104 -0.96972227 0.89465255
4.17974615 -8.62236691 1.83728850 0.94037765 -0.92830253 0.67661142
4.13826323 -8.91952324 2.41245842 0.93104464 -0.96029502 0.88842708
3.83171034 -8.95706844 1.77898455 0.86207503 -0.96433723 0.65514004
4.07199478 -8.63555717 2.34145832 0.91613531 -0.92972261 0.86228013
4.31914568 -8.66539001 1.85684061 0.97174037 -0.93293446 0.68381178
3.94623852 -9.10684586 1.81301594 0.88784212 -0.98046255 0.66767263
4.08157301 -8.55153179 2.32358742 0.91829026 -0.92067623 0.85569888
3.96075177 -8.98462772 1.79325581 0.89110732 -0.96730429 0.66039562
4.08758259 -8.42803097 2.29653978 0.91964233 -0.90737987 0.84573817
4.21111298 -8.54478264 2.33614516 0.94743472 -0.91994965 0.86032349
4.00026226 -8.77297974 1.76032209 0.89999658 -0.94451779 0.64826727
4.28827763 -8.56496239 2.34918618 0.96479553 -0.92212224 0.86512607
4.05283546 -8.74231529 1.75922430 0.91182476 -0.94121641 0.64786297
4.37822914 -8.60869980 2.36898899 0.98503321 -0.92683107 0.87241876
3.99182677 -9.02670097 2.31437922 0.89809871 -0.97183400 0.85230786
4.02257395 -8.53507710 1.72189951 0.90501636 -0.91890472 0.63411754
4.44475269 -8.60513592 2.37575078 1.00000000 -0.92644739 0.87490892
4.05323029 -9.01209736 2.31715751 0.91191357 -0.97026175 0.85333097
4.15882874 -8.71854210 1.76361549 0.93567157 -0.93865693 0.64948010
4.08842897 -8.97694683 2.31299019 0.91983271 -0.96647733 0.85179627
4.23914480 -8.74537373 1.77459335 0.95374143 -0.94154567 0.65352291
4.02185345 -8.68422604 2.24307299 0.90485430 -0.93496239 0.82604814
4.04333878 -8.58830070 2.22455192 0.90968812 -0.92463487 0.81922746
4.06712294 -8.49947834 2.20788288 0.91503918 -0.91507208 0.81308883
4.22938013 -8.56120491 2.23797965 0.95154452 -0.92171770 0.82417244
4.32480001 -8.61802197 2.26020503 0.97301251 -0.92783475 0.83235729
4.39255667 -8.65138340 2.27455902 0.98825669 -0.93142647 0.83764338
4.43972301 -8.60976410 2.27085471 0.99886841 -0.92694569 0.83627921
