-3.85422134 -10.94258595 1.98765206 -0.96964556 -0.97522390 0.79548633
-3.74893355 -10.86036110 1.96808124 -0.94315726 -0.96789587 0.78765380
-3.69129634 -10.91545010 1.97391820 -0.92865688 -0.97280550 0.78998983
-3.97487640 -11.00996304 0.88645226 -1.00000000 -0.98122865 0.35477069
-3.83616281 -10.83738804 0.86813664 -0.96510243 -0.96584845 0.34744051
-3.80242753 -10.96110153 0.87738168 -0.95661527 -0.97687399 0.35114050
-3.92144656 -10.96932888 1.28288472 -0.98655814 -0.97760725 0.51342851
-3.75445747 -10.71254539 1.24654019 -0.94454700 -0.95472223 0.49888295
-3.94098639 -11.05987835 1.95054018 -0.99147397 -0.98567718 0.78063363
-3.70586753 -10.73575211 1.24726701 -0.93232268 -0.95679045 0.49917382
-3.82252884 -10.89050865 1.91687441 -0.96167237 -0.97058266 0.76716012
-3.65984893 -10.82280540 1.25550508 -0.92074531 -0.96454883 0.50247079
-3.50863862 -10.93944263 0.86743891 -0.88270384 -0.97494376 0.34716126
-3.94022393 -10.92969322 0.81954157 -0.99128211 -0.97407484 0.32799208
-3.73468614 -10.85840130 1.90687466 -0.93957287 -0.96772116 0.76315808
-3.63150525 -10.96627235 1.27101219 -0.91361463 -0.97733486 0.50867695
-3.42856455 -10.92513371 0.86412466 -0.86255878 -0.97366852 0.34583485
-3.84010172 -10.86596107 0.81181806 -0.96609336 -0.96839494 0.32490101
-3.59358573 -11.08524227 1.28336930 -0.90407485 -0.98793769 0.51362246
-3.78355551 -10.92375565 0.81477600 -0.95186746 -0.97354567 0.32608482
-3.53819323 -11.15304279 1.28918445 -0.89013916 -0.99398017 0.51594979
-3.81016731 -10.75549603 1.18944931 -0.95856243 -0.95855010 0.47603437
-3.73530960 -10.75859261 1.18690562 -0.93972975 -0.95882607 0.47501636
-3.70266008 -10.82867527 1.19338059 -0.93151575 -0.96507192 0.47760773
-3.93886113 -11.16874695 2.49866271 -0.99093926 -0.99537975 1.00000000
-3.65103960 -10.90067387 1.19939303 -0.91852909 -0.97148860 0.48001397
-3.53308892 -11.03452778 0.81691229 -0.88885504 -0.98341793 0.32693979
-3.77389026 -10.91768932 2.43633652 -0.94943589 -0.97300506 0.97505617
-3.64969873 -11.12714767 1.22436774 -0.91819173 -0.99167234 0.49000922
-3.80650544 -10.64198112 1.51122761 -0.95764118 -0.94843340 0.60481459
-3.42234230 -10.92533684 0.80557346 -0.86099339 -0.97368658 0.32240185
-3.86513925 -10.89438629 0.75005329 -0.97239232 -0.97092825 0.30018190
-3.70084977 -10.92821026 2.43340850 -0.93106031 -0.97394270 0.97388434
-3.58581877 -11.16876411 1.22668028 -0.90212083 -0.99538130 0.49093473
-3.76106238 -10.72735596 1.52076483 -0.94620866 -0.95604217 0.60863149
-3.76924372 -10.83930111 0.74361724 -0.94826692 -0.96601892 0.29760608
-3.90915728 -11.03130531 1.86016285 -0.98346639 -0.98313069 0.74446338
-3.69212866 -11.13327408 2.47440147 -0.92886627 -0.99221838 0.99029028
-3.94429183 -10.96421242 1.17176235 -0.99230552 -0.97715127 0.46895579
-3.73708439 -10.87812424 1.54041731 -0.94017625 -0.96947891 0.61649668
-3.74136996 -10.98175812 0.75327128 -0.94125444 -0.97871494 0.30146977
-3.76242805 -10.83171177 1.82181942 -0.94655222 -0.96534258 0.72911781
-3.79047680 -10.74684143 1.14292765 -0.95360869 -0.95777875 0.45741573
-3.66803408 -10.89951324 1.54012835 -0.92280453 -0.97138518 0.61638105
-3.70188975 -10.87757969 1.82565367 -0.93132198 -0.96943039 0.73065233
-3.73070717 -10.73828411 1.13979828 -0.93857187 -0.95701611 0.45616332
-3.63148785 -10.96179008 1.54706442 -0.91361028 -0.97693539 0.61915696
-3.67781615 -10.80481243 1.14493930 -0.92526555 -0.96294522 0.45822084
-3.60140395 -11.10493851 1.56556082 -0.90604174 -0.98969305 0.62655950
-3.51828933 -10.94219017 0.74499643 -0.88513178 -0.97518861 0.29815805
-3.63611484 -10.90694332 1.15432739 -0.91477430 -0.97204733 0.46197808
-3.80889893 -10.65085697 1.45537984 -0.95824337 -0.94922441 0.58246350
-3.40007591 -10.80610943 0.73227763 -0.85539162 -0.96306086 0.29306781
-3.60738182 -11.05245399 1.16885650 -0.90754569 -0.98501551 0.46779284
-3.75507283 -10.71193314 1.46096349 -0.94470179 -0.95466769 0.58469814
-3.56794024 -11.16961479 1.18003285 -0.89762294 -0.99545711 0.47226575
-3.72649884 -10.84762573 1.47771442 -0.93751311 -0.96676081 0.59140211
-3.74394584 -10.89963722 2.32677341 -0.94190246 -0.97139621 0.93120748
-3.82637024 -10.85990238 1.07747185 -0.96263880 -0.96785498 0.43121940
-3.66271305 -10.88395596 1.47966874 -0.92146587 -0.96999866 0.59218425
-3.85548377 -10.71005440 1.70443785 -0.96996319 -0.95450020 0.68214005
-3.68041301 -10.93779278 2.32998443 -0.92591888 -0.97479671 0.93249255
-3.73975897 -10.77640915 1.06612849 -0.94084913 -0.96041387 0.42667964
-3.62828851 -10.95182419 1.48720670 -0.91280538 -0.97604722 0.59520108
-3.81227756 -10.74858761 1.70775914 -0.95909333 -0.95793438 0.68346924
-3.67528200 -11.09442806 2.36008883 -0.92462802 -0.98875630 0.94454080
-3.68935299 -10.85050583 1.07180023 -0.92816800 -0.96701753 0.42894953
-3.61715007 -11.15138149 1.51344979 -0.91000313 -0.99383211 0.60570389
-3.76619959 -10.83391666 1.71772289 -0.94750106 -0.96553904 0.68745691
-3.58848643 -11.06514549 2.34885001 -0.90279198 -0.98614663 0.94004285
-3.66911983 -11.01680279 1.08776498 -0.92307770 -0.98183823 0.43533885
-3.70189881 -10.86858845 1.71953452 -0.93132424 -0.96862906 0.68818194
-3.59610772 -11.02830029 1.08650458 -0.90470934 -0.98286289 0.43483442
-3.73161888 -10.58499908 1.37964427 -0.93880123 -0.94335508 0.55215305
-3.64926147 -10.93849277 1.72708285 -0.91808176 -0.97485906 0.69120288
-3.54620123 -11.11127663 1.09322655 -0.89215386 -0.99025792 0.43752465
-3.72040534 -10.76943970 1.40270889 -0.93598014 -0.95979273 0.56138384
-3.90416312 -11.02054787 1.03856266 -0.98220992 -0.98217201 0.41564739
-3.68805885 -10.89779663 1.41772771 -0.92784238 -0.97123218 0.56739461
-3.77912045 -10.82826805 1.01612401 -0.95075166 -0.96503562 0.40666714
-3.64538765 -10.94139481 1.42148244 -0.91710716 -0.97511774 0.56889731
-3.71805620 -10.87252331 1.01832783 -0.93538916 -0.96897978 0.40754914
-3.59246373 -11.01310158 1.42845535 -0.90379256 -0.98150837 0.57168794
-3.68927765 -11.01461411 1.03094959 -0.92814904 -0.98164314 0.41260055
-3.58194351 -11.22058868 1.45473826 -0.90114588 -1.00000000 0.58220673
-3.92726660 -10.93928814 1.35148168 -0.98802233 -0.97492999 0.54088199
-3.73457098 -10.82876301 2.20302653 -0.93954390 -0.96507978 0.88168222
-3.64220428 -11.10568619 1.03816199 -0.91630632 -0.98975968 0.41548705
-3.74594641 -10.64583111 1.30823600 -0.94240576 -0.94877654 0.52357447
-3.67958355 -10.89108944 2.21107745 -0.92571020 -0.97063440 0.88490433
-3.55541563 -11.07527065 1.03255236 -0.89447200 -0.98704898 0.41324198
-3.71018600 -10.75911999 1.32044649 -0.93340915 -0.95887303 0.52846128
-3.66382360 -11.07435322 2.24404740 -0.92174530 -0.98696721 0.89809936
-3.90904093 -11.04028893 0.95045388 -0.98343712 -0.98393136 0.38038501
-3.67378688 -10.87425423 1.33291149 -0.92425185 -0.96913403 0.53344995
-3.79765463 -10.88946056 0.93379050 -0.95541453 -0.97048926 0.37371612
-3.65460253 -10.98738956 1.34588516 -0.91942543 -0.97921687 0.53864217
-3.61513877 -11.10062408 1.35809577 -0.90949714 -0.98930854 0.54352903
-3.55137777 -11.14200974 1.36063957 -0.89345616 -0.99299687 0.54454714
-3.54543281 -11.05157757 0.94064099 -0.89196050 -0.98493743 0.37645778
-3.80545664 -10.84383392 2.10466170 -0.95737737 -0.96642292 0.84231526
-3.74850345 -10.84493065 2.10136843 -0.94304907 -0.96652067 0.84099722
-3.70564699 -10.94271851 2.11600542 -0.93226725 -0.97523570 0.84685516
