-15.48167896 4.21385574 1.26637018 -0.90067267 0.90949291 0.57624674
-15.37728596 4.34392929 1.81133437 -0.89459944 0.93756717 0.82422620
-15.46932316 4.10632420 1.26288152 -0.89995384 0.88628393 0.57465923
-15.45405388 4.26088190 1.81763411 -0.89906555 0.91964275 0.82709283
-15.44600010 4.15446043 1.81327271 -0.89859700 0.89667338 0.82510823
-15.53032684 4.41932631 1.19290113 -0.90350282 0.95384043 0.54281551
-15.56444073 3.94578981 0.71754074 -0.90548748 0.85163522 0.32650840
-15.39510250 3.67532802 1.24735689 -0.89563596 0.79326040 0.56759495
-15.50979137 4.30826235 1.18879282 -0.90230817 0.92986906 0.54094607
-15.47884369 4.44610596 1.73588800 -0.90050775 0.95962036 0.78989524
-16.93034554 4.20544386 0.79150158 -0.98495126 0.90767735 0.36016339
-15.45688629 3.61311316 1.25136888 -0.89923030 0.77983230 0.56942058
-15.45879459 4.21563339 1.18271267 -0.89934134 0.90987659 0.53817940
-15.48352814 4.34229612 1.73311305 -0.90078026 0.93721467 0.78863251
-16.95255089 4.09805107 0.79128873 -0.98624313 0.88449836 0.36006656
-15.46762180 3.51329112 1.25032222 -0.89985490 0.75828731 0.56894428
-15.49653053 4.12150860 1.18369865 -0.90153670 0.88956124 0.53862804
-15.43197250 4.22332525 1.72363186 -0.89778090 0.91153675 0.78431821
-15.46992970 3.41177058 1.24857795 -0.89998913 0.73637575 0.56815058
-15.48547268 4.01451015 1.18057632 -0.90089339 0.86646736 0.53720725
-15.45439720 3.56366777 1.79679656 -0.89908552 0.76916033 0.81761098
-15.49082184 4.13503218 1.72756314 -0.90120459 0.89248013 0.78610712
-15.48521423 3.31326032 1.24805462 -0.90087837 0.71511388 0.56791246
-15.44741535 3.46002364 1.79316211 -0.89867932 0.74679041 0.81595713
-15.47255230 3.20906329 1.24508929 -0.90014172 0.69262463 0.56656313
-15.42053318 3.79137802 1.17088079 -0.89711541 0.81830788 0.53279543
-15.70990753 3.44082308 1.82393384 -0.91395026 0.74264628 0.82995945
-15.79689980 3.42841339 0.72328734 -0.91901118 0.73996782 0.32912332
-15.47187710 3.13297200 1.24369371 -0.90010244 0.67620158 0.56592804
-15.48278427 3.72946143 1.17466044 -0.90073699 0.80494422 0.53451532
-15.52836609 4.34295750 1.10081577 -0.90338880 0.93735743 0.50091314
-15.50006580 3.29324555 1.79510045 -0.90174234 0.71079403 0.81683916
-15.46289730 4.50582695 1.67268229 -0.89958000 0.97251016 0.76113421
-15.71061134 3.30660462 0.71743429 -0.91399121 0.71367735 0.32645997
-15.65941811 3.90898228 0.63138503 -0.91101295 0.84369087 0.28730425
-15.44823170 3.02732444 1.23985624 -0.89872682 0.65339923 0.56418186
-15.46904850 3.62342286 1.17153811 -0.89993787 0.78205746 0.53309453
-15.44459724 3.18027377 1.78565085 -0.89851540 0.68641090 0.81253922
-15.34174728 4.36633730 1.65524733 -0.89253193 0.94240361 0.75320065
-15.49814701 3.16063619 0.70477051 -0.90163070 0.68217242 0.32069746
-15.53229809 3.77353525 0.62395698 -0.90361750 0.81445682 0.28392422
-15.49044418 2.93462110 1.24194944 -0.90118259 0.63339072 0.56513435
-15.47790909 3.52304292 1.17038786 -0.90045333 0.76039207 0.53257114
-16.01351166 4.26183605 1.13514113 -0.93161291 0.91984868 0.51653248
-15.46816921 3.08394170 1.78613544 -0.89988673 0.66561913 0.81275976
-15.50292110 3.64623952 1.71507573 -0.90190846 0.78698206 0.78042483
-15.47998428 4.30057240 1.66821182 -0.90057409 0.92820930 0.75910002
-15.56081676 3.07165027 0.70711172 -0.90527666 0.66296625 0.32176280
-15.59651756 3.68556905 0.62595683 -0.90735358 0.79547071 0.28483424
-15.43800640 2.82441783 1.23566973 -0.89813197 0.60960513 0.56227684
-15.47444534 3.42009902 1.16825151 -0.90025187 0.73817331 0.53159899
-15.46774197 2.98295808 1.78371251 -0.89986187 0.64382344 0.81165719
-15.52552509 3.54876041 1.71507573 -0.90322351 0.76594281 0.78042483
-15.48942947 4.19856644 1.66620016 -0.90112358 0.90619296 0.75818461
-15.59990120 3.58300424 0.62500447 -0.90755045 0.77333379 0.28440088
-15.47311020 2.73045611 1.23723972 -0.90017414 0.58932501 0.56299126
-15.48588657 3.32070136 1.16742992 -0.90091747 0.71671993 0.53122514
-16.09481049 4.06756639 1.13743973 -0.93634260 0.87791872 0.51757842
-15.46275330 2.88137913 1.78080487 -0.89957166 0.62189931 0.81033415
-15.55333233 3.45244002 1.71576941 -0.90484124 0.74515361 0.78074050
-15.48090553 4.09206295 1.66217661 -0.90062767 0.88320589 0.75635374
-15.59871483 3.47966790 0.62386173 -0.90748143 0.75103027 0.28388089
-15.47817230 2.63119435 1.23619306 -0.90046865 0.56790096 0.56251496
-15.47522926 3.21680498 1.16480052 -0.90029746 0.69429553 0.53002864
-16.57329559 4.07729340 1.17329752 -0.96417928 0.88001812 0.53389513
-15.46248341 2.80601716 1.77910888 -0.89955592 0.60563362 0.80956239
-15.39281178 3.34054041 1.69472587 -0.89550269 0.72100186 0.77116489
-15.49655533 4.63319254 1.56964862 -0.90153813 1.00000000 0.71424997
-17.11177444 3.06964159 0.78830904 -0.99550623 0.66253269 0.35871068
-15.59347534 3.40141177 0.62281418 -0.90717661 0.73413998 0.28340420
-15.46680546 2.55436110 1.23409986 -0.89980739 0.55131769 0.56156248
-15.47849846 3.14145041 1.16381454 -0.90048766 0.67803150 0.52958000
-16.56517792 3.99263930 1.17115211 -0.96370703 0.86174691 0.53291887
-15.46611691 2.70643115 1.77741277 -0.89976734 0.58413959 0.80879056
-15.49123573 3.26022434 1.70397580 -0.90122867 0.70366693 0.77537400
-15.31161690 4.47299719 1.54612160 -0.89077902 0.96542442 0.70354426
-15.53930664 3.68708611 2.19299412 -0.90402526 0.79579818 0.99789596
-15.59304523 3.29879284 0.62176663 -0.90715158 0.71199131 0.28292751
-15.46483707 2.45434284 1.23253000 -0.89969289 0.52973038 0.56084818
-15.47642231 3.03988099 1.16200697 -0.90036684 0.65610933 0.52875751
-15.70630646 3.68247914 1.10142875 -0.91374075 0.79480380 0.50119209
-15.49597836 4.24628210 0.99667805 -0.90150458 0.91649163 0.45352653
-15.46715164 2.60658288 1.77547443 -0.89982754 0.56258893 0.80790859
-15.47443962 3.15523744 1.69958210 -0.90025151 0.68100721 0.77337468
-15.43692684 4.40465927 1.55683482 -0.89806914 0.95067477 0.70841920
-15.53130341 3.58230066 2.18836999 -0.90355968 0.77318192 0.99579179
-17.01894760 2.83288217 0.78128541 -0.99010587 0.61143202 0.35551465
-15.60172558 3.19833231 0.62119526 -0.90765661 0.69030851 0.28266752
-15.47601223 2.35653186 1.23218107 -0.90034300 0.50861943 0.56068939
-15.48738575 2.94108295 1.16134965 -0.90100467 0.63478541 0.52845836
-15.80086613 3.84334993 0.56162757 -0.91924191 0.82952517 0.25556195
-15.48408318 3.52821398 1.08212066 -0.90081257 0.76150817 0.49240616
-15.51079273 4.14572954 0.99583256 -0.90236640 0.89478898 0.45314178
-15.46166229 2.50588346 1.77280915 -0.89950818 0.54085457 0.80669576
-15.47642231 3.05446267 1.69750082 -0.90036684 0.65925658 0.77242762
-15.41258335 4.29310465 1.55116320 -0.89665294 0.92659748 0.70583838
-17.02457619 2.72401452 0.78064686 -0.99043334 0.58793467 0.35522410
-15.59604549 3.09515309 0.61995721 -0.90732616 0.66803896 0.28210416
-15.48065376 2.25782251 1.23130894 -0.90061301 0.48731464 0.56029254
-15.47811890 2.83864617 1.15904903 -0.90046555 0.61267608 0.52741152
-15.63214302 3.69869113 0.55311710 -0.90942615 0.79830295 0.25168937
-15.49815559 3.42914248 1.08150768 -0.90163124 0.74012518 0.49212724
-15.46925449 2.40747499 1.77183998 -0.89994985 0.51961470 0.80625474
-15.48165226 2.95453715 1.69588220 -0.90067112 0.63768929 0.77169108
-15.89431953 3.69725323 1.69659948 -0.92467874 0.79799259 0.77201748
-15.46803284 4.20404148 1.55431414 -0.89987880 0.90737468 0.70727223
-15.63699150 3.40022826 2.19761801 -0.90970826 0.73388451 1.00000000
-17.04530525 2.61759448 0.78085971 -0.99163926 0.56496561 0.35532096
-15.59557056 2.99330926 0.61900491 -0.90729851 0.64605761 0.28167084
-15.48663998 2.15942049 1.23061121 -0.90096128 0.46607614 0.55997503
-15.48583698 2.73958993 1.15822732 -0.90091455 0.59129637 0.52703762
-15.63949108 3.59683609 0.55242938 -0.90985364 0.77631915 0.25137642
-15.34192371 3.29383588 1.06756306 -0.89254218 0.71092141 0.48578191
-16.14545059 4.09948111 1.03838849 -0.93928868 0.88480699 0.47250637
-15.46443653 2.30732799 1.76941693 -0.89966959 0.49799958 0.80515218
-15.47451878 2.85249090 1.69287586 -0.90025610 0.61566424 0.77032310
-15.39367294 3.47967362 1.63624775 -0.89555275 0.75103152 0.74455512
-15.47300148 4.10113859 1.55200338 -0.90016782 0.88516474 0.70622075
-17.03770065 2.50698376 0.77958268 -0.99119687 0.54109210 0.35473984
-15.60032368 2.89269376 0.61833829 -0.90757501 0.62434137 0.28136751
-15.48014927 2.05947113 1.22886682 -0.90058368 0.44450366 0.55918127
-15.48113537 2.63852429 1.15641975 -0.90064102 0.56948298 0.52621508
-15.61301613 3.48767161 0.55028027 -0.90831345 0.75275773 0.25039852
-15.49315453 3.22443008 1.07782996 -0.90134031 0.69594133 0.49045372
-16.85821724 4.16877556 1.08841288 -0.98075509 0.89976305 0.49526936
-15.47273064 2.20928288 1.76869011 -0.90015209 0.47683814 0.80482143
-15.47844791 2.75275350 1.69125724 -0.90048468 0.59413749 0.76958656
-15.49484634 3.40024829 1.64541221 -0.90143871 0.73388886 0.74872530
-15.51867104 3.77556062 2.11229706 -0.90282476 0.81489396 0.96117574
-17.03333473 2.39712429 0.77851850 -0.99094284 0.51738065 0.35425562
-15.59656525 2.79071927 0.61729074 -0.90735638 0.60233182 0.28089082
-15.47696781 1.96018445 1.22747135 -0.90039861 0.42307425 0.55854625
-15.48167610 2.53860140 1.15510511 -0.90067250 0.54791623 0.52561688
-15.61508751 3.38529515 0.54942065 -0.90843391 0.73066145 0.25000736
-15.50333214 3.12506318 1.07706380 -0.90193236 0.67449456 0.49010509
-17.03145027 4.09841537 1.09912241 -0.99083322 0.88457698 0.50014263
-15.46920109 2.13446355 1.76699400 -0.89994675 0.46068957 0.80404967
-15.47559166 2.67705345 1.68940723 -0.90031850 0.57779890 0.76874471
-15.48737240 3.32222080 1.64273000 -0.90100390 0.71704787 0.74750477
-15.49199486 3.69177341 2.10587573 -0.90127283 0.79680985 0.95825374
-15.40631008 4.51263714 1.47772002 -0.89628798 0.97398007 0.67241895
-15.47058678 4.29405689 2.03349805 -0.90002733 0.92680305 0.92531914
-17.03256607 2.31523013 0.77788001 -0.99089813 0.49970514 0.35396507
-15.59576893 2.71477556 0.61662412 -0.90731007 0.58594060 0.28058749
-15.48207760 1.88675261 1.22712255 -0.90069586 0.40722516 0.55838758
-15.48362637 2.46403885 1.15428340 -0.90078598 0.53182310 0.52524298
-15.61522484 3.30838013 0.54873294 -0.90844190 0.71406054 0.24969441
-15.50027180 3.04853010 1.07568467 -0.90175432 0.65797615 0.48947755
-16.49341965 3.88613009 1.05868006 -0.95953238 0.83875859 0.48173979
-15.48624420 2.03773904 1.76747859 -0.90093827 0.43981317 0.80427015
-15.48035145 2.57779217 1.68801975 -0.90059543 0.55637491 0.76811337
-15.49042320 3.22122669 1.64071822 -0.90118140 0.69524992 0.74658936
-15.50909901 3.59301376 2.10503817 -0.90226787 0.77549416 0.95787263
-15.45158386 4.42065239 1.47952318 -0.89892185 0.95412666 0.67323947
-15.52788067 4.20501852 2.03778911 -0.90336055 0.90758556 0.92727178
-17.03885460 2.20714951 0.77745432 -0.99126399 0.47637767 0.35377136
-15.58888054 2.61273837 0.61548138 -0.90690929 0.56391752 0.28006750
-15.48966694 1.78898728 1.22677362 -0.90113741 0.38612410 0.55822879
-15.48698235 2.36488366 1.15329742 -0.90098119 0.51042205 0.52479428
-15.61808300 3.20660782 0.54795927 -0.90860820 0.69209468 0.24934237
-16.84024048 3.85673404 1.08207178 -0.97970927 0.83241391 0.49238393
-15.48772144 4.15462875 0.90869361 -0.90102422 0.89670974 0.41349024
-15.47706985 1.93771183 1.76481330 -0.90040451 0.41822389 0.80305737
-15.48055267 2.47794366 1.68616974 -0.90060717 0.53482425 0.76727152
-15.48891926 3.11954570 1.63825941 -0.90109390 0.67330372 0.74547052
-15.37005138 3.68833375 1.53078711 -0.89417857 0.79606742 0.69656652
-15.50432682 3.48937464 2.10112977 -0.90199023 0.75312531 0.95609415
-15.41003323 4.30429649 1.47231078 -0.89650458 0.92901307 0.66995758
-17.04643822 2.09932303 0.77713507 -0.99170518 0.45310506 0.35362610
-15.59315777 2.51281738 0.61490995 -0.90715814 0.54235119 0.27980748
-15.48871613 1.69034672 1.22572708 -0.90108210 0.36483413 0.55775255
-15.48378944 2.26491046 1.15181839 -0.90079546 0.48884445 0.52412128
-15.61439896 3.10376930 0.54692769 -0.90839386 0.66989863 0.24887295
-16.30731773 3.62631416 1.04177046 -0.94870561 0.78268152 0.47404528
-15.47710896 1.83903897 1.76335955 -0.90040678 0.39692694 0.80239582
-15.47618484 2.37758613 1.68385720 -0.90035301 0.51316369 0.76621926
-15.49065304 3.01876616 1.63624775 -0.90119475 0.65155208 0.74455512
-15.47618484 3.61122942 1.53981972 -0.90035301 0.77942574 0.70067668
-15.47178650 3.37998533 2.09331250 -0.90009713 0.72951543 0.95253700
-15.47902584 4.21884632 1.47671831 -0.90051830 0.91057003 0.67196316
-15.41458988 1.80208278 0.68891418 -0.89676964 0.38895056 0.31348222
-15.59876919 2.41325402 0.61443383 -0.90748459 0.52086204 0.27959082
-15.48317432 1.59138656 1.22433150 -0.90075964 0.34347516 0.55711752
-15.47995090 2.16507101 1.15033948 -0.90057212 0.46729571 0.52344835
-15.60415173 2.99997950 0.54563826 -0.90779775 0.64749724 0.24828622
-17.18901825 3.04316163 1.20317888 -1.00000000 0.65681744 0.54749227
-15.59477139 3.36423779 0.98864597 -0.90725201 0.72611654 0.44987163
-15.48243904 1.74109983 1.76263261 -0.90071690 0.37578836 0.80206507
-15.48492336 2.27942443 1.68316352 -0.90086144 0.49197707 0.76590359
-15.49759293 2.91918421 1.63490653 -0.90159851 0.63005888 0.74394482
-15.48305607 3.51038098 1.53813922 -0.90075278 0.75765920 0.69991201
-15.47444725 4.11336613 1.47351277 -0.90025192 0.88780385 0.67050451
-15.58443642 1.72254193 0.69742763 -0.90665078 0.37178293 0.31735617
-15.62745380 2.31726599 0.61510044 -0.90915334 0.50014454 0.27989417
-15.48493385 1.49331748 1.22363377 -0.90086204 0.32230854 0.55680001
-15.49127388 2.06749916 1.15017509 -0.90123087 0.44623640 0.52337354
-15.61090279 2.89970279 0.54512244 -0.90819049 0.62585413 0.24805149
-15.46722984 3.23495626 0.97793657 -0.89983207 0.69821322 0.44499844
-15.48454952 1.66749156 1.76190579 -0.90083969 0.35990119 0.80173433
-15.47976208 2.20416760 1.68131351 -0.90056115 0.47573408 0.76506180
-15.49357986 2.84291601 1.63289487 -0.90136504 0.61359763 0.74302942
-15.46836662 3.43045020 1.53477824 -0.89989823 0.74040741 0.69838262
-15.52740288 3.21370196 2.09610438 -0.90333271 0.69362581 0.95380741
-17.00269699 1.79639149 0.77298474 -0.98916042 0.38772216 0.35173753
-15.60063553 2.23815918 0.61329103 -0.90759319 0.48307061 0.27907079
-15.48187733 1.41943359 1.22276163 -0.90068424 0.30636188 0.55640316
-15.47910213 1.99164927 1.14836752 -0.90052277 0.42986542 0.52255100
-15.60472679 2.82257485 0.54426283 -0.90783119 0.60920733 0.24766034
-17.07189560 2.82937455 1.19153285 -0.99318618 0.61067492 0.54219288
-15.50379848 3.16645193 0.97948658 -0.90195954 0.68342763 0.44570374
-15.48484421 1.56917918 1.76069427 -0.90085679 0.33868206 0.80118304
-15.48149681 2.10524106 1.67992604 -0.90066206 0.45438239 0.76443040
-15.50134850 2.74379206 1.63177729 -0.90181696 0.59220332 0.74252087
-15.47406483 3.32982516 1.53309774 -0.90022969 0.71868914 0.69761795
-15.48648739 4.54905748 1.36222386 -0.90095240 0.98184079 0.61986381
-15.53653812 3.71366000 2.02250218 -0.90386420 0.80153370 0.92031562
-15.43712902 4.29264498 1.91571105 -0.89808089 0.92649829 0.87172157
-17.03153610 1.69128060 0.77394253 -0.99083823 0.36503568 0.35217336
-15.61438942 2.14009380 0.61329103 -0.90839332 0.46190479 0.27907079
-15.49247551 1.32229757 1.22293603 -0.90130079 0.28539664 0.55648255
-15.48735332 1.89386356 1.14803886 -0.90100276 0.40875995 0.52240145
-15.59655762 2.72004247 0.54314530 -0.90735590 0.58707738 0.24715182
-17.06767082 2.71862864 1.18984723 -0.99294043 0.58677220 0.54142588
-15.50186443 3.06469297 0.97793657 -0.90184700 0.66146463 0.44499844
-15.49439716 1.47185469 1.76069427 -0.90141255 0.31767613 0.80118304
-15.49047947 2.00741124 1.67946351 -0.90118468 0.43326738 0.76421994
-15.49084759 2.64169860 1.62864792 -0.90120608 0.57016808 0.74109691
-15.47521591 3.22844672 1.53099716 -0.90029669 0.69680822 0.69666207
-15.41526318 4.42297840 1.35259616 -0.89680880 0.95462865 0.61548281
-15.49970150 3.60213685 2.01418829 -0.90172118 0.77746326 0.91653246
-15.48293400 4.20078516 1.91825485 -0.90074569 0.90667182 0.87287909
-17.03784943 1.58387065 0.77372968 -0.99120551 0.34185296 0.35207650
-15.61762524 2.04063725 0.61281484 -0.90858155 0.44043869 0.27885413
-15.48657322 1.22384953 1.22171509 -0.90095741 0.26414821 0.55592698
-15.49102879 1.79558849 1.14738154 -0.90121663 0.38754886 0.52210236
-15.59165955 2.61838102 0.54219967 -0.90707099 0.56513536 0.24672152
-16.41147995 3.38163042 0.47542676 -0.95476538 0.72987050 0.21633731
-17.06864166 2.60894442 1.18862128 -0.99299687 0.56309867 0.54086798
-15.49490070 1.90906084 1.67853856 -0.90144187 0.41204002 0.76379907
-15.49929333 2.54303837 1.62775373 -0.90169740 0.54887390 0.74069005
-15.47570515 3.12718558 1.52889645 -0.90032512 0.67495263 0.69570619
-15.47416973 3.72541165 1.46389627 -0.90023583 0.80407012 0.66612864
-15.45425034 4.32927227 1.35370708 -0.89907694 0.93440372 0.61598831
-15.53169823 3.50684905 2.01552916 -0.90358263 0.75689691 0.91714263
-17.04149628 1.47627807 0.77341044 -0.99141765 0.31863084 0.35193124
-15.61824608 1.94097555 0.61224347 -0.90861768 0.41892833 0.27859414
-15.48799515 1.12609529 1.22119176 -0.90104014 0.24304953 0.55568880
-15.49209976 1.69712245 1.14655983 -0.90127891 0.36629656 0.52172846
-15.59596539 2.51846862 0.54168391 -0.90732145 0.54357088 0.24648684
-16.19529724 3.23084331 0.46657425 -0.94218862 0.69732553 0.21230908
-15.49806881 2.27123260 1.06541765 -0.90162617 0.49020898 0.48480567
-15.40566826 4.03579378 0.81070805 -0.89625061 0.87106109 0.36890307
-15.60467243 1.28456962 1.77208221 -0.90782803 0.27725366 0.80636501
-15.47699642 1.80816996 1.67506981 -0.90040028 0.39026436 0.76222062
-15.50122070 2.44345546 1.62618911 -0.90180957 0.52738053 0.73997808
-15.46967888 3.02489305 1.52616572 -0.89997452 0.65287447 0.69446361
-15.47401428 3.62269807 1.46149206 -0.90022677 0.78190106 0.66503465
-15.46002388 4.22628260 1.35167038 -0.89941287 0.91217506 0.61506158
-17.04844284 1.36901724 0.77330399 -0.99182177 0.29548034 0.35188282
-15.59442616 1.83854890 0.61052930 -0.90723193 0.39682117 0.27781412
-15.48482418 1.02811289 1.22031951 -0.90085566 0.22190161 0.55529189
-15.48857975 1.59829962 1.14540958 -0.90107411 0.34496725 0.52120507
-15.58580780 2.41648054 0.54056638 -0.90673053 0.52155840 0.24597833
-16.14268494 3.11492133 0.46386728 -0.93912780 0.67230558 0.21107730
-15.49228096 2.17106938 1.06388533 -0.90128946 0.46859038 0.48410839
-16.94320679 3.02082396 1.07742167 -0.98569953 0.65199620 0.49026793
-15.54672623 3.36894131 0.90035516 -0.90445691 0.72713172 0.40969592
-17.00096512 4.34188271 0.90729028 -0.98905969 0.93712544 0.41285169
-15.48969078 1.17732990 1.75705981 -0.90113878 0.25410771 0.79952919
-15.49200058 1.71133149 1.67553234 -0.90127313 0.36936334 0.76243109
-15.50840473 2.34483242 1.62529504 -0.90222746 0.50609434 0.73957121
-15.48447132 2.92689133 1.52574551 -0.90083510 0.63172233 0.69427240
-15.48676586 3.52320647 1.46049035 -0.90096861 0.76042736 0.66457880
-15.45741940 4.12132931 1.34889317 -0.89926136 0.88952255 0.61379784
-15.97593784 3.39620852 2.07104516 -0.92942703 0.73301691 0.94240451
-17.05272484 1.26158249 0.77309120 -0.99207091 0.27229226 0.35178599
-15.61758137 1.74187469 0.61110067 -0.90857899 0.37595561 0.27807412
-15.49296665 0.93091607 1.22049403 -0.90132934 0.20092325 0.55537134
-15.48641396 1.49978268 1.14442360 -0.90094811 0.32370394 0.52075636
-15.58684540 2.31646657 0.53996462 -0.90679091 0.49997202 0.24570449
-16.02443314 2.98761892 0.45874599 -0.93224829 0.64482945 0.20874692
-15.51352406 2.07473350 1.06449831 -0.90252531 0.44779781 0.48438734
-17.01886177 2.92417192 1.08150816 -0.99010086 0.63113540 0.49212745
-15.45427608 3.24753404 0.89279842 -0.89907849 0.70092791 0.40625733
-15.48886013 1.07944107 1.75609064 -0.90109044 0.23297997 0.79908824
-15.48861790 1.61250114 1.67391360 -0.90107638 0.34803241 0.76169455
-15.50315857 2.24452257 1.62305975 -0.90192229 0.48444405 0.73855406
-15.47125721 2.82378793 1.52238452 -0.90006638 0.60946918 0.69274300
-15.48332977 3.42028356 1.45788586 -0.90076870 0.73821312 0.66339368
-15.49795437 3.19360232 2.00211954 -0.90161949 0.68928766 0.91104072
-17.06031609 1.15441287 0.77309120 -0.99251252 0.24916142 0.35178599
-15.49254131 0.83323997 1.21997070 -0.90130460 0.17984143 0.55513316
-15.49354649 1.40226746 1.14425921 -0.90136307 0.30265686 0.52068156
-15.59317780 2.21737146 0.53962076 -0.90715933 0.47858393 0.24554802
-15.99962234 2.87903476 0.45713645 -0.93080491 0.62139326 0.20801452
-15.50449085 1.97447598 1.06281269 -0.90199977 0.42615885 0.48362032
-17.08216095 2.82472157 1.08474910 -0.99378341 0.60967064 0.49360222
-15.53697300 3.16302848 0.89696765 -0.90388948 0.68268877 0.40815449
-16.97658920 4.10902834 0.90253252 -0.98764157 0.88686758 0.41068670
-15.48584938 1.00593543 1.75512147 -0.90091527 0.21711497 0.79864722
-15.50395107 1.54029107 1.67483854 -0.90196836 0.33244702 0.76211542
-15.51553249 2.17171383 1.62328327 -0.90264213 0.46872947 0.73865581
-15.47656155 2.74944854 1.52154434 -0.90037495 0.59342420 0.69236070
-15.48176479 3.34352422 1.45608270 -0.90067768 0.72164583 0.66257316
-15.49533939 3.11703944 1.99970591 -0.90146738 0.67276275 0.90994245
-15.49724960 3.71180820 1.90451801 -0.90157855 0.80113405 0.86662835
-17.05559921 1.07339013 0.77255911 -0.99223810 0.23167397 0.35154384
-15.56026554 1.56236613 0.60748190 -0.90524459 0.33721158 0.27642742
-15.48435497 0.75965405 1.21892405 -0.90082836 0.16395909 0.55465692
-15.48806858 1.32820308 1.14327323 -0.90104437 0.28667125 0.52023292
-15.58167458 2.14090228 0.53867519 -0.90649009 0.46207929 0.24511775
-15.96183681 2.79458070 0.45523426 -0.92860669 0.60316527 0.20714895
-15.47996902 1.89731097 1.06020761 -0.90057319 0.40950403 0.48243490
-17.07755661 2.74132609 1.08348095 -0.99351555 0.59167111 0.49302515
-15.52233601 3.08398128 0.89501333 -0.90303797 0.66562772 0.40726519
-15.49582863 0.90884304 1.75560606 -0.90149587 0.19615914 0.79886770
-15.49552250 1.44116807 1.67275739 -0.90147805 0.31105292 0.76116842
-15.50916767 2.07157898 1.62104797 -0.90227187 0.44711697 0.73763865
-15.47589111 2.64910984 1.51965380 -0.90033597 0.57176769 0.69150043
-15.48493290 3.24253607 1.45427966 -0.90086198 0.69984919 0.66175270
-15.55353737 3.02714109 2.00506973 -0.90485317 0.65335965 0.91238320
-15.48356724 3.60576797 1.89968467 -0.90078253 0.77824694 0.86442900
-17.06200600 0.96620613 0.77255911 -0.99261087 0.20854004 0.35154384
-15.58966255 1.46646476 0.60843420 -0.90695482 0.31651279 0.27686077
-15.49479485 0.66259611 1.21944737 -0.90143573 0.14301071 0.55489504
-15.49809456 1.23102355 1.14343762 -0.90162766 0.26569661 0.52030772
-15.61067104 2.04501390 0.53936285 -0.90817702 0.44138333 0.24543066
-15.91208553 2.68285251 0.45274678 -0.92571229 0.57905048 0.20601705
-15.51139545 1.80228627 1.06174004 -0.90240145 0.38899446 0.48313221
-17.09247208 2.63366508 1.08334005 -0.99438328 0.56843418 0.49296105
-15.57260990 0.81510526 1.76432872 -0.90596271 0.17592734 0.80283684
-15.51004601 1.97260261 1.61970687 -0.90232295 0.42575452 0.73702842
-15.47064781 2.54823661 1.51734304 -0.90003091 0.54999584 0.69044894
-15.47769070 3.13967466 1.45147479 -0.90044063 0.67764825 0.66047639
-15.40315533 3.72029042 1.33482194 -0.89610445 0.80296481 0.60739487
-15.51964760 2.91953087 1.99782848 -0.90288156 0.63013375 0.90908813
-17.05178261 0.85819995 0.77170771 -0.99201608 0.18522865 0.35115644
-15.58463955 1.36724341 0.60776758 -0.90666258 0.29509747 0.27655742
-15.48471355 0.56473702 1.21822631 -0.90084922 0.12188939 0.55433941
-15.48763371 1.13229096 1.14195859 -0.90101910 0.24438678 0.51963472
-15.59346485 1.94322169 0.53807342 -0.90717602 0.41941312 0.24484393
-15.86550903 2.57250524 0.45040563 -0.92300260 0.55523384 0.20495173
-15.53034306 1.70565093 1.06235290 -0.90350378 0.36813730 0.48341107
-17.08500290 2.52269363 1.08164907 -0.99394876 0.54448277 0.49219158
-16.19970131 3.00661850 0.93748748 -0.94244480 0.64893019 0.42659256
-15.84715080 0.72931093 1.79728115 -0.92193460 0.15741003 0.81783146
-15.78168869 1.26832628 1.70420706 -0.91812623 0.27374780 0.77547920
-15.51029396 1.87369704 1.61836576 -0.90233737 0.40440732 0.73641813
-15.47849655 2.44972801 1.51650286 -0.90048754 0.52873433 0.69006664
-15.48344040 3.03969836 1.45007241 -0.90077513 0.65606993 0.65983826
-15.46304989 3.63213611 1.33833981 -0.89958888 0.78393811 0.60899568
-15.54548645 2.82336783 1.99890125 -0.90438479 0.60937846 0.90957630
-15.45404816 3.39464831 1.89001799 -0.89906520 0.73268020 0.86003023
-17.05085182 0.75078773 0.77138847 -0.99196196 0.16204545 0.35101116
-15.62477779 1.27193069 0.60929132 -0.90899771 0.27452576 0.27725080
-15.49990559 0.46777812 1.21927297 -0.90173304 0.10096237 0.55481571
-15.50239754 1.03549945 1.14261591 -0.90187800 0.22349589 0.51993382
-15.61528969 1.84636760 0.53850323 -0.90844572 0.39850873 0.24503951
-15.80632877 2.46098948 0.44762549 -0.91955972 0.53116494 0.20368667
-15.53480244 1.60742986 1.06189322 -0.90376323 0.34693787 0.48320192
-17.07879066 2.41220164 1.08009899 -0.99358732 0.52063489 0.49148622
-16.93743324 3.03266382 0.98517323 -0.98536360 0.65455163 0.44829139
-15.73846912 3.41733098 0.82141298 -0.91561186 0.73757589 0.37377423
-15.42688656 0.61340636 1.74542952 -0.89748502 0.13239388 0.79423702
-15.60511589 1.15526307 1.68270099 -0.90785384 0.24934493 0.76569313
-15.51188564 1.77508974 1.61724806 -0.90243000 0.38312453 0.73590952
-15.47785473 2.35001707 1.51482236 -0.90045017 0.50721335 0.68930197
-15.48267841 2.93866825 1.44806898 -0.90073079 0.63426423 0.65892661
-15.45839310 3.52866840 1.33574772 -0.89931798 0.76160628 0.60781616
-15.54534531 2.72258306 1.99648750 -0.90437657 0.58762568 0.90847796
-15.75632381 3.35778952 1.92690408 -0.91665059 0.72472477 0.87681484
-17.06720734 0.64407760 0.77202702 -0.99291342 0.13901378 0.35130173
-17.03278542 1.28070068 0.67623901 -0.99091089 0.27641863 0.30771455
-15.50652313 0.37047070 1.21962178 -0.90211803 0.07996014 0.55497444
-15.50660801 0.93795222 1.14245164 -0.90212297 0.20244189 0.51985908
-15.59282017 1.74448502 0.53704184 -0.90713847 0.37651899 0.24437451
-15.80566883 2.35924697 0.44704020 -0.91952133 0.50920546 0.20342034
-15.53665543 1.50902998 1.06128025 -0.90387100 0.32569984 0.48292297
-17.08570290 2.30376983 1.07953537 -0.99398947 0.49723163 0.49122977
-17.05450821 2.94303727 0.99168766 -0.99217463 0.63520718 0.45125571
-15.69322491 3.30430627 0.81736892 -0.91297972 0.71318132 0.37193403
-15.52369499 0.51946336 1.75681758 -0.90311700 0.11211780 0.79941899
-15.55062866 1.05295050 1.67553234 -0.90468395 0.22726241 0.76243109
-15.51680374 1.67695832 1.61657751 -0.90271610 0.36194444 0.73560441
-15.48641109 2.25185490 1.51419210 -0.90094799 0.48602661 0.68901515
-15.48713207 2.83883643 1.44666648 -0.90098989 0.61271715 0.65828842
-15.45693493 3.42626977 1.33352590 -0.89923316 0.73950517 0.60680515
-15.55041695 2.62289286 1.99487841 -0.90467161 0.56610918 0.90774578
-15.56540585 3.21471810 1.89917588 -0.90554363 0.69384515 0.86419743
-17.06293297 0.53658760 0.77160132 -0.99266475 0.11581379 0.35110801
-17.03850365 1.17351639 0.67614383 -0.99124354 0.25328460 0.30767122
-15.50456047 0.27296874 1.21927297 -0.90200382 0.05891591 0.55481571
-15.50622463 0.84017211 1.14195859 -0.90210068 0.18133762 0.51963472
-15.61341000 1.64751422 0.53747165 -0.90833634 0.35558942 0.24457009
-15.82017994 2.25989103 0.44704020 -0.92036551 0.48776108 0.20342034
-15.54384422 1.41120338 1.06112707 -0.90428925 0.30458552 0.48285329
-17.07214165 2.19278145 1.07756257 -0.99320048 0.47327656 0.49033207
-17.08841705 2.83842087 0.99272996 -0.99414736 0.61262745 0.45172998
-15.53571129 3.16909766 0.80654502 -0.90381610 0.68399870 0.36700875
-15.52200127 0.44619527 1.75633299 -0.90301847 0.09630407 0.79919851
-15.57722473 0.98106045 1.67807603 -0.90623122 0.21174610 0.76358861
-15.51267052 1.60260880 1.61523640 -0.90247566 0.34589732 0.73499417
-15.48306656 2.17689586 1.51272166 -0.90075338 0.46984792 0.68834603
-15.49054050 2.76408863 1.44566476 -0.90118819 0.59658402 0.65783262
-15.45345306 3.34914994 1.33167446 -0.89903057 0.72286010 0.60596263
-15.55282307 2.54799485 1.99353743 -0.90481162 0.54994369 0.90713555
-15.50067329 3.12515545 1.88874602 -0.90177768 0.67451447 0.85945147
-15.54792023 0.41742313 0.69072330 -0.90452635 0.09009406 0.31430545
-17.04783249 1.09347200 0.67633426 -0.99178630 0.23600832 0.30775788
-15.48973656 0.19971791 1.21787751 -0.90114141 0.04310589 0.55418068
-15.49010468 0.76608104 1.14031529 -0.90116286 0.16534625 0.51888692
-15.58322144 1.57016277 0.53583837 -0.90658009 0.33889434 0.24382690
-15.80294037 2.18145370 0.44601592 -0.91936260 0.47083166 0.20295425
-15.53442574 1.33659256 1.05990112 -0.90374130 0.28848198 0.48229542
-17.09020424 2.11329556 1.07812619 -0.99425131 0.45612082 0.49058855
-17.08583641 2.75533891 0.99168766 -0.99399722 0.59469551 0.45125571
-15.49761868 3.08525968 0.80333358 -0.90160000 0.66590363 0.36554742
-15.53243828 0.34882739 1.75730217 -0.90362567 0.07528877 0.79963952
-15.72190952 0.89121670 1.69426346 -0.91464847 0.19235477 0.77095449
-15.52045536 1.50491965 1.61501288 -0.90292853 0.32481268 0.73489243
-15.48658371 2.07823491 1.51167142 -0.90095800 0.44855353 0.68786812
-15.56377316 1.28221691 2.14126182 -0.90544862 0.27674589 0.97435576
-15.48210144 2.66235352 1.44306028 -0.90069723 0.57462615 0.65664744
-15.45665646 3.24827909 1.33000803 -0.89921695 0.70108873 0.60520440
-15.55090141 2.44747353 1.99112368 -0.90469980 0.52824777 0.90603721
-15.50832367 3.02540660 1.88721979 -0.90222275 0.65298527 0.85875696
-17.04838371 0.98598331 0.67604858 -0.99181837 0.21280862 0.30762789
-15.52455521 0.10256912 1.22084284 -0.90316707 0.02213789 0.55553007
-15.50058651 0.66900504 1.14080834 -0.90177268 0.14439397 0.51911128
-15.60471725 1.47333157 0.53635412 -0.90783066 0.31799489 0.24406157
-15.81435394 2.08185506 0.44594279 -0.92002660 0.44933489 0.20292097
-15.53655243 1.23849356 1.05944145 -0.90386504 0.26730889 0.48208627
-15.53405571 1.81997037 0.96652251 -0.90371978 0.39281130 0.43980461
-17.09097672 2.64611363 0.99090594 -0.99429625 0.57112104 0.45089999
-15.54027843 0.25131646 1.75802898 -0.90408182 0.05424261 0.79997021
-15.81250858 0.79682487 1.70420706 -0.91991925 0.17198181 0.77547920
-15.52366638 1.40684223 1.61434221 -0.90311533 0.30364424 0.73458725
-15.49144650 1.97987068 1.51083112 -0.90124089 0.42732319 0.68748575
-15.56954861 1.18425465 2.14097285 -0.90578461 0.25560230 0.97422427
-15.48281384 2.56244588 1.44145751 -0.90073872 0.55306268 0.65591812
-15.45139885 3.14590096 1.32760119 -0.89891106 0.67899209 0.60410917
-15.55029106 2.34737039 1.98897815 -0.90466428 0.50664210 0.90506089
-15.48999691 2.92087388 1.88238645 -0.90115660 0.63042361 0.85655761
-15.43411446 0.22048648 0.68444461 -0.89790553 0.04758846 0.31144840
-17.03828239 0.87800491 0.67528671 -0.99123067 0.18950322 0.30728120
-15.49651623 0.57129520 1.14015102 -0.90153587 0.12330487 0.51881218
-15.59574986 1.37370110 0.53558046 -0.90730894 0.29649127 0.24370953
-15.75573921 1.97341669 0.44330898 -0.91661656 0.42593020 0.20172249
-15.53209400 1.13999045 1.05852199 -0.90360564 0.24604858 0.48166788
-15.52139282 1.71966445 0.96483159 -0.90298307 0.37116188 0.43903518
-17.09541893 2.53693247 0.99012417 -0.99455470 0.54755604 0.45054427
-16.21412277 3.01749516 0.84448808 -0.94328380 0.65127772 0.38427427
-15.53559494 0.15361860 1.75730217 -0.90380931 0.03315610 0.79963952
-15.44013882 0.68034500 1.66026998 -0.89825600 0.14684151 0.75548613
-15.55398655 1.31108499 1.61680102 -0.90487927 0.28297657 0.73570615
-15.48976135 1.88080049 1.50936067 -0.90114290 0.40594050 0.68681669
-15.70501804 1.09518850 2.15975833 -0.91366577 0.23637880 0.98277241
-15.48288345 2.46263433 1.43985474 -0.90074277 0.53151995 0.65518880
-15.45132732 3.04487991 1.32574964 -0.89890689 0.65718830 0.60326666
-15.56080914 2.24905729 1.98844171 -0.90527618 0.48542279 0.90481681
-15.51975060 2.82563758 1.88391268 -0.90288752 0.60986835 0.85725212
-17.04346275 0.77093363 0.67528671 -0.99153209 0.16639361 0.30728120
-15.49780846 0.47385356 1.13998663 -0.90161103 0.10227366 0.51873738
-15.60208130 1.27552342 0.53549451 -0.90767729 0.27530119 0.24367042
-15.71226501 1.86770499 0.44126046 -0.91408741 0.40311405 0.20079033
-15.52900124 1.04172325 1.05775583 -0.90342569 0.22483920 0.48131925
-17.09724045 1.78764927 1.07601249 -0.99466068 0.38583532 0.48962671
-17.09718704 2.42752171 0.98921216 -0.99465758 0.52394146 0.45012924
-17.00287819 3.05486035 0.89111394 -0.98917097 0.65934241 0.40549082
-15.52549744 0.58650017 1.66975117 -0.90322191 0.12658662 0.75980043
-15.75810146 1.22837007 1.63893008 -0.91675401 0.26512390 0.74577570
-15.49337006 1.78251934 1.50852048 -0.90135282 0.38472810 0.68643433
-15.58122540 0.98839086 2.14068389 -0.90646398 0.21332826 0.97409278
-15.48427868 2.36322069 1.43845236 -0.90082389 0.51006311 0.65455067
-15.46819782 2.94736171 1.32556450 -0.89988840 0.63614058 0.60318238
-15.54910564 2.14774990 1.98495531 -0.90459532 0.46355724 0.90323037
-15.48054886 2.71804690 1.87653553 -0.90060693 0.58664668 0.85389525
-17.04796982 0.66383183 0.67528671 -0.99179429 0.14327741 0.30728120
-15.49649429 0.37636721 1.13965797 -0.90153456 0.08123280 0.51858783
-15.59583950 1.17643416 0.53489274 -0.90731412 0.25391436 0.24339660
-15.68397331 1.76442575 0.43979722 -0.91244149 0.38082290 0.20012450
-15.51931477 0.94318479 1.05652988 -0.90286219 0.20357125 0.48076138
-17.07240105 1.67663741 1.07347608 -0.99321562 0.36187518 0.48847255
-17.10814667 2.31951833 0.98895156 -0.99529517 0.50063068 0.45001069
-16.99813461 2.94385242 0.88968664 -0.98889500 0.63538313 0.40484136
-15.51894855 0.48861408 1.66859496 -0.90284091 0.10545948 0.75927436
-15.77542114 1.13003266 1.64004767 -0.91776162 0.24389935 0.74628425
-15.49042511 1.68361461 1.50705004 -0.90118152 0.36338109 0.68576527
-15.49094391 2.26474285 1.43765092 -0.90121168 0.48880827 0.65418601
-15.46487236 2.84612179 1.32352793 -0.89969492 0.61428958 0.60225570
-15.57211971 2.05129170 1.98629618 -0.90593421 0.44273829 0.90384048
-15.52469921 2.62539291 1.88009691 -0.90317547 0.56664878 0.85551578
-17.03982544 0.55629849 0.67471534 -0.99132043 0.12006807 0.30702120
-15.50054646 0.27903157 1.13982224 -0.90177029 0.06022447 0.51866257
-15.60491657 1.07855523 0.53497869 -0.90784222 0.23278877 0.24343571
-15.65500546 1.66157591 0.43833402 -0.91075623 0.35862440 0.19945869
-15.50701237 0.84470344 1.05515075 -0.90214646 0.18231563 0.48013383
-17.07862473 1.56896627 1.07319427 -0.99357766 0.33863610 0.48834431
-17.10654449 2.20995259 0.98790926 -0.99520195 0.47698268 0.44953638
-17.03992271 2.84096050 0.89111394 -0.99132609 0.61317557 0.40549082
-15.74239063 -0.11662303 1.78250098 -0.91584003 -0.02517120 0.81110591
-15.52107811 0.41547760 1.66859496 -0.90296477 0.08967415 0.75927436
-15.75875568 1.05424929 1.63758886 -0.91679209 0.22754273 0.74516541
-15.48434067 1.60914207 1.50557959 -0.90082753 0.34730741 0.68509614
-15.56941032 0.81589919 2.13750482 -0.90577656 0.17609870 0.97264618
-15.48567867 2.18951035 1.43604815 -0.90090537 0.47257054 0.65345669
-15.42715931 2.76401663 1.31871402 -0.89750087 0.59656847 0.60006517
-15.56981468 1.97640502 1.98468709 -0.90580010 0.42657518 0.90310830
-15.49579906 2.54539990 1.87475479 -0.90149415 0.54938358 0.85308492
-15.59451580 0.43383011 0.60567254 -0.90723717 0.09363525 0.27560410
-15.50966072 0.20610054 1.14047968 -0.90230054 0.04448348 0.51896173
-15.59586620 1.00412667 0.53437698 -0.90731573 0.21672457 0.24316190
-15.64476776 1.58594799 0.43767557 -0.91016066 0.34230134 0.19915907
-15.51679611 0.77190864 1.05561042 -0.90271568 0.16660406 0.48034298
-17.07191849 1.48723948 1.07220781 -0.99318755 0.32099670 0.48789543
-17.11082649 2.12858343 0.98751843 -0.99545109 0.45942044 0.44935855
-17.05115128 2.76030898 0.89099503 -0.99197936 0.59576827 0.40543672
-15.82670403 -0.21681145 1.79291975 -0.92074507 -0.04679526 0.81584686
-15.53331280 0.31816465 1.66975117 -0.90367657 0.06867071 0.75980043
-15.77300453 0.95568454 1.63848293 -0.91762102 0.20626912 0.74557221
-15.49018764 1.51142848 1.50515938 -0.90116769 0.32621750 0.68490493
-15.53334141 1.29402936 2.05813551 -0.90367824 0.27929538 0.93653017
-15.48532295 2.09032297 1.43464577 -0.90088469 0.45116255 0.65281856
-15.45010757 2.66805530 1.31926942 -0.89883596 0.57585675 0.60031790
-15.57405281 1.87759995 1.98361433 -0.90604669 0.40524971 0.90262014
-15.50952721 2.44767547 1.87450039 -0.90229279 0.52829134 0.85296917
-15.53656101 0.10886252 1.14261591 -0.90386552 0.02349622 0.51993382
-15.60984802 0.90656877 0.53472084 -0.90812910 0.19566827 0.24331838
-15.64646530 1.48685169 0.43738291 -0.91025937 0.32091299 0.19902590
-15.50739384 0.67381144 1.05453777 -0.90216869 0.14543135 0.47985491
-17.08490181 1.38027084 1.07248962 -0.99394286 0.29790923 0.48802367
-16.43327904 2.18618178 0.38874787 -0.95603359 0.47185212 0.17689511
-15.46073914 1.82673144 0.87820601 -0.89945447 0.39427057 0.39961722
-17.04448891 2.64941216 0.88956767 -0.99159175 0.57183295 0.40478721
-16.29940033 -0.32633832 1.85082877 -0.94824499 -0.07043487 0.84219766
-15.54493713 0.22071433 1.67090738 -0.90435284 0.04763763 0.76032656
-15.76083565 0.85561502 1.63647127 -0.91691309 0.18467072 0.74465686
-15.49145603 1.41333842 1.50431919 -0.90124148 0.30504635 0.68452263
-15.64975548 1.20490777 2.07349062 -0.91045082 0.26005995 0.94351733
-15.49025536 1.99198031 1.43384445 -0.90117162 0.42993689 0.65245390
-15.45085430 2.56829476 1.31778824 -0.89887941 0.55432504 0.59964389
-15.58948231 1.78015351 1.98415065 -0.90694433 0.38421747 0.90286422
-15.50302887 2.34688449 1.87170219 -0.90191472 0.50653720 0.85169590
-15.57476616 0.23743783 0.60452974 -0.90608817 0.05124713 0.27508408
-15.60725307 0.80806905 0.53437698 -0.90797818 0.17440869 0.24316190
-15.66346169 1.38923001 0.43767557 -0.91124821 0.29984292 0.19915907
-15.51132107 0.57636297 1.05453777 -0.90239716 0.12439866 0.47985491
-17.08926010 1.27259564 1.07220781 -0.99419641 0.27466929 0.48789543
-16.40305519 2.07741404 0.38735077 -0.95427525 0.44837636 0.17625937
-15.57506371 1.74094784 0.88498104 -0.90610546 0.37575555 0.40270013
-17.05290222 2.54108047 0.88909191 -0.99208122 0.54845130 0.40457073
-15.53012562 0.12289233 1.66905737 -0.90349114 0.02652433 0.75948477
-15.41053104 0.73997605 1.59646022 -0.89653355 0.15971191 0.72645026
-15.49210453 1.31529212 1.50347888 -0.90127921 0.28388461 0.68414021
-15.57602978 1.10072505 2.06204414 -0.90616167 0.23757377 0.93830872
-15.49456310 1.89365816 1.43304300 -0.90142220 0.40871561 0.65208924
-15.46668625 2.47116399 1.31778824 -0.89980042 0.53336096 0.59964389
-15.57670975 1.67964828 1.98093235 -0.90620124 0.36252505 0.90139979
-15.52728367 2.25086617 1.87297404 -0.90332580 0.48581323 0.85227460
-15.62200356 0.71043140 0.53480679 -0.90883631 0.15333518 0.24335748
-15.64997196 1.28895378 0.43687078 -0.91046339 0.27819991 0.19879286
-15.52061653 0.47906846 1.05499744 -0.90293795 0.10339921 0.48006406
-17.08099556 1.16409218 1.07108057 -0.99371558 0.25125057 0.48738250
-16.35226440 1.96675026 0.38531858 -0.95132047 0.42449138 0.17533465
-17.10026741 1.80073321 0.98439145 -0.99483675 0.38865927 0.44793564
-17.05272293 2.43161106 0.88814038 -0.99207079 0.52482408 0.40413773
-15.51416874 0.64714640 1.60763645 -0.90256280 0.13967612 0.73153591
-15.49808025 1.21776867 1.50326884 -0.90162683 0.26283577 0.68404466
-15.59251976 1.00348568 2.06344008 -0.90712100 0.21658622 0.93894392
-15.50417805 1.79603982 1.43284273 -0.90198159 0.38764629 0.65199810
-15.45829105 2.37028337 1.31556654 -0.89931202 0.51158750 0.59863293
-15.73486042 1.59655964 2.00104690 -0.91540194 0.34459168 0.91055262
-15.52343750 2.15078831 1.87068462 -0.90310204 0.46421301 0.85123283
-15.63015175 0.61241335 0.53497869 -0.90931034 0.13217956 0.24343571
-15.66573238 1.19121373 0.43716341 -0.91138029 0.25710431 0.19892602
-15.49540997 0.38089132 1.05285215 -0.90147150 0.08220926 0.47908789
-17.08797264 1.05674684 1.07108057 -0.99412149 0.22808179 0.48738250
-16.28682899 1.85524035 0.38284189 -0.94751364 0.40042377 0.17420766
-17.10925865 1.69306004 0.98426121 -0.99535984 0.36541975 0.44787639
-17.05975151 2.32333136 0.88766456 -0.99247968 0.50145364 0.40392122
-15.82048321 -0.07323939 1.70281959 -0.92038316 -0.01580754 0.77484787
-15.52587318 0.54992688 1.60853064 -0.90324372 0.11869286 0.73194277
-15.49550724 1.11963820 1.50221860 -0.90147716 0.24165587 0.68356675
-15.59653950 0.90537846 2.06316090 -0.90735489 0.19541135 0.93881691
-15.50130844 1.69709146 1.43144023 -0.90181464 0.36628985 0.65135992
-15.46105957 2.27135777 1.31445563 -0.89947313 0.49023601 0.59812742
-15.76826096 1.49988544 2.00426507 -0.91734505 0.32372612 0.91201705
-15.51894855 2.05084777 1.86839509 -0.90284091 0.44264248 0.85019100
-15.62969685 0.51406854 0.53480679 -0.90928388 0.11095342 0.24335748
-15.64898491 1.09106112 0.43628550 -0.91040599 0.23548797 0.19852653
-15.50547218 0.28365934 1.05346513 -0.90205687 0.06122330 0.47936681
-17.08630753 0.94890779 1.07051682 -0.99402463 0.20480646 0.48712599
-16.24250603 1.74695504 0.38106373 -0.94493508 0.37705210 0.17339852
-17.11757088 1.58534503 0.98413092 -0.99584341 0.34217119 0.44781709
-17.05421829 2.21350360 0.88647515 -0.99215776 0.47774911 0.40338001
-16.36824226 -0.15220772 1.76664400 -0.95225000 -0.03285158 0.80389041
-15.52829266 0.47675708 1.60853064 -0.90338451 0.10290034 0.73194277
-15.49664307 1.04633200 1.50179839 -0.90154326 0.22583391 0.68337554
-15.49329853 1.62238741 1.42983747 -0.90134865 0.35016620 0.65063059
-15.45582104 2.19621253 1.31297445 -0.89916831 0.47401711 0.59745347
-15.78699875 1.42661798 2.00587440 -0.91843516 0.30791253 0.91274935
-15.52253723 1.97693443 1.86763191 -0.90304965 0.42668948 0.84984374
-15.62395668 0.44019520 0.53446293 -0.90894991 0.09500904 0.24320102
-15.64597511 1.01677632 0.43599284 -0.91023088 0.21945480 0.19839337
-15.51261902 0.21066205 1.05392480 -0.90247267 0.04546801 0.47957596
-17.07465172 0.86755139 1.06938958 -0.99334651 0.18724699 0.48661304
-16.19885063 1.66514492 0.37941259 -0.94239533 0.35939473 0.17264719
-17.12286186 1.50449073 0.98400062 -0.99615127 0.32472008 0.44775781
-17.06247902 2.13286328 0.88635617 -0.99263835 0.46034420 0.40332586
-15.52303410 0.37899753 1.60763645 -0.90307856 0.08180051 0.73153591
-15.49695683 0.94857138 1.50116825 -0.90156150 0.20473386 0.68308878
-15.50318623 1.52500880 1.42983747 -0.90192389 0.32914859 0.65063059
-15.46536922 2.09851718 1.31260407 -0.89972383 0.45293114 0.59728491
-15.52307510 1.30484390 1.96886373 -0.90308094 0.28162953 0.89590806
-15.53662205 1.87960589 1.86788630 -0.90386909 0.40568265 0.84995949
-15.58645916 0.34119648 0.53274363 -0.90676844 0.07364176 0.24241868
-15.64008427 0.91773236 0.43555388 -0.90988815 0.19807775 0.19819362
-15.54753590 0.11339276 1.05652988 -0.90450400 0.02447400 0.48076138
-17.08972931 0.76070720 1.07009411 -0.99422371 0.16418640 0.48693362
-16.15924263 1.55859673 0.37782496 -0.94009107 0.33639801 0.17192477
-17.10412598 1.39463794 0.98217654 -0.99506128 0.30101013 0.44692779
-15.48773670 1.83535421 0.79108238 -0.90102512 0.39613166 0.35997266
-15.53107071 0.28155687 1.60830712 -0.90354609 0.06076952 0.73184109
-15.50062466 0.85107142 1.50095820 -0.90177488 0.18369006 0.68299323
-15.50453472 1.42685080 1.42903614 -0.90200233 0.30796278 0.65026593
-15.46837616 2.00001502 1.31167841 -0.89989877 0.43167102 0.59686369
-15.44401550 1.20063961 1.95706320 -0.89848155 0.25913873 0.89053839
-15.53433037 1.78035092 1.86610568 -0.90373576 0.38426009 0.84914923
-15.63424778 0.24391492 0.53472084 -0.90954864 0.05264511 0.24331838
-15.64155006 0.81923103 0.43540755 -0.90997344 0.17681782 0.19812705
-17.09417152 0.65331495 1.07009411 -0.99448216 0.14100751 0.48693362
-16.11694717 1.45243537 0.37617382 -0.93763047 0.31348479 0.17117344
-17.10459137 1.28655338 0.98165542 -0.99508834 0.27768183 0.44669065
-15.55053997 1.74385810 0.79417491 -0.90467876 0.37638369 0.36137986
-15.55041885 0.18415578 1.61031878 -0.90467173 0.03974706 0.73275644
-15.50963879 0.75386029 1.50137830 -0.90229928 0.16270861 0.68318439
-15.50327969 1.32856894 1.42803442 -0.90192932 0.28675020 0.64981014
-15.47075653 1.90155792 1.31075263 -0.90003723 0.41042066 0.59644246
-15.56790257 1.11175632 1.97288656 -0.90568888 0.23995470 0.89773864
-15.53732300 1.68184710 1.86508811 -0.90390986 0.36299962 0.84868622
-15.63840294 0.72055840 0.43511492 -0.90979034 0.15552093 0.19799387
-17.08398247 0.54543465 1.06910777 -0.99388939 0.11772329 0.48648480
-16.03610420 1.34374344 0.37331608 -0.93292731 0.29002538 0.16987306
-17.09839821 1.17811358 0.98074341 -0.99472803 0.25427684 0.44627565
-17.04605103 1.80514300 0.88314474 -0.99168265 0.38961104 0.40186453
-15.51009560 0.65622276 1.50095820 -0.90232587 0.14163512 0.68299323
-15.50933647 1.23097849 1.42783403 -0.90228170 0.26568687 0.64971894
-15.47251034 1.80314994 1.30982685 -0.90013927 0.38918087 0.59602118
-15.52513218 1.01076460 1.96618176 -0.90320063 0.21815726 0.89468765
-15.52390385 1.58174682 1.86203551 -0.90312916 0.34139457 0.84729719
-15.64461899 0.62236792 0.43518806 -0.91015196 0.13432810 0.19802716
-15.51954269 0.39602759 0.95834953 -0.90287548 0.08547618 0.43608558
-16.00237274 1.23977029 0.37198246 -0.93096489 0.26758444 0.16926621
-17.10944748 1.07090330 0.98100394 -0.99537086 0.23113723 0.44639421
-17.04712486 1.69700396 0.88255000 -0.99174511 0.36627099 0.40159389
-15.51192474 0.55868345 1.50074816 -0.90243226 0.12058283 0.68289763
-15.50485611 1.13265252 1.42663193 -0.90202105 0.24446481 0.64917195
-15.47165871 1.70457435 1.30871606 -0.90008974 0.36790493 0.59551573
-15.57470703 0.91570044 1.97208202 -0.90608472 0.19763920 0.89737254
-15.53551006 1.48436797 1.86228991 -0.90380436 0.32037693 0.84741294
-15.63623619 0.52364129 0.43474910 -0.90966427 0.11301954 0.19782741
-15.41202068 0.29625469 0.95059925 -0.89662015 0.06394181 0.43255892
-15.98990536 1.13780701 0.37134740 -0.93023962 0.24557732 0.16897723
-17.10985947 0.96305162 0.98061311 -0.99539483 0.20785919 0.44621637
-17.06738853 1.59079909 0.88314474 -0.99292397 0.34334835 0.40186453
-16.88484192 -0.09354480 1.76030421 -0.98230404 -0.02019014 0.80100554
-15.50842190 0.48538482 1.50011790 -0.90222847 0.10476249 0.68261087
-15.50009441 1.05891013 1.42563021 -0.90174401 0.22854871 0.64871609
-15.46961880 1.63059044 1.30779028 -0.89997107 0.35193670 0.59509444
-15.63453388 0.44983155 0.43460277 -0.90956527 0.09708890 0.19776084
-15.50700092 0.22510822 0.95722222 -0.90214580 0.04858598 0.43557262
-15.99907970 1.06270397 0.37147442 -0.93077332 0.22936754 0.16903503
-17.11420822 0.88241291 0.98061311 -0.99564779 0.19045462 0.44621637
-17.06276512 1.50928402 0.88243109 -0.99265504 0.32575464 0.40153980
-16.90180588 -0.19986588 1.76231599 -0.98329091 -0.04313783 0.80192101
-15.49525928 0.38751492 1.49843740 -0.90146273 0.08363885 0.68184614
-15.49055099 0.96053547 1.42402744 -0.90118879 0.20731612 0.64798677
-15.46172619 1.53157043 1.30612397 -0.89951187 0.33056483 0.59433621
-15.60759163 0.74549949 1.97530031 -0.90799785 0.16090406 0.89883697
-15.49950314 1.30905187 1.85567582 -0.90170962 0.28253776 0.84440327
-15.62706184 0.35135102 0.43423697 -0.90913057 0.07583346 0.19759439
-15.54800797 0.12805186 0.96004051 -0.90453148 0.02763793 0.43685505
-15.97949886 0.96063197 0.37064883 -0.92963415 0.20733695 0.16865936
-17.11143875 0.77451295 0.98009193 -0.99548668 0.16716614 0.44597921
-17.06196213 1.40121746 0.88183635 -0.99260831 0.30243021 0.40126917
-15.50931931 0.29038736 1.49969780 -0.90228069 0.06267544 0.68241972
-15.50025463 0.86340326 1.42442822 -0.90175337 0.18635169 0.64816916
-15.45716476 1.43308687 1.30482793 -0.89924651 0.30930874 0.59374648
-15.66147614 0.64940858 1.98200512 -0.91113269 0.14016439 0.90188789
-15.44414139 1.20661294 1.84753549 -0.89848888 0.26042798 0.84069908
-15.67092609 0.25389138 0.43577337 -0.91168243 0.05479836 0.19829351
-15.92732811 0.85716999 0.36880720 -0.92659909 0.18500634 0.16782133
-17.11995697 0.66713476 0.98035252 -0.99598223 0.14399029 0.44609779
-17.06246758 1.29337406 0.88136059 -0.99263769 0.27915397 0.40105268
-15.50288296 0.19282496 1.49885750 -0.90190625 0.04161816 0.68203729
