21.55879021 -1.32038009 2.63079166 0.89650398 -0.44584972 0.93804830
22.91945457 -1.26049888 2.80453753 0.95308608 -0.42562976 1.00000000
20.76050186 -2.95720363 1.69757187 0.86330789 -0.99855220 0.60529476
21.42001915 -2.50314355 1.74972773 0.89073336 -0.84523076 0.62389171
24.01001549 -2.65054369 1.97649240 0.99843615 -0.89500302 0.70474809
24.03809166 -2.53903103 1.97788787 0.99960369 -0.85734880 0.70524561
24.04762268 -2.38736057 1.97736454 1.00000000 -0.80613458 0.70505905
21.58753395 -2.96149135 1.65812159 0.89769930 -1.00000000 0.59122819
22.52265549 -2.94659185 1.73437107 0.93658555 -0.99496895 0.61841607
21.46336365 -2.53311586 1.64349616 0.89253581 -0.85535145 0.58601326
19.52530479 -1.75666046 2.25376868 0.81194323 -0.59316754 0.80361509
20.70013618 -1.53373015 1.67890739 0.86079758 -0.51789117 0.59863967
24.02606010 -2.68504214 1.85482562 0.99910337 -0.90665203 0.66136593
19.59271431 -1.66962612 2.26103759 0.81474644 -0.56377882 0.80620694
19.65032005 -1.55018747 2.26685262 0.81714189 -0.52344823 0.80828035
21.03338814 -2.87668586 1.49310577 0.87465560 -0.97136390 0.53238928
19.80026817 -1.43674803 2.28405571 0.82337737 -0.48514342 0.81441438
23.58613205 -1.33545470 1.92991841 0.98080933 -0.45093992 0.68814141
24.03314781 -2.26612329 1.85186768 0.99939805 -0.76519668 0.66031122
21.09455681 -2.75010300 1.49647701 0.87719923 -0.92862099 0.53359139
20.57161140 -1.36205530 2.37734008 0.85545301 -0.45992211 0.84767634
19.46196175 -1.96980536 2.13825917 0.80930918 -0.66513968 0.76242846
21.06787682 -2.61215210 1.49310577 0.87608981 -0.88203943 0.53238928
19.34541512 -1.83515489 2.12322807 0.80446267 -0.61967254 0.75706887
19.56036568 -1.73182559 2.14704657 0.81340122 -0.58478159 0.76556170
20.86379433 -1.56844914 1.58663774 0.86760318 -0.52961463 0.56573951
19.64550972 -1.64617968 2.15606546 0.81694186 -0.55586171 0.76877755
19.66734695 -1.52364457 2.15745282 0.81784993 -0.51448560 0.76927221
22.27408791 -1.42972279 1.70183361 0.92624909 -0.48277122 0.60681432
19.98959923 -1.42264163 2.19398999 0.83125055 -0.48038015 0.78230011
23.77896118 -1.37772071 1.82541037 0.98882794 -0.46521181 0.65087748
21.41548920 -2.82834220 1.38757277 0.89054495 -0.95503986 0.49475992
21.33189774 -2.68094683 1.38038623 0.88706887 -0.90526915 0.49219745
22.57992363 -1.32466912 2.49414968 0.93896699 -0.44729799 0.88932657
19.47032356 -1.91435313 2.06161618 0.80965692 -0.64641523 0.73510021
21.29087830 -2.53995466 1.37629974 0.88536310 -0.85766065 0.49074036
19.61458015 -1.80403948 2.07659245 0.81565571 -0.60916591 0.74044025
21.05072975 -1.57475698 1.48391151 0.87537676 -0.53174460 0.52911097
21.27272034 -2.40229297 1.37390411 0.88460803 -0.81117678 0.48988616
19.62286377 -1.71158826 2.07659245 0.81600016 -0.57794809 0.74044025
21.70844269 -1.52049363 1.53402042 0.90272719 -0.51342160 0.54697806
21.25008774 -2.29834223 1.37150860 0.88366687 -0.77607596 0.48903200
19.66691017 -1.59095085 2.08039236 0.81783181 -0.53721273 0.74179518
21.24823380 -2.16314793 1.37038136 0.88358980 -0.73042518 0.48863006
19.85094452 -1.48017621 2.10006261 0.82548469 -0.49980772 0.74880886
19.91585541 -2.23477364 1.97801042 0.82818395 -0.75461090 0.70528936
21.23757553 -2.02730179 1.36869037 0.88314658 -0.68455434 0.48802713
19.83457565 -2.09944963 1.96792746 0.82480401 -0.70891637 0.70169413
21.24393272 -1.89328611 1.36826766 0.88341093 -0.63930160 0.48787639
22.00238991 -2.77113533 1.30959249 0.91495073 -0.93572295 0.46695489
21.47286606 -1.32837152 2.28089428 0.89293092 -0.44854817 0.81328714
19.90476418 -1.98055387 1.97401917 0.82772273 -0.66876906 0.70386618
19.45961952 -1.65840137 2.61398840 0.80921179 -0.55998862 0.93205684
21.26336098 -1.76043606 1.36883128 0.88421881 -0.59444243 0.48807737
21.77361870 -2.60368085 1.29343665 0.90543747 -0.87917894 0.46119428
22.82827377 -1.26701391 2.43266797 0.94929439 -0.42782968 0.86740434
19.94057846 -1.85768831 1.97653997 0.82921207 -0.62728137 0.70476502
19.55059433 -1.54257166 2.62543511 0.81299490 -0.52087665 0.93613833
21.27400398 -1.62680066 1.36883128 0.88466144 -0.54931808 0.48807737
21.68244934 -2.45479870 1.28640103 0.90164626 -0.82890624 0.45868561
19.93798828 -1.73114371 1.97506952 0.82910436 -0.58455133 0.70424074
19.72975731 -1.43220770 2.64944482 0.82044524 -0.48361030 0.94469935
21.71165466 -1.52352536 1.39912772 0.90286076 -0.51444530 0.49888000
21.64782906 -2.31326127 1.28314388 0.90020663 -0.78111362 0.45752424
19.97961998 -1.63996959 1.97864056 0.83083558 -0.55376476 0.70551401
20.34086227 -1.38086617 2.73487473 0.84585750 -0.46627390 0.97516066
22.75970268 -1.49029899 1.47282565 0.94644296 -0.50322586 0.52515811
21.59892082 -2.20519733 1.27923524 0.89817280 -0.74462396 0.45613053
20.04307365 -1.51851344 1.98431230 0.83347422 -0.51275295 0.70753634
21.59446907 -2.06774950 1.27806258 0.89798766 -0.69821227 0.45571241
20.48671913 -1.42316616 2.03031611 0.85192287 -0.48055726 0.72393972
21.60902214 -1.93220341 1.27819288 0.89859289 -0.65244269 0.45575887
21.28919983 -1.34534955 2.11434102 0.88529330 -0.45428109 0.75390005
19.42329979 -1.66020000 2.49881244 0.80770147 -0.56059593 0.89098912
21.64062691 -1.79802656 1.27949584 0.89990711 -0.60713553 0.45622346
22.74872017 -1.29552066 2.26789689 0.94598621 -0.43745551 0.80865270
19.50645638 -1.54383755 2.50873566 0.81115943 -0.52130407 0.89452738
21.74303818 -1.66896057 1.28548908 0.90416580 -0.56355411 0.45836046
20.27322197 -1.76472938 1.91026604 0.84304476 -0.59589213 0.68113405
22.07961082 -1.55500710 1.30685639 0.91816187 -0.52507567 0.46597928
20.20396042 -1.66288650 1.90245259 0.84016454 -0.56150305 0.67834806
21.43702126 -2.57635450 1.86897504 0.89144033 -0.86995173 0.66641116
20.36664391 -1.38587654 2.62325382 0.84692961 -0.46796575 0.93536055
23.08248329 -1.51544011 1.37200093 0.95986551 -0.51171517 0.48920754
20.27949333 -1.54081881 1.90906394 0.84330553 -0.52028477 0.68070543
21.45674324 -2.44206595 1.86934531 0.89226049 -0.82460684 0.66654319
21.49089050 -1.36028469 2.02947164 0.89368045 -0.45932421 0.72363859
19.41215897 -1.67747903 2.35961556 0.80723816 -0.56643051 0.84135640
19.44801903 -1.55756211 2.36292243 0.80872941 -0.52593845 0.84253550
20.20012093 -1.39521897 2.45755434 0.84000492 -0.47112039 0.87627792
21.39830971 -1.34414339 2.61044073 0.88983059 -0.45387381 0.93079185
