5.67457724 -4.26432228 1.98156607 0.57840735 -0.71350372 0.81669486
5.30664587 -4.43318462 1.87440372 0.54090422 -0.74175763 0.77252829
5.07441235 -4.82241726 1.84120011 0.51723278 -0.80688381 0.75884360
5.08553314 -5.37490416 1.87965298 0.51836634 -0.89932555 0.77469176
5.07586718 -4.61046553 2.18595815 0.51738107 -0.77142018 0.90093428
6.59122372 -5.51429558 1.41855443 0.67184073 -0.92264843 0.58465177
5.95893764 -4.27288151 1.63071203 0.60739207 -0.71493584 0.67209172
5.47626162 -4.37811708 1.51720822 0.55819309 -0.73254377 0.62531155
5.22879982 -4.73668051 1.47467327 0.53296942 -0.79253840 0.60778093
5.23697519 -5.25368166 1.48545718 0.53380275 -0.87904269 0.61222547
6.53539038 -5.35476685 0.89230204 0.66614968 -0.89595622 0.36775887
5.71674395 -4.24000025 1.98703122 0.58270538 -0.70943415 0.81894732
5.28988600 -4.36282349 1.85843492 0.53919590 -0.72998488 0.76594681
5.08201170 -4.76935291 1.83291721 0.51800740 -0.79800510 0.75542980
5.08848238 -5.31060410 1.86813188 0.51866692 -0.88856691 0.76994342
5.16580296 -4.63292837 2.21245980 0.52654821 -0.77517867 0.91185683
5.12322235 -5.10073137 2.23631668 0.52220798 -0.85345113 0.92168933
6.60146141 -5.45262194 1.41322124 0.67288429 -0.91232926 0.58245373
6.05426121 -4.28360748 1.64975631 0.61710835 -0.71673048 0.67994076
5.53119040 -4.36547852 1.52498674 0.56379199 -0.73042911 0.62851745
5.24530458 -4.69203615 1.47090852 0.53465176 -0.78506851 0.60622931
5.25322390 -5.20408058 1.48064041 0.53545898 -0.87074345 0.61024028
6.46219683 -5.22770548 0.87558353 0.65868908 -0.87469637 0.36086839
5.80549812 -4.24927425 2.00889206 0.59175205 -0.71098590 0.82795715
5.08062124 -4.70852995 1.82152820 0.51786566 -0.78782827 0.75073588
5.08948135 -5.24508762 1.85610974 0.51876873 -0.87760472 0.76498854
5.26050282 -4.65821266 2.24081063 0.53620088 -0.77940917 0.92354155
5.15381336 -5.06709909 2.23571706 0.52532607 -0.84782380 0.92144221
5.16529989 -5.76178932 2.31451988 0.52649689 -0.96405894 0.95392048
6.57610226 -5.36229038 1.40022159 0.67029941 -0.89721501 0.57709599
6.10669184 -4.26327610 1.65684247 0.62245262 -0.71332866 0.68286127
5.72861195 -5.84746695 1.21621275 0.58391505 -0.97839445 0.50125742
5.24529028 -4.63317680 1.46254265 0.53465027 -0.77522022 0.60278136
5.24950123 -5.13524723 1.47020423 0.53507954 -0.85922629 0.60593903
6.54730225 -5.24545860 0.88503307 0.66736382 -0.87766683 0.36476299
5.93230343 -5.75277472 1.02571738 0.60467726 -0.96255064 0.42274550
5.88633585 -4.26572752 2.03020668 0.59999180 -0.71373880 0.83674192
5.42736244 -4.37727499 1.89037251 0.55320883 -0.73240286 0.77910978
5.07992220 -4.66369963 1.81324530 0.51779437 -0.78032726 0.74732208
5.09792900 -5.20440197 1.85009873 0.51962984 -0.87079722 0.76251113
5.30534029 -4.65337944 2.25067186 0.54077119 -0.77860051 0.92760581
5.13315248 -5.67226982 2.28779030 0.52322012 -0.94908059 0.94290400
6.62455940 -4.81395245 1.39297521 0.67523861 -0.80546749 0.57410938
6.59823608 -5.32875681 1.39955497 0.67255551 -0.89160424 0.57682121
6.17815256 -4.26979589 1.67101502 0.62973654 -0.71441954 0.68870246
5.77135754 -5.83590794 1.21953404 0.58827209 -0.97646040 0.50262630
5.25230885 -4.59557199 1.45835972 0.53536570 -0.76892817 0.60105735
5.24978685 -5.08720732 1.46338058 0.53510863 -0.85118830 0.60312670
6.60665274 -5.22508907 0.88915217 0.67341340 -0.87425858 0.36646065
5.29876471 -5.82210970 1.50337052 0.54010093 -0.97415173 0.61960840
5.45475817 -4.34308767 1.89037251 0.55600125 -0.72668266 0.77910978
5.20096922 -4.71445990 1.84637702 0.53013265 -0.78882045 0.76097721
5.36619377 -4.64726543 2.26423097 0.54697394 -0.77757752 0.93319410
5.20373011 -5.00481892 2.23331904 0.53041410 -0.83740312 0.92045391
5.11163473 -5.57797909 2.26222301 0.52102685 -0.93330395 0.93236655
6.63703156 -4.75964737 1.38919842 0.67650992 -0.79638118 0.57255280
6.24844646 -4.26044226 1.68297303 0.63690162 -0.71285450 0.69363087
5.26624346 -4.54973745 1.45417678 0.53678602 -0.76125920 0.59933341
5.24917507 -5.02287483 1.45414865 0.53504628 -0.84042424 0.59932178
6.57977629 -5.13719463 0.87994486 0.67067391 -0.85955215 0.36266589
5.29388618 -5.74406385 1.49148595 0.53960365 -0.96109313 0.61471021
5.53184271 -4.34818840 1.90793812 0.56385845 -0.72753614 0.78634942
5.10271692 -5.07965469 1.82805812 0.52011782 -0.84992462 0.75342715
5.33730268 -4.56416178 2.23957801 0.54402906 -0.76367265 0.92303348
5.15780544 -4.89822340 2.19974732 0.52573299 -0.81956762 0.90661746
5.21917391 -5.86009073 1.91835487 0.53198826 -0.98050666 0.79064262
5.12960863 -5.52756166 2.25466919 0.52285892 -0.92486811 0.92925328
6.65230560 -4.70764494 1.38610828 0.67806679 -0.78768015 0.57127923
5.63611555 -4.43189335 1.17789423 0.57448697 -0.74154156 0.48546460
6.33507633 -4.26121426 1.69935989 0.64573175 -0.71298367 0.70038468
6.57903957 -5.84025383 1.38981628 0.67059880 -0.97718757 0.57280743
5.29174280 -4.51402950 1.45334017 0.53938520 -0.75528455 0.59898859
5.26074648 -4.97089958 1.44852912 0.53622574 -0.83172774 0.59700572
6.58671761 -5.07642269 0.87606812 0.67138141 -0.84938383 0.36106813
5.29092407 -5.66917419 1.48036814 0.53930175 -0.94856262 0.61012805
5.53777742 -4.29673815 1.90048611 0.56446338 -0.71892750 0.78327805
5.11112404 -5.02435112 1.81954253 0.52097476 -0.84067124 0.74991751
5.20265341 -4.39353323 2.17055011 0.53030431 -0.73512322 0.89458394
5.16765928 -4.84608173 2.19075465 0.52673739 -0.81084335 0.90291113
5.15029764 -5.71072006 1.87923229 0.52496773 -0.95551407 0.77451837
5.14320898 -5.47296619 2.24537182 0.52424520 -0.91573322 0.92542142
6.65100622 -4.64439821 1.37958467 0.67793435 -0.77709776 0.56859052
5.53639269 -4.29687738 1.15056169 0.56432223 -0.71895081 0.47419959
6.41056490 -4.25354671 1.71264660 0.65342623 -0.71170074 0.70586073
6.63196945 -5.81307936 1.39333117 0.67599392 -0.97264075 0.57425612
5.31700134 -4.47818041 1.45250356 0.54195976 -0.74928629 0.59864378
5.27758741 -4.92434025 1.44451523 0.53794235 -0.82393748 0.59535140
6.59948778 -5.02055979 0.87316054 0.67268312 -0.84003687 0.35986978
7.02195215 -5.70662403 0.91449571 0.71574473 -0.95482874 0.37690589
5.28858376 -5.59597301 1.46963370 0.53906316 -0.93631464 0.60570389
5.59520817 -4.28539181 1.91113198 0.57031727 -0.71702904 0.78766572
5.29766083 -4.62318802 1.84948301 0.53998840 -0.77354890 0.76225734
5.12596655 -4.97590685 1.81353140 0.52248770 -0.83256561 0.74744004
5.20671606 -4.34133244 2.16068888 0.53071845 -0.72638899 0.89051962
5.14355230 -4.76280022 2.16737437 0.52428019 -0.79690874 0.89327502
5.18014097 -5.44330788 2.24653411 0.52800965 -0.91077083 0.92590040
6.65080166 -4.58246899 1.37340438 0.67791349 -0.76673579 0.56604338
5.73041105 -4.39081526 1.18622732 0.58409846 -0.73466843 0.48889905
6.49437857 -4.25041580 1.72814775 0.66196936 -0.71117687 0.71224946
6.61002588 -5.72104025 1.38086951 0.67375726 -0.95724082 0.56912005
5.34654093 -4.44593096 1.45292187 0.54497075 -0.74389035 0.59881616
6.63567400 -4.98255968 0.87388742 0.67637151 -0.83367872 0.36016935
6.98342657 -5.60255146 0.90339577 0.71181780 -0.93741536 0.37233111
5.28417253 -5.52161264 1.45851588 0.53861356 -0.92387271 0.60112172
5.64810991 -4.26999140 1.92018092 0.57570952 -0.71445227 0.79139519
5.16668844 -4.45281887 1.79305577 0.52663845 -0.74504286 0.73900110
5.13482618 -4.92209959 1.80551672 0.52339071 -0.82356256 0.74413681
5.22358274 -4.30009842 2.15637469 0.53243768 -0.71948975 0.88874155
5.13178444 -5.54890108 1.84638870 0.52308071 -0.92843860 0.76098204
5.15298176 -5.34743118 2.21980453 0.52524132 -0.89472878 0.91488391
6.65824318 -4.52624416 1.36894095 0.67867202 -0.75732833 0.56420380
6.57183838 -4.24218464 1.74187732 0.66986477 -0.70979965 0.71790808
6.63681841 -5.67172098 1.37895226 0.67648816 -0.94898874 0.56832987
5.40922022 -4.44069099 1.46254265 0.55135959 -0.74301362 0.60278136
5.31014013 -4.83118057 1.43648744 0.54126042 -0.80835009 0.59204280
6.62237072 -4.92407942 0.86831462 0.67501551 -0.82389385 0.35787255
6.95075226 -5.52248478 0.89460838 0.70848733 -0.92401868 0.36870942
6.59866762 -5.54746199 1.11962378 0.67259949 -0.92819780 0.46144864
5.76056814 -4.31291533 1.95211852 0.58717233 -0.72163427 0.80455816
5.19792557 -4.43717098 1.79667950 0.52982241 -0.74242467 0.74049455
5.13415956 -4.87511396 1.79700100 0.52332276 -0.81570101 0.74062711
5.19418144 -5.33950615 2.22677755 0.52944076 -0.89340281 0.91775787
6.60090208 -4.44221592 1.35246027 0.67282724 -0.74326873 0.55741131
6.63949871 -4.24149466 1.75472116 0.67676139 -0.70968419 0.72320163
6.60307598 -5.58950090 1.36617112 0.67304885 -0.93523175 0.56306219
5.39053917 -4.38318682 1.45166695 0.54945546 -0.73339206 0.59829897
5.34300947 -4.81531429 1.43929720 0.54461080 -0.80569535 0.59320080
6.53773165 -4.79808998 0.85086924 0.66638833 -0.80281335 0.35068250
6.98219299 -5.47624397 0.89414585 0.71169209 -0.91628170 0.36851880
6.60287762 -5.48068523 1.11384368 0.67302859 -0.91702479 0.45906642
6.04287100 -5.82220840 0.99639696 0.61594737 -0.97416824 0.41066119
6.40585756 -4.23859596 2.14716244 0.65294641 -0.70919919 0.88494480
5.78600597 -4.27548552 1.95158625 0.58976525 -0.71537155 0.80433881
5.14919424 -4.82814598 1.79149091 0.52485526 -0.80784231 0.73835611
5.19799995 -5.27685213 2.21399379 0.52983004 -0.88291955 0.91248906
6.50700569 -4.32032204 1.32705259 0.66325641 -0.72287357 0.54693967
6.70733833 -4.22557783 1.76579344 0.68367624 -0.70702100 0.72776502
6.61529732 -5.52896452 1.36137819 0.67429453 -0.92510283 0.56108683
5.54791546 -4.45291662 1.48722219 0.56549674 -0.74505919 0.61295295
5.34834003 -4.75943470 1.43247354 0.54515409 -0.79634559 0.59038848
6.70627499 -4.85672092 0.87170678 0.68356788 -0.81262344 0.35927060
6.93022108 -5.36517954 0.88142723 0.70639461 -0.89769846 0.36327687
5.33723068 -5.38776493 1.44701469 0.54402173 -0.90147740 0.59638155
6.02320576 -5.73098135 0.98593742 0.61394292 -0.95890415 0.40635034
6.46786785 -4.22130299 2.15918612 0.65926713 -0.70630574 0.88990027
5.87648726 -4.28580093 1.97341025 0.59898794 -0.71709752 0.81333345
5.30686283 -4.41582918 1.81531608 0.54092634 -0.73885375 0.74817556
5.15108919 -4.76930571 1.78147256 0.52504843 -0.79799724 0.73422712
5.14160681 -5.15491056 2.17564297 0.52408189 -0.86251634 0.89668292
5.18131304 -5.78190374 2.24034595 0.52812910 -0.96742445 0.92334998
6.40028572 -4.19226027 1.29924154 0.65237850 -0.70144635 0.53547740
6.79349136 -4.22024965 1.78173745 0.69245780 -0.70612949 0.73433626
6.59955597 -5.44594240 1.35083377 0.67269003 -0.91121161 0.55674094
5.50050211 -4.35867023 1.46672559 0.56066394 -0.72928995 0.60450536
5.35171175 -4.70238209 1.42524850 0.54549778 -0.78679961 0.58741069
6.73503971 -4.81333780 0.87146449 0.68649983 -0.80536461 0.35917076
6.98427820 -5.33725834 0.88443345 0.71190464 -0.89302671 0.36451587
6.02145481 -5.65783024 0.97896445 0.61376441 -0.94666457 0.40347645
6.55097771 -4.21687937 2.17831445 0.66773850 -0.70556557 0.89778394
5.94390059 -4.27818775 1.98724985 0.60585934 -0.71582365 0.81903744
5.29260635 -4.34818554 1.80082095 0.53947318 -0.72753567 0.74220145
5.11966944 -4.68048859 1.75993288 0.52184582 -0.78313637 0.72534961
5.07278681 -5.23327732 1.77925241 0.51706707 -0.87562865 0.73331207
5.19571352 -5.14398575 2.18494010 0.52959692 -0.86068845 0.90051472
5.16866732 -5.69509840 2.21897197 0.52684015 -0.95290023 0.91454077
6.64035559 -4.28932476 1.34353328 0.67684871 -0.71768713 0.55373210
6.65108824 -4.79157019 1.35155630 0.67794269 -0.80172247 0.55703872
6.91148806 -4.23328018 1.80609643 0.70448518 -0.70830977 0.74437571
6.60757208 -5.38323164 1.34540176 0.67350709 -0.90071893 0.55450219
5.52777958 -4.32402372 1.46672559 0.56344432 -0.72349292 0.60450536
5.38853312 -4.67510509 1.42725539 0.54925096 -0.78223562 0.58823782
6.75214815 -4.76180458 0.86952609 0.68824369 -0.79674214 0.35837185
7.01292562 -5.28966999 0.88373971 0.71482462 -0.88506424 0.36422995
5.35963058 -5.27632618 1.43474674 0.54630494 -0.88283157 0.59132540
5.42314434 -5.92953825 1.46135783 0.55277890 -0.99212658 0.60229301
6.01174355 -5.57820654 0.97065043 0.61277455 -0.93334198 0.40004987
6.65218115 -4.22287226 2.20345449 0.67805409 -0.70656830 0.90814531
5.35591745 -4.34394455 1.81324530 0.54592645 -0.72682607 0.74732208
5.14180946 -4.64172029 1.75742829 0.52410251 -0.77664971 0.72431731
5.07830000 -5.17367649 1.76959252 0.51762903 -0.86565626 0.72933078
5.15383768 -5.03920031 2.15356207 0.52532858 -0.84315580 0.88758236
5.10851717 -5.55768776 2.17734909 0.52070904 -0.92990881 0.89738607
6.69380617 -4.26438761 1.34902680 0.68229693 -0.71351463 0.55599624
6.63453484 -4.71643400 1.34188986 0.67625540 -0.78915077 0.55305475
6.98643970 -4.21888733 1.81894016 0.71212494 -0.70590156 0.74966919
6.63201666 -5.33420658 1.34348464 0.67599875 -0.89251608 0.55371207
5.60913992 -4.33088493 1.48136604 0.57173735 -0.72464091 0.61053932
6.73459578 -4.68651772 0.86249948 0.68645459 -0.78414518 0.35547584
6.96012259 -5.18124342 0.87125236 0.70944244 -0.86692238 0.35908332
5.35598755 -5.20707130 1.42477894 0.54593360 -0.87124389 0.58721721
5.42964697 -5.86209059 1.45294142 0.55344170 -0.98084128 0.59882426
6.02616882 -5.52162981 0.96689576 0.61424494 -0.92387563 0.39850238
6.74064922 -4.21962500 2.22422242 0.68707162 -0.70602500 0.91670477
5.39217472 -4.31742477 1.81635141 0.54962218 -0.72238880 0.74860227
5.16222286 -4.60156584 1.75442278 0.52618325 -0.76993108 0.72307861
5.09561396 -5.12656736 1.76427960 0.51939386 -0.85777402 0.72714108
5.24639177 -5.86856365 1.83884966 0.53476256 -0.98192436 0.75787485
5.14398384 -4.96695709 2.13612986 0.52432418 -0.83106810 0.88039774
5.12377739 -5.50435495 2.16891193 0.52226454 -0.92098516 0.89390874
6.78062534 -4.25982571 1.36138725 0.69114637 -0.71275133 0.56109053
7.07826471 -4.21365404 1.83621287 0.72148460 -0.70502591 0.75678807
6.91635752 -5.49071836 1.39524829 0.70498151 -0.91870350 0.57504624
6.61046743 -5.83991623 1.31313312 0.67380226 -0.97713107 0.54120278
5.55517769 -4.23414230 1.45961463 0.56623697 -0.70845401 0.60157460
6.81228590 -4.69288540 0.87073755 0.69437349 -0.78521061 0.35887116
7.02596617 -5.17913151 0.87726480 0.71615386 -0.86656898 0.36156133
5.33368635 -5.13696718 1.41212773 0.54366046 -0.85951412 0.58200306
5.40632010 -5.78173304 1.43903613 0.55106401 -0.96739590 0.59309322
6.03152943 -5.47457361 0.96314102 0.61479133 -0.91600221 0.39695489
5.42004633 -4.29794598 1.81893981 0.55246311 -0.71912962 0.74966908
5.15055370 -4.54761457 1.74290156 0.52499384 -0.76090401 0.71833020
5.08525276 -5.06834364 1.75220466 0.51833773 -0.84803206 0.72216445
5.12580729 -5.67872953 1.78606439 0.52247143 -0.95016146 0.73611957
5.15623903 -4.93211031 2.13148117 0.52557331 -0.82523757 0.87848181
5.12869120 -5.45771360 2.15991259 0.52276540 -0.91318119 0.89019972
6.85257816 -4.25994205 1.37203097 0.69848049 -0.71277082 0.56547731
6.95614862 -5.46901512 1.39812410 0.70903736 -0.91507214 0.57623148
6.62455034 -5.79695177 1.31041574 0.67523772 -0.96994227 0.54008281
5.71586990 -4.31354809 1.49726129 0.58261627 -0.72174013 0.61709052
6.86301804 -4.66444492 0.87388742 0.69954461 -0.78045195 0.36016935
7.05997229 -5.13605642 0.87749600 0.71962011 -0.85936171 0.36165661
6.02734900 -5.40227175 0.95616806 0.61436522 -0.90390468 0.39408100
5.48811054 -4.29583645 1.83291721 0.55940086 -0.71877664 0.75542980
5.16592407 -4.50367260 1.73839331 0.52656054 -0.75355166 0.71647215
5.09480476 -5.01457262 1.74447680 0.51931137 -0.83903509 0.71897942
5.13913488 -5.62193871 1.77819300 0.52382994 -0.94065922 0.73287541
5.16480732 -4.87865353 2.12218404 0.52644670 -0.81629324 0.87465000
5.09955502 -5.35847235 2.13291383 0.51979554 -0.89657623 0.87907225
5.70914459 -4.43555403 1.13611031 0.58193076 -0.74215412 0.46824351
6.65487051 -5.75003004 1.30920804 0.67832822 -0.96209139 0.53958505
5.78058243 -4.30548096 1.50730038 0.58921242 -0.72039032 0.62122810
6.89384174 -4.62233353 0.87412971 0.70268649 -0.77340591 0.36026922
7.05182695 -5.06253815 0.87171483 0.71878982 -0.84706068 0.35927394
5.95992804 -4.53761339 0.95460111 0.60749304 -0.75923061 0.39343518
5.95609570 -4.86621094 0.94503361 0.60710239 -0.81421131 0.38949198
6.05819845 -5.36167479 0.95563167 0.61750966 -0.89711201 0.39385992
5.51805782 -4.26362228 1.83395255 0.56245339 -0.71338660 0.75585651
5.18680096 -4.46478748 1.73588872 0.52868849 -0.74704540 0.71543992
5.09550858 -4.95279026 1.73385096 0.51938313 -0.82869774 0.71460003
5.14799881 -5.56091166 1.76893234 0.52473342 -0.93044823 0.72905868
5.14765120 -4.80186033 2.10242748 0.52469796 -0.80344421 0.86650741
5.15835476 -5.35265207 2.14360070 0.52578896 -0.89560235 0.88347679
9.49116802 -5.72726297 1.89769518 0.96743089 -0.95828199 0.78212780
5.67881012 -4.35530472 1.12428784 0.57883877 -0.72872680 0.46337092
6.63832808 -5.66307020 1.29864037 0.67664206 -0.94754130 0.53522968
5.84541845 -4.29677010 1.51733947 0.59582108 -0.71893287 0.62536567
6.91943121 -4.57674456 0.87364513 0.70529479 -0.76577801 0.36006948
7.00257969 -4.96052170 0.86015242 0.71377009 -0.82999134 0.35450852
5.40914392 -5.56991673 1.41085958 0.55135185 -0.93195492 0.58148038
6.03746557 -4.53679943 0.96356028 0.61539638 -0.75909442 0.39712769
5.96809483 -4.81372261 0.94168341 0.60832548 -0.80542904 0.38811120
6.03194046 -5.27148771 0.94490397 0.61483324 -0.88202196 0.38943854
6.14629650 -5.75367022 0.94064748 0.62648946 -0.96270049 0.38768426
5.59246206 -4.26504612 1.85000074 0.57003736 -0.71362484 0.76247072
5.22799587 -4.44343519 1.74039698 0.53288746 -0.74347275 0.71729797
5.10687113 -4.90191746 1.72708905 0.52054131 -0.82018572 0.71181315
5.14966488 -5.49288082 1.75735664 0.52490324 -0.91906536 0.72428781
5.11844540 -4.71513700 2.07802248 0.52172107 -0.78893375 0.85644901
5.17851734 -5.30636311 2.13797617 0.52784413 -0.88785732 0.88115871
5.68240023 -4.30173063 1.11949492 0.57920474 -0.71976286 0.46139553
6.61643028 -5.57271576 1.28716695 0.67441005 -0.93242329 0.53050095
5.92147541 -4.29542112 1.53030670 0.60357356 -0.71870714 0.63071007
5.43213654 -4.37869358 1.39514410 0.55369544 -0.73264027 0.57500333
6.96137381 -4.54182434 0.87558353 0.70956999 -0.75993520 0.36086839
7.14089489 -4.99179649 0.87541479 0.72786850 -0.83522421 0.36079887
5.98303032 -4.43769550 0.94853199 0.60984784 -0.74251240 0.39093381
5.95802689 -4.74394846 0.93442464 0.60729927 -0.79375446 0.38511953
6.06343937 -5.23219299 0.94463575 0.61804390 -0.87544721 0.38932800
5.68256760 -4.27727509 1.87122571 0.57922179 -0.71567094 0.77121854
5.26616812 -4.41924238 1.74390340 0.53677839 -0.73942482 0.71874309
5.10790873 -4.84178019 1.71694613 0.52064705 -0.81012362 0.70763278
5.13197899 -5.40524483 1.73929858 0.52310050 -0.90440214 0.71684527
5.09687185 -4.63667440 2.05710363 0.51952207 -0.77580541 0.84782737
9.61853600 -5.64033175 1.90902555 0.98041344 -0.94373673 0.78679758
6.54726744 -4.30617523 1.29055786 0.66736031 -0.72050649 0.53189850
5.83769703 -4.36129713 1.14537668 0.59503406 -0.72972947 0.47206262
6.62097025 -5.50568008 1.28112829 0.67487282 -0.92120689 0.52801210
5.98340321 -4.28307819 1.53950918 0.60988581 -0.71664190 0.63450283
5.45036364 -4.33712959 1.39273572 0.55555332 -0.72568578 0.57401067
6.99144554 -4.49906540 0.87582582 0.71263516 -0.75278080 0.36096826
7.16558743 -4.94230366 0.87448978 0.73038542 -0.82694310 0.36041760
7.51697493 -5.66436625 0.91984951 0.76620215 -0.94775820 0.37911245
6.00119448 -4.39302826 0.94679791 0.61169928 -0.73503870 0.39021912
5.89604521 -4.63396835 0.91795284 0.60098147 -0.77535266 0.37833074
6.04176664 -5.14785767 0.93498081 0.61583483 -0.86133629 0.38534877
6.14355516 -5.60759354 0.92767376 0.62621009 -0.93825901 0.38233718
5.76372099 -4.28165245 1.88934457 0.58749372 -0.71640337 0.77868611
5.11976004 -4.79240274 1.71066713 0.52185506 -0.80186182 0.70504493
5.14029121 -5.34617519 1.73050106 0.52394778 -0.89451867 0.71321940
5.06336403 -5.05858469 2.06260490 0.51610661 -0.84639919 0.85009474
9.66232300 -5.58470011 1.91074228 0.98487663 -0.93442851 0.78750509
6.64356136 -4.31021023 1.30455756 0.67717552 -0.72118163 0.53766841
6.59900331 -5.41742039 1.26995671 0.67263371 -0.90643936 0.52340782
6.05341101 -4.27574587 1.55080318 0.61702168 -0.71541512 0.63915759
5.53131008 -4.34531784 1.40678442 0.56380415 -0.72705585 0.57980078
7.02934027 -4.47669268 0.87824881 0.71649778 -0.74903738 0.36196688
7.13146782 -4.86914062 0.86639613 0.72690761 -0.81470150 0.35708186
5.38361120 -5.35466909 1.37902367 0.54874927 -0.89593983 0.56835932
7.37925196 -5.50681114 0.89682639 0.75216413 -0.92139614 0.36962357
6.10371208 -4.42370796 0.96153724 0.62214887 -0.74017203 0.39629388
5.97551870 -4.65129662 0.92828262 0.60908216 -0.77825201 0.38258812
6.04622507 -5.10276270 0.93149430 0.61628926 -0.85379100 0.38391182
6.12586546 -5.53855944 0.92004216 0.62440693 -0.92670828 0.37919185
5.81502199 -4.27724981 1.89969814 0.59272283 -0.71566671 0.78295332
5.30697536 -4.35490847 1.74139881 0.54093784 -0.72866052 0.71771085
5.12894249 -5.28409624 1.71799934 0.52279103 -0.88413161 0.70806682
5.04633665 -4.99404955 2.04573059 0.51437104 -0.83560121 0.84314001
9.70394421 -5.54787922 1.91383243 0.98911905 -0.92826766 0.78877872
6.67705202 -4.28741360 1.30722415 0.68058920 -0.71736735 0.53876746
8.03273201 -5.85551405 1.57482350 0.81877309 -0.97974092 0.64905745
7.21543360 -5.86911964 1.38650274 0.73546618 -0.98201740 0.57144177
6.12327337 -4.28178120 1.56377041 0.62414277 -0.71642494 0.64450198
7.07921791 -4.44611120 0.88139862 0.72158176 -0.74392051 0.36326507
7.10927916 -4.78859711 0.85899621 0.72464591 -0.80122507 0.35403201
7.47621822 -5.50616598 0.90554386 0.76204789 -0.92128819 0.37321642
6.17009306 -4.41279650 0.96847343 0.62891507 -0.73834634 0.39915261
5.99208832 -4.60397339 0.92604917 0.61077112 -0.77033389 0.38166761
6.04002047 -5.03305197 0.92478949 0.61565679 -0.84212708 0.38114846
6.12805986 -5.47081518 0.91444564 0.62463063 -0.91537333 0.37688527
5.89347792 -4.27793360 1.91678166 0.60071981 -0.71578115 0.78999424
5.34624004 -4.33126450 1.74540627 0.54494005 -0.72470444 0.71936250
5.11617184 -4.68486595 1.69183040 0.52148932 -0.78386879 0.69728142
5.12668085 -5.21559095 1.70596063 0.52256048 -0.87266940 0.70310515
5.07350874 -4.95820761 2.04404330 0.51714069 -0.82960415 0.84244460
9.71627140 -5.47426605 1.90936899 0.99037558 -0.91595072 0.78693914
6.78868914 -4.29940176 1.32422364 0.69196832 -0.71937317 0.54577368
7.31526041 -5.87456083 1.39888203 0.74564153 -0.98292780 0.57654387
6.19682741 -4.27530527 1.57590091 0.63164008 -0.71534139 0.64950150
7.13067865 -4.41612053 0.88479078 0.72682714 -0.73890251 0.36466312
7.24660635 -4.81555319 0.87402731 0.73864365 -0.80573529 0.36022702
7.33998346 -5.33559322 0.88185018 0.74816149 -0.89274806 0.36345118
6.24953604 -4.41031790 0.97772163 0.63701266 -0.73793161 0.40296423
6.00357533 -4.55302286 0.92297816 0.61194199 -0.76180893 0.38040191
6.04084873 -4.96989822 0.91942567 0.61574125 -0.83156025 0.37893778
6.15191889 -5.42299557 0.91266495 0.62706256 -0.90737218 0.37615135
5.95800734 -4.26771402 1.92920601 0.60729724 -0.71407121 0.79511487
5.37938261 -4.30244303 1.74740994 0.54831827 -0.71988207 0.72018832
5.13973331 -4.64743805 1.68989837 0.52389091 -0.77760637 0.69648516
5.13060570 -5.15423775 1.69623697 0.52296054 -0.86240381 0.69909757
5.05222750 -4.87543583 2.02266932 0.51497149 -0.81575483 0.83363539
6.85063839 -4.27868891 1.33122349 0.69828278 -0.71590751 0.54865867
6.66594791 -4.73649073 1.28948426 0.67945737 -0.79250664 0.53145599
7.40615845 -5.87158775 1.40944970 0.75490671 -0.98243034 0.58089930
6.27539873 -4.27136183 1.58928645 0.63964885 -0.71468157 0.65501833
7.21258402 -4.40420723 0.89254433 0.73517573 -0.73690915 0.36785874
7.29828596 -4.78413486 0.87703353 0.74391133 -0.80047840 0.36146602
7.44291592 -5.33902884 0.89146179 0.75865340 -0.89332294 0.36741257
6.02731752 -4.51163864 0.92214060 0.61436200 -0.75488454 0.38005671
6.07195568 -4.93184471 0.91942567 0.61891198 -0.82519311 0.37893778
6.16795349 -5.36856174 0.90961230 0.62869698 -0.89826435 0.37489322
6.03212357 -4.26351500 1.94473648 0.61485189 -0.71336865 0.80151570
5.46543789 -4.31552792 1.76694584 0.55708987 -0.72207141 0.72823995
5.12964153 -4.58026695 1.67685759 0.52286226 -0.76636738 0.69111043
5.12707615 -5.08617163 1.68419826 0.52260077 -0.85101503 0.69413584
5.07860422 -4.83961153 2.02098203 0.51766002 -0.80976075 0.83293998
6.67290545 -4.67870235 1.28501081 0.68016654 -0.78283751 0.52961230
7.48176241 -5.85548401 1.41699803 0.76261300 -0.97973585 0.58401030
6.33464384 -4.25356674 1.59765244 0.64568764 -0.71170408 0.65846634
7.30654192 -4.39857721 0.90199387 0.74475282 -0.73596716 0.37175331
7.29821777 -4.71869898 0.87287104 0.74390435 -0.78952974 0.35975045
7.45356846 -5.27613306 0.88833243 0.75973916 -0.88279927 0.36612281
6.05077696 -4.47013569 0.92130303 0.61675322 -0.74794030 0.37971151
6.09042788 -4.88370991 0.91728008 0.62079483 -0.81713927 0.37805346
6.17003679 -5.30247021 0.90427017 0.62890935 -0.88720596 0.37269148
6.10959530 -4.26075315 1.96130228 0.62274855 -0.71290654 0.80834323
5.54120255 -4.31933594 1.78297532 0.56481248 -0.72270858 0.73484647
5.13934469 -4.53131676 1.67057860 0.52385128 -0.75817704 0.68852258
5.13814163 -5.03337479 1.67725289 0.52372867 -0.84218109 0.69127333
5.05036783 -4.75219440 1.99735808 0.51478195 -0.79513419 0.82320350
6.68265343 -4.62325287 1.28117645 0.68116015 -0.77355975 0.52803195
6.45271349 -4.27392006 1.62107694 0.65772247 -0.71510959 0.66812062
7.38703394 -4.38386583 0.90950507 0.75295734 -0.73350567 0.37484902
7.30096197 -4.65559769 0.86917108 0.74418408 -0.77897167 0.35822552
7.39029026 -5.16226530 0.87514448 0.75328928 -0.86374694 0.36068743
6.08832645 -4.43905592 0.92297816 0.62058061 -0.74274004 0.38040191
6.10386372 -4.83185959 0.91433001 0.62216431 -0.80846369 0.37683761
6.15794945 -5.22498083 0.89663857 0.62767726 -0.87424046 0.36954615
6.18248510 -4.25391293 1.97631514 0.63017815 -0.71176201 0.81453073
5.59579277 -4.30576801 1.79199183 0.57037687 -0.72043836 0.73856258
5.14716768 -4.48115587 1.66381669 0.52464873 -0.74978417 0.68573570
5.12503910 -4.95757627 1.66243601 0.52239317 -0.82949853 0.68516666
5.22997570 -4.36751270 2.03386068 0.53308928 -0.73076946 0.83824790
5.06610537 -4.70726252 1.99173343 0.51638603 -0.78761619 0.82088530
6.68053484 -4.56010294 1.27510548 0.68094420 -0.76299351 0.52552986
5.78899860 -4.40851212 1.07732368 0.59007025 -0.73762947 0.44401482
6.53192329 -4.26738548 1.63446248 0.66579628 -0.71401626 0.67363745
7.48132944 -4.39205265 0.91992384 0.76256883 -0.73487544 0.37914309
7.39159870 -4.66477108 0.87865227 0.75342262 -0.78050655 0.36213318
7.47347450 -5.16794443 0.88319135 0.76176822 -0.86469722 0.36400393
6.12199783 -4.41962433 0.92521161 0.62401271 -0.73948872 0.38132241
6.10937309 -4.78963614 0.91137987 0.62272590 -0.80139887 0.37562174
6.15219450 -5.17030144 0.89155084 0.62709069 -0.86509156 0.36744925
5.63138771 -4.29113054 1.79700100 0.57400507 -0.71798927 0.74062711
5.16380692 -4.45306158 1.66236770 0.52634472 -0.74508345 0.68513846
5.13153219 -4.91716814 1.65687966 0.52305496 -0.82273746 0.68287659
5.26528215 -4.35497189 2.03967142 0.53668803 -0.72867113 0.84064275
5.06992292 -4.66638613 1.98442125 0.51677519 -0.78077680 0.81787163
6.66262245 -4.50214100 1.26743674 0.67911839 -0.75329536 0.52236921
5.83648777 -4.40149498 1.08245659 0.59491080 -0.73645538 0.44613034
6.58650732 -4.25876856 1.64324665 0.67136002 -0.71257448 0.67725784
7.56727982 -4.37862921 0.92816198 0.77132976 -0.73262948 0.38253841
7.45613050 -4.64036131 0.88350844 0.76000035 -0.77642232 0.36413461
5.49140501 -5.01651621 1.35011530 0.55973667 -0.83936030 0.55644482
7.51730776 -5.12870073 0.88475603 0.76623613 -0.85813093 0.36464882
6.67757988 -4.41877651 1.03003180 0.68064296 -0.73934686 0.42452365
6.22047997 -4.43182278 0.93749565 0.63405097 -0.74152976 0.38638523
6.12992287 -4.74390221 0.90977073 0.62482053 -0.79374671 0.37495852
6.15713644 -5.10867405 0.88697189 0.62759441 -0.85478014 0.36556208
5.69992876 -4.28720665 1.81052589 0.58099139 -0.71733272 0.74620134
5.17390680 -4.40548325 1.65657175 0.52737421 -0.73712265 0.68274969
5.14259434 -4.86605072 1.65039718 0.52418256 -0.81418455 0.68020487
5.30888605 -4.33506966 2.04606318 0.54113257 -0.72534108 0.84327710
5.07506227 -4.61242294 1.97485924 0.51729900 -0.77174771 0.81393069
6.62002087 -4.41328001 1.25369704 0.67477602 -0.73842722 0.51670641
6.65442848 -4.24348307 1.65370405 0.67828315 -0.71001691 0.68156779
7.65853500 -4.36723614 0.93712693 0.78063136 -0.73072320 0.38623327
7.44794226 -4.57047653 0.87842101 0.75916570 -0.76472926 0.36203787
7.47507763 -5.03159380 0.87469739 0.76193160 -0.84188306 0.36050317
6.65375328 -4.34333038 1.02107263 0.67821437 -0.72672331 0.42083117
6.28539562 -4.41894674 0.94391686 0.64066780 -0.73937535 0.38903171
6.13278055 -4.68491077 0.90521145 0.62511182 -0.78387630 0.37307942
6.16154814 -5.04718924 0.88239294 0.62804407 -0.84449250 0.36367488
5.81363106 -4.31618834 1.83857751 0.59258103 -0.72218192 0.75776267
5.23722839 -4.40275478 1.66816366 0.53382856 -0.73666614 0.68752724
5.14471054 -4.80699396 1.64113665 0.52439827 -0.80430317 0.67638820
5.34647322 -4.31000376 2.05013084 0.54496384 -0.72114712 0.84495360
5.06690264 -4.54700470 1.96023500 0.51646733 -0.76080197 0.80790335
6.38820028 -4.20194769 1.20353091 0.65114665 -0.70306724 0.49603066
6.74563217 -4.24202824 1.67001760 0.68757951 -0.70977348 0.68829137
7.75167608 -4.35583591 0.94633424 0.79012519 -0.72881573 0.39002803
7.50027418 -4.53804255 0.88165849 0.76449990 -0.75930238 0.36337218
5.48416948 -4.39555168 1.33852005 0.55899918 -0.73546094 0.55166590
7.46177387 -4.95494413 0.86866224 0.76057553 -0.82905811 0.35801581
6.78424692 -4.36759567 1.03899097 0.69151551 -0.73078334 0.42821616
6.37475729 -4.42242575 0.95452583 0.64977640 -0.73995745 0.39340416
6.14148188 -4.63082743 0.90172493 0.62599874 -0.77482712 0.37164247
6.20391369 -5.01713514 0.88417363 0.63236237 -0.83946389 0.36440876
5.83440113 -4.27498007 1.83657384 0.59469813 -0.71528697 0.75693685
5.27377033 -4.37717247 1.67106164 0.53755325 -0.73238575 0.68872166
5.15769815 -4.75869226 1.63558030 0.52572209 -0.79622138 0.67409813
5.40646839 -4.30244541 2.06291437 0.55107909 -0.71988243 0.85022223
6.62850046 -4.29977894 1.24475014 0.67564034 -0.71943629 0.51301903
8.05739307 -5.85051107 1.48674440 0.82128680 -0.97890383 0.61275601
6.82542419 -4.23240805 1.68340313 0.69571269 -0.70816386 0.69380814
7.82236671 -4.33098698 0.95239162 0.79733062 -0.72465801 0.39252457
7.55078793 -4.50410891 0.88466471 0.76964873 -0.75362468 0.36461118
5.49625015 -4.34887171 1.33468628 0.56023055 -0.72765046 0.55008584
7.60431528 -4.98067379 0.88363838 0.77510476 -0.83336318 0.36418816
6.43178177 -4.40249681 0.95955110 0.65558887 -0.73662299 0.39547530
5.11802530 -4.72438908 2.39850569 0.52167821 -0.79048181 0.98853493
6.17842245 -4.59804392 0.90306586 0.62976408 -0.76934183 0.37219512
6.22448492 -4.96936417 0.88239294 0.63445920 -0.83147085 0.36367488
5.88776493 -4.25759983 1.84508944 0.60013747 -0.71237892 0.76044655
5.30718803 -4.34885263 1.67299354 0.54095948 -0.72764724 0.68951786
5.15737247 -4.69858694 1.62585676 0.52568889 -0.78616458 0.67009062
5.42434454 -4.26132441 2.05942798 0.55290121 -0.71300209 0.84878534
6.72201777 -4.30043554 1.25753129 0.68517250 -0.71954614 0.51828671
8.14374065 -5.83556986 1.49610436 0.83008814 -0.97640383 0.61661369
6.92541361 -4.23414278 1.70180821 0.70590460 -0.70845407 0.70139372
7.93492937 -4.32814217 0.96426421 0.80880409 -0.72418201 0.39741781
7.59090996 -4.46365404 0.88628346 0.77373832 -0.74685580 0.36527833
5.57928276 -4.35758877 1.34848773 0.56869400 -0.72910899 0.55577403
7.61038256 -4.91667509 0.88028556 0.77572316 -0.82265496 0.36280632
6.51665831 -4.40093946 0.96932250 0.66424030 -0.73636240 0.39950255
5.08220196 -4.63216829 2.36749578 0.51802677 -0.77505147 0.97575432
6.16717911 -4.52990723 0.89636105 0.62861806 -0.75794119 0.36943176
6.23537159 -4.91414213 0.87908590 0.63556886 -0.82223117 0.36231190
5.34953260 -4.32758284 1.67782354 0.54527569 -0.72408843 0.69150853
5.15361118 -4.63606358 1.61520708 0.52530551 -0.77570325 0.66570139
6.78904343 -4.28329706 1.26520002 0.69200444 -0.71667856 0.52144736
6.64888477 -4.69678497 1.20926833 0.67771810 -0.78586310 0.49839532
8.01821709 -4.32448721 0.97298688 0.81729358 -0.72357047 0.40101281
7.63415337 -4.44087029 0.88928968 0.77814615 -0.74304360 0.36651734
7.56303930 -4.83594942 0.87089747 0.77089751 -0.80914801 0.35893705
9.35568905 -5.78819370 1.46729863 0.95362157 -0.96847689 0.60474151
5.07602119 -4.58278036 2.35430002 0.51739675 -0.76678789 0.97031575
6.20772886 -4.51473284 0.89957941 0.63275129 -0.75540227 0.37075821
6.20695686 -4.84429407 0.87069118 0.63267255 -0.81054419 0.35885203
5.40023088 -4.32650614 1.68748343 0.55044335 -0.72390825 0.69548982
5.14062881 -4.58055830 1.60409451 0.52398217 -0.76641613 0.66112143
5.54389048 -4.25715828 2.08731961 0.56508648 -0.71230501 0.86028081
6.87624645 -4.29291058 1.27798116 0.70089298 -0.71828705 0.52671504
6.64183187 -4.64493227 1.20383346 0.67699921 -0.77718711 0.49615535
8.17161083 -4.34080124 0.99043226 0.83292896 -0.72630012 0.40820286
7.69460726 -4.41166544 0.89368337 0.78430820 -0.73815709 0.36832818
5.58307791 -4.26275253 1.33775330 0.56908083 -0.71324104 0.55134988
7.53603554 -4.75241947 0.86329764 0.76814502 -0.79517180 0.35580483
9.40709400 -5.73854351 1.46989965 0.95886123 -0.96016949 0.60581350
6.59271240 -4.34762764 0.97406864 0.67199248 -0.72744232 0.40145865
5.10752630 -4.55331755 2.35561967 0.52060807 -0.76185822 0.97085965
6.24565220 -4.48254776 0.90118855 0.63661677 -0.75001705 0.37142140
6.30471087 -4.85743237 0.88162977 0.64263660 -0.81274253 0.36336035
5.45782375 -4.31647968 1.69714332 0.55631375 -0.72223067 0.69947112
5.15473843 -4.53527308 1.59946418 0.52542037 -0.75883901 0.65921301
5.71879292 -4.33394146 2.14368391 0.58291423 -0.72515231 0.88351113
6.63352299 -4.57718945 1.19688904 0.67615229 -0.76585245 0.49329323
8.30791187 -4.34619093 1.00545466 0.84682208 -0.72720194 0.41439429
7.79817772 -4.40640593 0.90385830 0.79486507 -0.73727703 0.37252173
5.58775711 -4.21111345 1.33238602 0.56955779 -0.70460081 0.54913777
6.53190899 -5.48138571 1.55284011 0.66579479 -0.91714197 0.63999712
7.72968912 -4.80640984 0.88497955 0.78788406 -0.80420548 0.36474094
9.53973866 -5.73728466 1.48637307 0.97238165 -0.95995885 0.61260295
6.76077080 -4.39827061 0.99779916 0.68912262 -0.73591584 0.41123909
5.18126583 -4.56119156 2.37673283 0.52812433 -0.76317567 0.97956133
6.30772209 -4.46718216 0.90682060 0.64294356 -0.74744612 0.37374264
6.32407475 -4.80928898 0.87984908 0.64461035 -0.80468720 0.36262643
5.52623558 -4.31422853 1.71018422 0.56328696 -0.72185397 0.70484585
5.18459749 -4.50407600 1.59992719 0.52846390 -0.75361913 0.65940386
5.77201748 -4.31733656 2.15356207 0.58833939 -0.72237402 0.88758236
5.20284414 -4.34004354 1.95067298 0.53032380 -0.72617334 0.80396241
9.45495987 -5.73032331 1.75535738 0.96374017 -0.95879406 0.72346383
6.64094162 -4.52090216 1.19296396 0.67690843 -0.75643450 0.49167553
8.36332417 -4.30839109 1.00933146 0.85247022 -0.72087729 0.41599211
7.86384630 -4.37866974 0.90894574 0.80155861 -0.73263627 0.37461850
5.62673283 -4.18525696 1.33545303 0.57353055 -0.70027453 0.55040187
5.50090218 -4.55330706 1.29486001 0.56070471 -0.76185644 0.53367162
7.73767900 -4.74429226 0.88207376 0.78869843 -0.79381198 0.36354333
9.59604836 -5.68930578 1.48984110 0.97812128 -0.95193106 0.61403233
6.81989002 -4.37610531 1.00310361 0.69514859 -0.73220718 0.41342533
6.36333370 -4.44668865 0.91137987 0.64861202 -0.74401712 0.37562174
6.32883167 -4.75034046 0.87577891 0.64509523 -0.79482394 0.36094892
5.57942581 -4.29948473 1.71839511 0.56870860 -0.71938705 0.70822996
5.19511843 -4.45615816 1.59437084 0.52953631 -0.74560153 0.65711385
5.20193148 -4.28400087 1.93998599 0.53023076 -0.71679634 0.79955781
9.57052135 -5.71825218 1.77037525 0.97551930 -0.95677435 0.72965336
8.45935535 -4.29063320 1.01878107 0.86225861 -0.71790606 0.41988671
7.95382595 -4.36371326 0.91727066 0.81073022 -0.73013371 0.37804958
5.65291834 -4.14982080 1.33545303 0.57619965 -0.69434541 0.55040187
5.51573229 -4.50741720 1.29156661 0.56221634 -0.75417817 0.53231424
7.74689770 -4.68328905 0.87939143 0.78963810 -0.78360498 0.36243781
8.37831306 -5.47512817 0.91845447 0.85399801 -0.91609496 0.37853751
9.63844776 -5.63288164 1.49099720 0.98244303 -0.94249022 0.61450881
5.30105257 -4.55001307 2.40576339 0.54033411 -0.76130533 0.99152619
6.43037844 -4.43351698 0.91781646 0.65544581 -0.74181324 0.37827453
6.28855085 -4.65834379 0.86458588 0.64098942 -0.77943116 0.35633576
5.65586948 -4.30179977 1.73385096 0.57650048 -0.71977443 0.71460003
5.22597647 -4.42595196 1.59529686 0.53268164 -0.74054748 0.65749550
5.24805737 -4.26703024 1.94729817 0.53493232 -0.71395677 0.80257148
9.62329102 -5.66799498 1.77357054 0.98089814 -0.94836533 0.73097032
6.55407763 -4.34173203 1.16669583 0.66805446 -0.72645587 0.48084921
8.59994221 -4.29391384 1.03428805 0.87658858 -0.71845496 0.42627785
8.03170776 -4.34115887 0.92397684 0.81866866 -0.72635996 0.38081351
7.65821266 -4.56457853 0.86396819 0.78059846 -0.76374239 0.35608119
8.46764469 -5.45804882 0.92538655 0.86310357 -0.91323727 0.38139454
9.72514915 -5.60175085 1.49966741 0.99128050 -0.93728143 0.61808217
6.48929882 -4.41412497 0.92291212 0.66145158 -0.73856860 0.38037470
6.42638588 -4.69863510 0.88188416 0.65503889 -0.78617263 0.36346519
5.70922899 -4.28591061 1.74206185 0.58193940 -0.71711588 0.71798414
5.24177122 -4.38300896 1.59159267 0.53429163 -0.73336226 0.65596884
5.34046173 -4.28703165 1.97204685 0.54435110 -0.71730340 0.81277156
9.66213226 -5.60939455 1.77420962 0.98485720 -0.93856037 0.73123372
6.50687647 -4.25160646 1.15310884 0.66324323 -0.71137613 0.47524938
8.73057747 -4.30757093 1.04931045 0.88990420 -0.72074002 0.43246928
8.13082504 -4.34557390 0.93438298 0.82877165 -0.72709870 0.38510236
5.53737259 -4.42432547 1.28497982 0.56442213 -0.74027532 0.52959949
7.86820984 -4.63905573 0.88855594 0.80200338 -0.77620387 0.36621493
8.41121292 -5.36550570 0.91509348 0.85735148 -0.89775300 0.37715226
6.57260799 -4.42539883 0.93310344 0.66994327 -0.74045491 0.38457501
6.41477442 -4.64378452 0.87654203 0.65385532 -0.77699506 0.36126345
5.77775002 -4.29471493 1.75703466 0.58892369 -0.71858901 0.72415513
5.29226303 -4.38316917 1.60085320 0.53943819 -0.73338908 0.65978551
5.31264305 -4.22345448 1.95404780 0.54151553 -0.70666575 0.80535334
9.71245289 -5.57752180 1.77868295 0.98998636 -0.93322742 0.73307735
6.68594503 -4.32438135 1.18209434 0.68149567 -0.72355276 0.48719564
8.83433914 -4.28975964 1.05972922 0.90048057 -0.71775985 0.43676335
8.23698139 -4.33621693 0.94478917 0.83959216 -0.72553307 0.38939124
6.09302521 -4.31129789 1.42362893 0.62105960 -0.72136366 0.58674324
5.57430363 -4.39677858 1.28717542 0.56818646 -0.73566622 0.53050441
7.92645216 -4.60643864 0.89235592 0.80794001 -0.77074641 0.36778107
8.43635273 -5.30723810 0.91404319 0.85991400 -0.88800371 0.37671939
6.64824247 -4.41569281 0.94088107 0.67765266 -0.73883092 0.38778052
6.40354538 -4.57445574 0.87018239 0.65271074 -0.76539505 0.35864234
5.84068632 -4.28462982 1.76814353 0.59533876 -0.71690154 0.72873360
5.31969833 -4.34983063 1.60085320 0.54223466 -0.72781092 0.65978551
5.48066616 -4.30179596 2.00692010 0.55864209 -0.71977377 0.82714444
9.74214554 -5.51347923 1.77772439 0.99301291 -0.92251188 0.73268229
6.78287601 -4.32712364 1.19477558 0.69137579 -0.72401160 0.49242219
8.96870041 -4.28530121 1.07426703 0.91417599 -0.71701390 0.44275504
8.34862328 -4.32845020 0.95588905 0.85097176 -0.72423357 0.39396602
6.15708113 -4.29867363 1.43244648 0.62758875 -0.71925133 0.59037733
7.93106365 -4.54276896 0.88922656 0.80841005 -0.76009321 0.36649132
8.49991608 -5.27306128 0.91782427 0.86639297 -0.88228530 0.37827775
6.74726057 -4.42035627 0.95241332 0.68774551 -0.73961121 0.39253351
6.44349003 -4.54216099 0.87196308 0.65678233 -0.75999153 0.35937625
5.91632509 -4.28299189 1.78311634 0.60304862 -0.71662748 0.73490459
5.35749626 -4.32490635 1.60409451 0.54608738 -0.72364062 0.66112143
5.54543018 -4.29677343 2.02098203 0.56524342 -0.71893340 0.83293998
9.74725246 -5.43586540 1.77229238 0.99353343 -0.90952557 0.73044354
6.83499146 -4.30027628 1.19930446 0.69668788 -0.71951950 0.49428874
9.09076214 -4.27343512 1.08710873 0.92661768 -0.71502846 0.44804770
8.44104862 -4.30947256 0.96444523 0.86039263 -0.72105825 0.39749241
6.25684643 -4.30981541 1.44969821 0.63775778 -0.72111559 0.59748757
7.96638155 -4.49673986 0.89012063 0.81200999 -0.75239170 0.36685979
8.41087151 -5.14457703 0.90269977 0.85731667 -0.86078739 0.37204427
6.80991507 -4.40037584 0.95804536 0.69413185 -0.73626810 0.39485472
6.47677851 -4.50499678 0.87272626 0.66017538 -0.75377321 0.35969079
5.98426008 -4.27495289 1.79567420 0.60997319 -0.71528244 0.74008024
5.59969807 -4.28291321 2.03110647 0.57077491 -0.71661431 0.83711272
9.77255344 -5.36977673 1.77069473 0.99611235 -0.89846766 0.72978503
9.22204304 -4.26435041 1.10116196 0.93999910 -0.71350843 0.45383969
8.54951954 -4.29756641 0.97508264 0.87144905 -0.71906608 0.40187657
6.28380203 -4.27041769 1.44969821 0.64050537 -0.71452361 0.59748757
8.01882458 -4.46006775 0.89324999 0.81735551 -0.74625570 0.36814955
8.49236012 -5.12151766 0.90879160 0.86562282 -0.85692906 0.37455499
9.64518356 -5.63539553 1.43555784 0.98312962 -0.94291079 0.59165967
6.89936829 -4.39675760 0.96796852 0.70324981 -0.73566270 0.39894453
6.50658894 -4.46534014 0.87298065 0.66321397 -0.74713790 0.35979563
6.05073690 -4.26511383 1.80774915 0.61674911 -0.71363616 0.74505687
5.65859509 -4.27202177 2.04291844 0.57677829 -0.71479195 0.84198099
9.75396156 -5.28016710 1.76110888 0.99421734 -0.88347423 0.72583425
9.33728504 -4.24641848 1.11303449 0.95174563 -0.71050805 0.45873290
8.67240047 -4.29154444 0.98756999 0.88397425 -0.71805853 0.40702319
6.39054203 -4.28419828 1.46848357 0.65138531 -0.71682936 0.60522985
8.05192471 -4.41245031 0.89392054 0.82072937 -0.73828840 0.36842594
8.54486179 -5.08029699 0.91131234 0.87097424 -0.85003209 0.37559390
9.81069374 -5.65003061 1.45677567 1.00000000 -0.94535953 0.60040450
6.97895861 -4.38588428 0.97628248 0.71136242 -0.73384339 0.40237108
6.55419445 -4.43776703 0.87603331 0.66806638 -0.74252439 0.36105376
6.13169146 -4.26454163 1.82417095 0.62500077 -0.71354043 0.75182509
5.72986078 -4.26976824 2.05923009 0.58404237 -0.71441489 0.84870380
9.48761272 -5.73130894 1.65884602 0.96706849 -0.95895898 0.68368703
9.47682476 -4.25581360 1.12902617 0.96596885 -0.71208006 0.46532381
8.78523350 -4.29620361 0.99959487 0.89547527 -0.71883810 0.41197920
6.44834375 -4.27889967 1.47730112 0.65727705 -0.71594280 0.60886401
8.15310478 -4.41783667 0.90420270 0.83104265 -0.73918962 0.37266368
8.46596909 -4.97926140 0.89870858 0.86293274 -0.83312684 0.37039930
8.24474621 -4.31457901 1.21962011 0.84038359 -0.72191262 0.50266176
7.06023073 -4.39047813 0.98593742 0.71964645 -0.73461205 0.40635034
6.61122417 -4.43122339 0.88162977 0.67387938 -0.74142951 0.36336035
6.19175768 -4.26300621 1.83624578 0.63112330 -0.71328348 0.75680166
5.79615116 -4.27703762 2.07610416 0.59079933 -0.71563125 0.85565835
9.57893276 -5.72519732 1.67031956 0.97637671 -0.95793641 0.68841583
9.57063198 -4.22572374 1.13799107 0.97553062 -0.70704544 0.46901867
8.89252567 -4.27985477 1.01000106 0.90641153 -0.71610260 0.41626808
6.51294041 -4.26292515 1.48611867 0.66386133 -0.71326995 0.61249810
8.18947887 -4.37118244 0.90532035 0.83475024 -0.73138350 0.37312430
8.55723953 -4.96100855 0.90606081 0.87223595 -0.83007282 0.37342951
8.25936413 -4.25637197 1.21759701 0.84187359 -0.71217346 0.50182796
7.16043854 -4.39040232 0.99746972 0.72986054 -0.73459935 0.41110334
6.68353891 -4.41925144 0.88849825 0.68125039 -0.73942637 0.36619115
6.26506376 -4.25551796 1.85025263 0.63859540 -0.71203059 0.76257455
9.64364338 -5.68201303 1.67545235 0.98297262 -0.95071083 0.69053125
9.02327442 -4.27342701 1.02341342 0.91973865 -0.71502709 0.42179593
6.58750105 -4.25266933 1.49723649 0.67146128 -0.71155393 0.61708027
8.26081276 -4.34266472 0.91090846 0.84202129 -0.72661191 0.37542742
8.65033722 -4.94279432 0.91362303 0.88172531 -0.82702523 0.37654623
8.38311768 -4.25343275 1.23349237 0.85448778 -0.71168166 0.50837916
7.22864866 -4.36983538 1.00390637 0.73681319 -0.73115808 0.41375616
6.77089119 -4.41633606 0.89765614 0.69015419 -0.73893857 0.36996555
6.33528805 -4.24512339 1.86329353 0.64575332 -0.71029139 0.76794928
8.18649292 -4.18922520 1.45436108 0.83444589 -0.70093852 0.59940934
9.67744541 -5.62031221 1.67515039 0.98641807 -0.94038707 0.69040680
9.15788746 -4.26720858 1.03728831 0.93345970 -0.71398664 0.42751440
6.66052961 -4.24059343 1.50797093 0.67890507 -0.70953339 0.62150443
8.36391449 -4.32979965 0.92052007 0.85253036 -0.72445935 0.37938881
8.61717319 -4.85210705 0.90585071 0.87834495 -0.81185150 0.37334290
8.48588753 -4.23853827 1.24591970 0.86496305 -0.70918953 0.51350105
6.86013412 -4.41357374 0.90706843 0.69925064 -0.73847634 0.37384477
6.42833376 -4.24893522 1.88309622 0.65523744 -0.71092916 0.77611089
8.30090904 -4.18192673 1.47033763 0.84610826 -0.69971734 0.60599405
9.70913982 -5.55742598 1.67454660 0.98964864 -0.92986500 0.69015795
9.30359936 -4.26445389 1.05255067 0.94831210 -0.71352571 0.43380472
6.76030540 -4.24439859 1.52483940 0.68907517 -0.71017009 0.62845671
8.51149368 -4.33827829 0.93571979 0.86757308 -0.72587800 0.38565332
8.52241135 -4.72813463 0.89072621 0.86868590 -0.79110849 0.36710939
8.60657692 -4.23121214 1.26123703 0.87726486 -0.70796376 0.51981401
8.02078915 -4.30120707 1.14381182 0.81755579 -0.71967524 0.47141767
6.93288374 -4.39919233 0.91393685 0.70666599 -0.73607010 0.37667558
6.48584652 -4.22851944 1.89227319 0.66109967 -0.70751321 0.77989316
8.40847111 -4.16986084 1.48503590 0.85707200 -0.69769847 0.61205184
9.73870564 -5.49338913 1.67364073 0.99266231 -0.91915041 0.68978459
9.42249203 -4.24773407 1.06434429 0.96043074 -0.71072817 0.43866542
6.84033060 -4.23476696 1.53710735 0.69723213 -0.70855850 0.63351291
8.61149216 -4.32110548 0.94488430 0.87776589 -0.72300464 0.38943043
8.73673439 -4.77599812 0.91299284 0.89053178 -0.79911697 0.37628651
8.71858883 -4.21824408 1.27510929 0.88868219 -0.70579392 0.52553141
8.09837914 -4.27766323 1.15190804 0.82546449 -0.71573591 0.47475448
7.01579571 -4.39040852 0.92233163 0.71511722 -0.73460037 0.38013545
6.56297731 -4.22009277 1.90724599 0.66896158 -0.70610327 0.78606415
8.53574371 -4.16609049 1.50324905 0.87004489 -0.69706762 0.61955833
9.73332310 -5.40992689 1.66669631 0.99211365 -0.90518552 0.68692249
9.52944279 -4.24223471 1.07544422 0.97133219 -0.70980805 0.44324023
6.92894316 -4.24435186 1.55282569 0.70626432 -0.71016228 0.63999116
8.72444534 -4.32619619 0.95650762 0.88927913 -0.72385639 0.39422095
8.77312565 -4.74236917 0.91467333 0.89424109 -0.79349023 0.37697911
8.83488369 -4.22299862 1.29071569 0.90053606 -0.70658946 0.53196353
8.22891426 -4.29745150 1.16949654 0.83876985 -0.71904689 0.48200351
7.07682276 -4.38246393 0.92843693 0.72133768 -0.73327106 0.38265172
6.61887312 -4.21194839 1.91787183 0.67465901 -0.70474052 0.79044354
8.64072800 -4.16680288 1.51858640 0.88074589 -0.69718683 0.62587959
9.73620796 -5.35157824 1.66277122 0.99240768 -0.89542270 0.68530482
7.00259209 -4.22902870 1.56356013 0.71377134 -0.70759839 0.64441532
8.82833481 -4.30861807 0.96611923 0.89986855 -0.72091526 0.39818233
8.75540066 -4.66181707 0.90900165 0.89243442 -0.78001231 0.37464154
8.95625019 -4.21184540 1.30603302 0.91290694 -0.70472330 0.53827649
8.29093647 -4.26385450 1.17508030 0.84509176 -0.71342546 0.48430485
7.15662575 -4.37008905 0.93632287 0.72947192 -0.73120052 0.38590190
6.71765566 -4.21548271 1.93912363 0.68472791 -0.70533192 0.79920238
8.76493931 -4.15877199 1.53616059 0.89340669 -0.69584310 0.63312268
9.74706173 -5.27801847 1.65884602 0.99351400 -0.88311470 0.68368703
7.07969856 -4.21494627 1.57506132 0.72163075 -0.70524216 0.64915550
8.94848537 -4.29761410 0.97774249 0.91211545 -0.71907407 0.40297282
8.68774509 -4.55571079 0.89744824 0.88553828 -0.76225865 0.36987984
9.08501244 -4.20264053 1.32250643 0.92603159 -0.70318317 0.54506594
8.45169353 -4.27996302 1.19629812 0.86147767 -0.71612072 0.49304968
