0.94251639 -4.71816778 1.97539198 0.23754095 -0.74909008 0.74057204
0.69588333 -4.71689129 1.90826595 0.17538239 -0.74888742 0.71540654
2.09412622 -4.77584314 1.44651985 0.52777940 -0.75824702 0.54229850
1.84280038 -4.84077168 1.39534020 0.46443811 -0.76855552 0.52311134
2.19887042 -4.69789839 1.72171724 0.55417788 -0.74587196 0.64546967
1.93202519 -4.74087715 1.66336703 0.48692530 -0.75269556 0.62359422
1.55773962 -5.07438517 1.38771081 0.39259470 -0.80564570 0.52025110
1.44465649 -5.74520874 1.49795127 0.36409453 -0.91215044 0.56158006
1.56851184 -4.72975826 1.57888114 0.39530960 -0.75093025 0.59192061
1.32619894 -4.78222704 1.52411222 0.33423984 -0.75926059 0.57138777
1.16909409 -6.24441099 1.54644895 0.29464495 -0.99140733 0.57976180
1.18172765 -5.67394400 1.72472894 0.29782897 -0.90083593 0.64659876
0.70935476 -4.55747938 1.31676722 0.17877758 -0.72357804 0.49365440
2.17345428 -4.97662401 0.91228956 0.54777229 -0.79012442 0.34201622
1.91448677 -5.03342724 0.87623572 0.48250511 -0.79914290 0.32849967
2.26788807 -4.87248611 1.18605053 0.57157230 -0.77359074 0.44464889
1.98966753 -4.90670729 1.13736081 0.50145280 -0.77902395 0.42639515
1.63688529 -5.26339531 0.85812020 0.41254166 -0.83565432 0.32170820
1.49476433 -5.82032490 0.88378489 0.37672314 -0.92407644 0.33132985
1.62916923 -4.88999987 1.06808925 0.41059700 -0.77637136 0.40042534
1.67281532 -5.99176073 1.24020708 0.42159703 -0.95129478 0.46495211
2.09562945 -4.68541670 2.00231194 0.52815825 -0.74389029 0.75066429
1.82427287 -4.71160650 1.93373263 0.45976865 -0.74804837 0.72495395
1.00932646 -4.79544640 0.92294353 0.25437897 -0.76135939 0.34601039
1.47466886 -4.72778368 1.84867442 0.37165850 -0.75061673 0.69306576
1.21244085 -4.73210859 1.77829373 0.30556959 -0.75130343 0.66668010
1.58165693 -4.69300365 2.14218354 0.39862254 -0.74509484 0.80310196
1.31797600 -4.70634651 2.06945944 0.33216745 -0.74721324 0.77583778
0.88500607 -4.74547911 1.70316112 0.22304671 -0.75342619 0.63851297
0.64278132 -4.76973629 1.64635015 0.16199918 -0.75727743 0.61721462
0.97290367 -4.71576357 1.97693503 0.24519940 -0.74870837 0.74115050
0.72660244 -4.71975183 1.91128707 0.18312448 -0.74934155 0.71653914
2.12567329 -4.76609945 1.44761288 0.53573012 -0.75670004 0.54270828
1.87179911 -4.82549763 1.39427555 0.47174662 -0.76613051 0.52271217
2.24311328 -4.71472216 1.73326755 0.56532836 -0.74854302 0.64979988
1.95529079 -4.71283865 1.65769827 0.49278891 -0.74824399 0.62146902
1.50468326 -4.79755926 1.31264699 0.37922299 -0.76169485 0.49210972
1.46687758 -5.68160152 1.48342466 0.36969489 -0.90205169 0.55613405
1.59881628 -4.72160959 1.57949746 0.40294719 -0.74963653 0.59215164
1.35365057 -4.76461220 1.52111471 0.34115845 -0.75646394 0.57026404
1.14376545 -5.90942240 1.46337390 0.28826141 -0.93822217 0.54861706
1.20795822 -5.62340593 1.71136415 0.30443984 -0.89281213 0.64158833
0.76814753 -4.74441719 1.37357688 0.19359502 -0.75325763 0.51495230
2.21194005 -4.97904825 0.91537964 0.55747181 -0.79050934 0.34317470
1.94678044 -5.02314043 0.87656903 0.49064404 -0.79750973 0.32862464
2.31106925 -4.88453770 1.19269395 0.58245522 -0.77550417 0.44713947
2.01971960 -4.89230156 1.13692868 0.50902677 -0.77673680 0.42623314
1.66871357 -5.24924803 0.85748118 0.42056328 -0.83340818 0.32146862
1.52483928 -5.78594255 0.87985975 0.38430288 -0.91861761 0.32985833
1.66941857 -4.90740299 1.07436359 0.42074096 -0.77913439 0.40277758
1.70457137 -5.96039104 1.23579168 0.42960048 -0.94631433 0.46329677
2.13667107 -4.69749117 2.01338482 0.53850186 -0.74580729 0.75481546
1.85790098 -4.71046829 1.93809128 0.46824390 -0.74786764 0.72658801
1.07932186 -4.96916151 0.95898056 0.27201980 -0.78893965 0.35952061
1.50319481 -4.71486759 1.84725177 0.37884784 -0.74856609 0.69253242
1.24308777 -4.72802782 1.77968621 0.31329349 -0.75065553 0.66720217
1.61533105 -4.69507360 2.14782143 0.40710938 -0.74542350 0.80521560
1.34951687 -4.70504332 2.07262540 0.34011665 -0.74700636 0.77702469
0.91699135 -4.75090122 1.70722771 0.23110791 -0.75428706 0.64003754
0.67555368 -4.78618002 1.65360785 0.17025875 -0.75988817 0.61993551
1.00329792 -4.71316385 1.97847807 0.25285962 -0.74829561 0.74172896
0.75767040 -4.72424221 1.91506326 0.19095449 -0.75005448 0.71795487
2.16840124 -4.78063297 1.45635724 0.54649878 -0.75900751 0.54598653
1.90699136 -4.82621145 1.39800167 0.48061606 -0.76624388 0.52410913
2.27269220 -4.70053530 1.73326755 0.57278305 -0.74629062 0.64979988
1.99876118 -4.73374128 1.66966569 0.50374466 -0.75156265 0.62595558
1.53718591 -4.79535961 1.31471765 0.38741457 -0.76134562 0.49288601
1.50205767 -5.67039919 1.48292375 0.37856126 -0.90027314 0.55594629
1.38986599 -4.77802420 1.52830875 0.35028577 -0.75859332 0.57296103
1.18087268 -5.90211916 1.46337390 0.29761350 -0.93706268 0.54861706
0.72774947 -4.92706776 1.15079010 0.18341357 -0.78225654 0.43142977
1.09028876 -4.93611336 1.49985301 0.27478379 -0.78369266 0.56229305
0.90200436 -5.37397814 1.56200492 0.22733076 -0.85321122 0.58559370
2.24972391 -4.97939253 0.91812640 0.56699443 -0.79056400 0.34420446
1.98045480 -5.01632023 0.87756902 0.49913093 -0.79642689 0.32899955
2.33830667 -4.86290216 1.19092238 0.58931977 -0.77206916 0.44647533
2.06241179 -4.90836525 1.14384294 0.51978642 -0.77928716 0.42882529
1.70289612 -5.24241066 0.85812020 0.42917827 -0.83232260 0.32170820
1.55556023 -5.75523424 0.87653846 0.39204544 -0.91374218 0.32861319
1.70735562 -4.91711235 1.07896495 0.43030217 -0.78067595 0.40450263
1.83888817 -6.28458786 1.30723941 0.46345213 -0.99778610 0.49008244
2.16427326 -4.69916725 2.01855230 0.54545844 -0.74607342 0.75675279
1.88624203 -4.71725750 1.94462943 0.47538665 -0.74894553 0.72903919
1.10662639 -4.98125029 0.96243095 0.27890134 -0.79085892 0.36081418
1.52889729 -4.71838665 1.85151958 0.38532561 -0.74912483 0.69413239
1.26439869 -4.71849155 1.77829373 0.31866443 -0.74914145 0.66668010
1.63682723 -4.68568373 2.14701605 0.41252702 -0.74393266 0.80491364
1.37319601 -4.70392752 2.07499981 0.34608445 -0.74682921 0.77791488
0.93750387 -4.73730564 1.70383883 0.23627764 -0.75212854 0.63876706
0.69492257 -4.76051092 1.64569044 0.17514025 -0.75581276 0.61696732
1.02669775 -4.71378756 1.98079264 0.25875703 -0.74839461 0.74259669
0.78051263 -4.72427607 1.91657388 0.19671139 -0.75005984 0.71852118
2.18766618 -4.76338100 1.45417118 0.55135411 -0.75626844 0.54516697
1.93042302 -4.81896400 1.39853394 0.48652151 -0.76509321 0.52430862
2.30404878 -4.70845366 1.74032617 0.58068585 -0.74754781 0.65244615
2.02030635 -4.72252178 1.66903579 0.50917464 -0.74978137 0.62571943
1.56461263 -4.80273771 1.31885910 0.39432690 -0.76251698 0.49443865
1.52876198 -5.66325808 1.48292375 0.38529152 -0.89913934 0.55594629
1.41343451 -4.77508497 1.52950776 0.35622570 -0.75812668 0.57341057
1.19758034 -5.84329081 1.44985008 0.30182430 -0.92772263 0.54354697
0.73925370 -4.84467506 1.13180590 0.18631296 -0.76917529 0.42431262
1.11825716 -4.95143604 1.50624478 0.28183261 -0.78612542 0.56468928
0.98867309 -5.73302555 1.66999948 0.24917375 -0.91021615 0.62608075
2.28142715 -4.98662186 0.92155987 0.57498455 -0.79171175 0.34549165
2.00770116 -5.01609945 0.87923563 0.50599778 -0.79639184 0.32962435
2.36721706 -4.86408281 1.19402254 0.59660602 -0.77225661 0.44763756
2.08324480 -4.89319324 1.14254653 0.52503693 -0.77687836 0.42833927
1.72758138 -5.23432779 0.85812020 0.43539965 -0.83103931 0.32170820
1.57903540 -5.73448420 0.87442493 0.39796183 -0.91044772 0.32782084
1.73379505 -4.91822195 1.08105636 0.43696567 -0.78085208 0.40528670
1.86792982 -6.27397299 1.30683804 0.47077143 -0.99610084 0.48993197
2.20090914 -4.70059872 2.02519608 0.55469173 -0.74630070 0.75924349
1.91097355 -4.69321251 1.93954420 0.48161969 -0.74512798 0.72713274
1.13968384 -4.98184586 0.96396446 0.28723276 -0.79095346 0.36138907
0.93026716 -5.26018047 0.96003455 0.23445378 -0.83514386 0.35991576
1.56267571 -4.72109222 1.85649872 0.39383873 -0.74955440 0.69599909
1.29891193 -4.72855330 1.78525627 0.32736275 -0.75073892 0.66929036
1.67120886 -4.68908167 2.15345931 0.42119217 -0.74447215 0.80732924
1.40531671 -4.70401669 2.07895684 0.35417980 -0.74684334 0.77939832
0.96994305 -4.74421501 1.70858324 0.24445324 -0.75322551 0.64054573
0.72841513 -4.78033066 1.65426767 0.18358134 -0.75895947 0.62018293
1.05794132 -4.71443844 1.98387873 0.26663131 -0.74849796 0.74375367
0.81079167 -4.72293186 1.91808438 0.20434256 -0.74984646 0.71908748
2.23314476 -4.78260231 1.46455514 0.56281602 -0.75932014 0.54905993
1.96715331 -4.82283068 1.40332460 0.49577859 -0.76570708 0.52610463
2.33358717 -4.69388437 1.74032617 0.58813035 -0.74523467 0.65244615
2.05969763 -4.73240042 1.67722404 0.51910239 -0.75134975 0.62878925
1.60278285 -4.81660938 1.32558894 0.40394688 -0.76471937 0.49696165
1.58267057 -5.72078562 1.50095689 0.39887801 -0.90827286 0.56270689
1.44613707 -4.77525187 1.53250515 0.36446768 -0.75815314 0.57453430
1.30813301 -6.17908335 1.53727210 0.32968673 -0.98103547 0.57632142
0.78455871 -4.93607283 1.15495729 0.19773111 -0.78368622 0.43299207
1.12201774 -4.82885075 1.47021818 0.28278038 -0.76666290 0.55118299
1.07041359 -5.98758125 1.74762058 0.26977468 -0.95063126 0.65518081
2.31355143 -4.97397232 0.92190325 0.58308077 -0.78970343 0.34562039
2.04212785 -5.01070166 0.88056892 0.51467431 -0.79553485 0.33012420
2.40382934 -4.86132812 1.19712281 0.60583335 -0.77181923 0.44879985
2.12318039 -4.90154505 1.14773214 0.53510183 -0.77820438 0.43028337
1.75916040 -5.21963263 0.85748118 0.44335845 -0.82870620 0.32146862
1.60761023 -5.69778490 0.87019789 0.40516350 -0.90462106 0.32623610
1.77335954 -4.93112278 1.08649421 0.44693705 -0.78290033 0.40732533
1.91013849 -6.27149296 1.30884492 0.48140922 -0.99570709 0.49068433
2.23281622 -4.69170284 2.02741051 0.56273317 -0.74488831 0.76007366
1.17279243 -4.98222208 0.96549791 0.29557705 -0.79101324 0.36196396
0.96121597 -5.24261951 0.95783895 0.24225377 -0.83235580 0.35909265
1.59654844 -4.72355890 1.86147785 0.40237561 -0.74994600 0.69786572
1.33159947 -4.73114014 1.78943384 0.33560094 -0.75114965 0.67085654
1.70253527 -4.68364239 2.15587568 0.42908731 -0.74360859 0.80823511
1.43802214 -4.70564651 2.08370566 0.36242250 -0.74710208 0.78117865
1.00092113 -4.74354553 1.71061659 0.25226060 -0.75311923 0.64130807
0.75699478 -4.76632977 1.65096867 0.19078422 -0.75673664 0.61894614
1.09007931 -4.71847486 1.98850787 0.27473098 -0.74913883 0.74548912
0.84076756 -4.71956873 1.91883957 0.21189734 -0.74931252 0.71937060
2.26231885 -4.76674223 1.46400857 0.57016867 -0.75680208 0.54885501
2.00400829 -4.82642603 1.40811515 0.50506711 -0.76627791 0.52790064
2.38024306 -4.71288013 1.75316000 0.59988898 -0.74825054 0.65725750
2.09015298 -4.72110415 1.67785382 0.52677798 -0.74955624 0.62902534
1.62924194 -4.79548407 1.32248294 0.41061532 -0.76136535 0.49579722
1.61545420 -5.69954062 1.49795127 0.40714040 -0.90489984 0.56158006
1.47889733 -4.77519560 1.53550267 0.37272421 -0.75814420 0.57565802
1.36079097 -6.23327112 1.55321085 0.34295803 -0.98963869 0.58229685
0.81277025 -4.91375828 1.15079010 0.20484123 -0.78014344 0.43142977
1.14781129 -4.80311108 1.46440744 0.28928110 -0.76257628 0.54900455
1.10149050 -5.94485950 1.73693371 0.27760693 -0.94384843 0.65117431
2.35494304 -4.98067522 0.92602342 0.59351265 -0.79076761 0.34716505
2.07656598 -5.00506926 0.88190222 0.52335370 -0.79464060 0.33062404
2.44755602 -4.87222147 1.20376611 0.61685371 -0.77354872 0.45129043
2.15705824 -4.89526796 1.14946067 0.54364002 -0.77720773 0.43093139
1.79516733 -5.21779919 0.85907882 0.45243323 -0.82841516 0.32206759
1.64446306 -5.69137430 0.87080175 0.41445148 -0.90360332 0.32646251
1.80634904 -4.92538357 1.08774912 0.45525134 -0.78198916 0.40779579
1.54053771 -4.93178320 1.02425849 0.38825932 -0.78300518 0.38399324
2.26877737 -4.69094276 2.03331614 0.57179642 -0.74476761 0.76228768
1.98558164 -4.70666265 1.95552635 0.50042307 -0.74726343 0.73312443
1.20642006 -4.98428488 0.96741480 0.30405217 -0.79134071 0.36268261
0.98838735 -5.20554686 0.95198411 0.24910173 -0.82646984 0.35689765
1.62557888 -4.71166992 1.86076653 0.40969211 -0.74805844 0.69759905
1.36437058 -4.73350191 1.79361129 0.34386021 -0.75152463 0.67242265
1.73707545 -4.68656445 2.16231894 0.43779242 -0.74407250 0.81065071
1.46864116 -4.70002937 2.08528852 0.37013936 -0.74621028 0.78177208
1.03070569 -4.73716307 1.71061659 0.25976714 -0.75210589 0.64130807
0.79112750 -4.78757620 1.66020572 0.19938664 -0.76010984 0.62240905
1.12144125 -4.71870613 1.99159396 0.28263509 -0.74917555 0.74664611
0.87368989 -4.73241854 1.92639220 0.22019470 -0.75135261 0.72220206
2.29896426 -4.76627016 1.46838081 0.57940441 -0.75672716 0.55049413
2.04395986 -4.83686256 1.41503501 0.51513600 -0.76793492 0.53049487
2.40458131 -4.68773937 1.74930990 0.60602289 -0.74425906 0.65581411
2.12595510 -4.72174978 1.68289268 0.53580117 -0.74965876 0.63091439
1.66958451 -4.81431532 1.33076584 0.42078277 -0.76435512 0.49890247
1.65549982 -5.70416880 1.50195873 0.41723305 -0.90563464 0.56308246
1.50887144 -4.76580954 1.53550267 0.38027853 -0.75665402 0.57565802
1.39560974 -6.20567656 1.54838097 0.35173336 -0.98525763 0.58048612
0.84298456 -4.90471697 1.14986408 0.21245609 -0.77870798 0.43108261
1.17703891 -4.79209137 1.46324527 0.29664728 -0.76082671 0.54856884
1.14166248 -5.95291042 1.74143338 0.28773141 -0.94512665 0.65286124
2.38705087 -4.96755314 0.92636675 0.60160470 -0.78868425 0.34729373
2.11405516 -5.00647926 0.88456881 0.53280205 -0.79486448 0.33162376
2.48258519 -4.86541700 1.20598054 0.62568206 -0.77246839 0.45212060
2.19569159 -4.89946795 1.15378201 0.55337673 -0.77787459 0.43255144
1.82725513 -5.20455647 0.85875928 0.46052027 -0.82631260 0.32194778
1.68019032 -5.68092966 0.87080175 0.42345574 -0.90194505 0.32646251
1.84141243 -4.92491245 1.09025896 0.46408832 -0.78191435 0.40873674
1.57738018 -4.94069481 1.02827239 0.39754468 -0.78442007 0.38549805
2.30564332 -4.69157982 2.03995991 0.58108771 -0.74486876 0.76477844
2.01074553 -4.68380308 1.95116758 0.50676507 -0.74363410 0.73149031
1.24011970 -4.98612118 0.96933168 0.31254545 -0.79163229 0.36340123
1.01290202 -5.15675592 0.94393367 0.25528011 -0.81872344 0.35387957
1.66080225 -4.71720886 1.86716831 0.41856942 -0.74893785 0.69999909
1.39460802 -4.72663641 1.79430759 0.35148090 -0.75043464 0.67268372
1.76975739 -4.68410683 2.16634583 0.44602922 -0.74368232 0.81216037
1.50145257 -4.70122051 2.09003735 0.37840876 -0.74639940 0.78355241
1.06044960 -4.73059368 1.71061659 0.26726347 -0.75106287 0.64130807
0.81527036 -4.74713039 1.64766979 0.20547132 -0.75368840 0.61770934
1.15017664 -4.70798540 1.99005091 0.28987724 -0.74747342 0.74606764
0.89966756 -4.70681047 1.91808438 0.22674182 -0.74728692 0.71908748
2.32886600 -4.75173140 1.46838081 0.58694047 -0.75441885 0.55049413
2.07657433 -4.82924652 1.41663182 0.52335578 -0.76672572 0.53109354
2.44633007 -4.69601059 1.75829351 0.61654478 -0.74557221 0.65918207
2.16106439 -4.72040176 1.68730175 0.54464972 -0.74944472 0.63256735
1.69849730 -4.80009270 1.32973039 0.42806962 -0.76209706 0.49851426
1.69621229 -5.71037626 1.50646698 0.42749375 -0.90662020 0.56477261
1.54342544 -4.77077723 1.54029870 0.38898712 -0.75744271 0.57745606
1.37244582 -5.93227100 1.48076177 0.34589538 -0.94184977 0.55513573
0.87612146 -4.91274118 1.15310526 0.22080752 -0.77998191 0.43229774
1.20664930 -4.78274775 1.46266425 0.30410996 -0.75934327 0.54835099
1.18381405 -5.97010994 1.74874556 0.29835480 -0.94785738 0.65560257
2.43041015 -4.97719955 0.93117362 0.61253250 -0.79021579 0.34909585
2.15395904 -5.01306009 0.88823539 0.54285896 -0.79590929 0.33299834
2.51129866 -4.84626579 1.20509481 0.63291872 -0.76942784 0.45178854
2.22884154 -4.89091539 1.15507841 0.56173146 -0.77651674 0.43303746
1.85790241 -5.18740416 0.85780066 0.46824425 -0.82358938 0.32158840
1.70905769 -5.64752913 0.86717856 0.43073115 -0.89664215 0.32510418
1.87443054 -4.91871977 1.09151375 0.47240981 -0.78093112 0.40920717
1.60899246 -4.93255138 1.02867377 0.40551186 -0.78312713 0.38564852
2.33758593 -4.68198013 2.04217458 0.58913815 -0.74334466 0.76560873
1.99653375 -4.57015181 1.90830648 0.50318331 -0.72558999 0.71542174
1.26747775 -4.96303177 0.96626467 0.31944045 -0.78796643 0.36225143
1.04221356 -5.13486195 0.94100624 0.26266748 -0.81524742 0.35278207
1.69807601 -4.72776031 1.87570405 0.42796347 -0.75061303 0.70319915
1.42748547 -4.72856331 1.79848516 0.35976693 -0.75074053 0.67424989
1.80181217 -4.67971754 2.16956758 0.45410791 -0.74298543 0.81336820
1.53208661 -4.69519091 2.09162021 0.38612941 -0.74544209 0.78414583
1.09402895 -4.74032211 1.71671665 0.27572641 -0.75260746 0.64359492
0.85251951 -4.78469753 1.66284490 0.21485917 -0.75965279 0.62339848
1.18247485 -4.71139240 1.99468005 0.29801729 -0.74801439 0.74780309
0.93449420 -4.72833920 1.92941320 0.23551913 -0.75070494 0.72333461
2.36213231 -4.74388075 1.47056687 0.59532452 -0.75317246 0.55131370
2.10840774 -4.81964207 1.41769648 0.53137875 -0.76520085 0.53149265
2.47489548 -4.67887640 1.75765181 0.62374407 -0.74285191 0.65894151
2.19544625 -4.71707487 1.69108093 0.55331492 -0.74891657 0.63398415
1.74188554 -4.82561541 1.34008408 0.43900469 -0.76614922 0.50239587
1.90740561 -6.28377676 1.66425705 0.48072046 -0.99765736 0.62392789
1.81212902 -4.68678427 1.59244025 0.45670804 -0.74410743 0.59700388
1.57573581 -4.76824141 1.54269671 0.39713025 -0.75704014 0.57835507
1.39875686 -5.87825298 1.46916986 0.35252652 -0.93327349 0.55078995
1.23960078 -4.78617525 1.46615064 0.31241465 -0.75988740 0.54965806
1.20008659 -5.85718918 1.71724713 0.30245596 -0.92992926 0.64379382
2.46604538 -4.97063971 0.93289036 0.62151361 -0.78917432 0.34973943
2.18854690 -5.00666666 0.88956869 0.55157608 -0.79489422 0.33349821
2.55633283 -4.85795259 1.21218109 0.64426857 -0.77128333 0.45444518
2.27092671 -4.90166378 1.16112828 0.57233810 -0.77822322 0.43530557
1.89319575 -5.18303633 0.85907882 0.47713917 -0.82289594 0.32206759
1.74219608 -5.62911654 0.86597085 0.43908298 -0.89371884 0.32465139
1.91530800 -4.93233109 1.09736991 0.48271209 -0.78309214 0.41140261
1.63995254 -4.92234421 1.02867377 0.41331470 -0.78150660 0.38564852
2.36469078 -4.68084764 2.04660368 0.59596932 -0.74316484 0.76726919
2.08976531 -4.72457361 1.97804666 0.52668029 -0.75010711 0.74156725
1.06365049 -5.11640739 0.93844473 0.26807019 -0.81231743 0.35182178
1.71839440 -4.71444464 1.87357008 0.43308428 -0.74849898 0.70239913
1.45138109 -4.72716761 1.80057395 0.36578932 -0.75051892 0.67503297
1.82451749 -4.67287731 2.17037296 0.45983031 -0.74189943 0.81367016
1.55248260 -4.68268156 2.08924580 0.39126977 -0.74345601 0.78325564
1.11327899 -4.72230673 1.71197224 0.28057796 -0.74974722 0.64181626
0.87007481 -4.75274801 1.65294802 0.21928360 -0.75458026 0.61968815
1.20326829 -4.70041132 1.99236548 0.30325782 -0.74627095 0.74693537
0.95460582 -4.71298313 1.92488170 0.24058782 -0.74826694 0.72163576
2.39580011 -4.75498915 1.47767162 0.60380977 -0.75493610 0.55397725
2.13728952 -4.82377768 1.42195475 0.53865772 -0.76585746 0.53308910
2.51581645 -4.70216465 1.77112734 0.63405728 -0.74654931 0.66399348
2.22326684 -4.71871901 1.69548988 0.56032646 -0.74917758 0.63563704
1.76393461 -4.81554222 1.33956635 0.44456169 -0.76454991 0.50220180
1.49542451 -4.82841063 1.27303791 0.37688953 -0.76659304 0.47726035
1.83489645 -4.67996168 1.59305656 0.46244609 -0.74302417 0.59723490
1.60478687 -4.78068733 1.54929113 0.40445194 -0.75901610 0.58082736
1.40646768 -5.79056740 1.44840109 0.35446987 -0.91935188 0.54300380
1.26065278 -4.77473593 1.46440744 0.31772035 -0.75807124 0.54900455
1.21953273 -5.81199455 1.70543528 0.30735692 -0.92275381 0.63936555
2.50101709 -4.98181248 0.93735385 0.63032746 -0.79094821 0.35141280
2.22161555 -5.01797199 0.89356858 0.55991030 -0.79668915 0.33499774
2.58288789 -4.85272551 1.21395266 0.65096122 -0.77045339 0.45510936
2.29235482 -4.88736582 1.16026402 0.57773864 -0.77595317 0.43498155
1.91967797 -5.17960358 0.86003739 0.48381346 -0.82235092 0.32242694
1.76342094 -5.60385275 0.86325341 0.44443223 -0.88970774 0.32363263
1.93418860 -4.91234875 1.09486020 0.48747054 -0.77991962 0.41046172
1.67182112 -4.94057894 1.03429329 0.42134649 -0.78440166 0.38775527
2.40431404 -4.68570328 2.05546188 0.60595554 -0.74393576 0.77059013
2.13001800 -4.73518276 1.98821700 0.53682512 -0.75179148 0.74538010
1.32145727 -4.94690084 0.96588129 0.33304483 -0.78540534 0.36210769
1.08889484 -5.07691336 0.93222392 0.27443248 -0.80604708 0.34948960
1.74929857 -4.70705366 1.87499273 0.44087300 -0.74732554 0.70293248
1.47772884 -4.70720863 1.79639637 0.37242970 -0.74735010 0.67346680
1.86067593 -4.67830467 2.17842698 0.46894327 -0.74276114 0.81668955
1.58594632 -4.68502951 2.09478593 0.39970359 -0.74382877 0.78533268
1.14653528 -4.72983313 1.71739447 0.28895950 -0.75094217 0.64384907
0.90301436 -4.76389551 1.65888608 0.22758530 -0.75635016 0.62191433
1.23515940 -4.70167112 1.99622309 0.31129530 -0.74647093 0.74838156
0.98531342 -4.71233511 1.92714751 0.24832700 -0.74816406 0.72248524
2.42386317 -4.73642349 1.47657859 0.61088246 -0.75198847 0.55356747
2.17305255 -4.82257843 1.42568088 0.54767108 -0.76566708 0.53448600
2.54166937 -4.67962027 1.76856053 0.64057297 -0.74296999 0.66303116
2.26425552 -4.72867012 1.70430803 0.57065678 -0.75075752 0.63894296
1.80371869 -4.82966280 1.34681392 0.45458841 -0.76679182 0.50491887
1.53727293 -4.85588503 1.28305626 0.38743651 -0.77095503 0.48101622
1.88707387 -4.72479200 1.61277878 0.47559628 -0.75014180 0.60462874
1.63662672 -4.77593231 1.55108964 0.41247648 -0.75826120 0.58150160
1.43377233 -5.74586868 1.43922412 0.36135140 -0.91225523 0.53956336
1.29418254 -4.77963686 1.46847498 0.32617080 -0.75884932 0.55052948
1.26161945 -5.83049870 1.71330988 0.31796399 -0.92569166 0.64231777
2.53317046 -4.96775198 0.93769717 0.63843101 -0.78871584 0.35154152
2.25390339 -5.00571489 0.89390188 0.56804776 -0.79474312 0.33512270
2.61706138 -4.84325075 1.21572411 0.65957391 -0.76894915 0.45577347
2.33719015 -4.90288544 1.16761041 0.58903837 -0.77841717 0.43773571
1.94795704 -5.15637350 0.85812020 0.49094057 -0.81866276 0.32170820
1.78901553 -5.56251478 0.85842252 0.45088279 -0.88314462 0.32182154
1.96722019 -4.90553617 1.09611499 0.49579546 -0.77883804 0.41093215
1.69713855 -4.91328716 1.03068078 0.42772719 -0.78006864 0.38640094
2.42938089 -4.66227865 2.05177093 0.61227310 -0.74021673 0.76920640
2.15050626 -4.70133543 1.97949958 0.54198873 -0.74641764 0.74211192
1.34620118 -4.91580677 0.96128082 0.33928099 -0.78046864 0.36038300
1.11493587 -5.04306984 0.92710090 0.28099555 -0.80067384 0.34756899
1.78352368 -4.70818710 1.87997186 0.44949871 -0.74750549 0.70479912
1.51406085 -4.71928215 1.80475152 0.38158640 -0.74926698 0.67659909
1.89211595 -4.67160320 2.18084335 0.47686705 -0.74169713 0.81759548
1.62187159 -4.69409561 2.10349202 0.40875778 -0.74526823 0.78859657
1.17669332 -4.72435999 1.71807218 0.29656020 -0.75007319 0.64410311
0.93044031 -4.74514771 1.65426767 0.23449743 -0.75337362 0.62018293
1.26808870 -4.70627546 2.00162363 0.31959441 -0.74720198 0.75040621
1.01681602 -4.71511078 1.93092370 0.25626656 -0.74860471 0.72390091
2.47055531 -4.75347090 1.48696256 0.62265021 -0.75469506 0.55746043
2.20888472 -4.82111979 1.42940688 0.55670178 -0.76543546 0.53588289
2.58851838 -4.69501019 1.78075266 0.65238029 -0.74541342 0.66760194
2.29474568 -4.71606016 1.70493782 0.57834119 -0.74875546 0.63917905
1.82986248 -4.80741835 1.34370780 0.46117738 -0.76326013 0.50375438
1.56598699 -4.84059668 1.28155351 0.39467326 -0.76852775 0.48045284
1.92540932 -4.73395729 1.62017465 0.48525792 -0.75159693 0.60740149
1.66847014 -4.77096558 1.55288815 0.42050195 -0.75747263 0.58217585
1.47619212 -5.76116610 1.44550312 0.37204242 -0.91468394 0.54191732
1.32574618 -4.77693653 1.47021818 0.33412576 -0.75842065 0.55118299
1.30357516 -5.84682798 1.72062194 0.32853803 -0.92828423 0.64505905
2.57619548 -4.97443962 0.94216073 0.64927453 -0.78977764 0.35321489
2.29345322 -5.00941515 0.89723516 0.57801545 -0.79533058 0.33637235
2.65310597 -4.83695078 1.21838152 0.66865820 -0.76794893 0.45676973
2.36541533 -4.88282204 1.16631401 0.59615195 -0.77523178 0.43724969
1.98604572 -5.15875149 0.86067647 0.50054002 -0.81904030 0.32266656
1.82942569 -5.56808805 0.86113989 0.46106732 -0.88402951 0.32284027
2.01069069 -4.92381096 1.10322607 0.50675124 -0.78173947 0.41359809
1.73634899 -4.92658234 1.03589880 0.43760934 -0.78217947 0.38835719
2.47088575 -4.66987705 2.06210566 0.62273347 -0.74142307 0.77308089
2.19324780 -4.71650696 1.99184930 0.55276084 -0.74882638 0.74674183
1.39265990 -4.96199703 0.97239864 0.35098991 -0.78780216 0.36455104
1.14788711 -5.04172182 0.92819870 0.28930020 -0.80045980 0.34798053
1.81579149 -4.70385265 1.88281703 0.45763111 -0.74681729 0.70586580
1.54771936 -4.72216368 1.80962527 0.39006931 -0.74972451 0.67842627
1.92706859 -4.67313957 2.18728662 0.48567611 -0.74194109 0.82001102
1.65193689 -4.68554735 2.10428333 0.41633508 -0.74391103 0.78889322
1.20967078 -4.72962046 1.72281659 0.30487144 -0.75090837 0.64588183
0.96794635 -4.77810001 1.66812313 0.24395001 -0.75860536 0.62537730
1.29863119 -4.70176792 2.00316668 0.32729200 -0.74648631 0.75098473
1.05154538 -4.73215246 1.94074214 0.26501936 -0.75131035 0.72758180
2.50218201 -4.74125051 1.48805559 0.63062102 -0.75275487 0.55787021
2.24801326 -4.82640362 1.43526208 0.56656331 -0.76627439 0.53807795
2.62821054 -4.69679832 1.78781128 0.66238379 -0.74569732 0.67024821
2.33518243 -4.72371244 1.71312606 0.58853239 -0.74997038 0.64224887
1.87273407 -4.82819605 1.35302615 0.47198224 -0.76655895 0.50724781
1.60417271 -4.85459328 1.28806543 0.40429714 -0.77074999 0.48289412
1.95511544 -4.72176600 1.62017465 0.49274471 -0.74966133 0.60740149
1.69778001 -4.75858831 1.55228865 0.42788887 -0.75550753 0.58195108
1.50536191 -5.72552299 1.43874121 0.37939402 -0.90902501 0.53938228
1.35679603 -4.77218962 1.47138035 0.34195119 -0.75766695 0.55161870
1.32590175 -5.77487135 1.70149791 0.33416495 -0.91685987 0.63788944
2.61386347 -4.97033834 0.94456416 0.65876794 -0.78912646 0.35411593
2.32653403 -4.99848795 0.89790177 0.58635277 -0.79359573 0.33662227
2.70540881 -4.85929871 1.22856796 0.68184000 -0.77149701 0.46058860
2.40375042 -4.88366079 1.17020321 0.60581350 -0.77536494 0.43870774
2.01550913 -5.13882971 0.85939831 0.50796562 -0.81587738 0.32218736
1.86064029 -5.54522419 0.85932833 0.46893427 -0.88039947 0.32216114
2.03552675 -4.89665604 1.09987974 0.51301062 -0.77742815 0.41234356
1.76530206 -4.91003609 1.03469467 0.44490632 -0.77955246 0.38790575
2.50460792 -4.66243029 2.06579661 0.63123244 -0.74024081 0.77446461
2.22283888 -4.70263338 1.99184930 0.56021863 -0.74662369 0.74674183
1.42600822 -4.96068621 0.97393215 0.35939464 -0.78759402 0.36512595
1.17513227 -5.01524830 0.92453939 0.29616675 -0.79625672 0.34660867
1.85360384 -4.71319199 1.89135265 0.46716088 -0.74830008 0.70906579
1.58147383 -4.72480869 1.81449902 0.39857638 -0.75014442 0.68025345
1.96211505 -4.67441988 2.19372988 0.49450880 -0.74214435 0.82242662
1.68871832 -4.69584608 2.11378074 0.42560506 -0.74554610 0.79245377
1.24081957 -4.72738075 1.72484994 0.31272182 -0.75055277 0.64664412
0.99416101 -4.75342751 1.66152525 0.25055686 -0.75468814 0.62290376
1.33018672 -4.70060921 2.00625277 0.33524489 -0.74630237 0.75214165
1.07801342 -4.71099615 1.93470001 0.27169004 -0.74795145 0.72531664
2.54290318 -4.74574327 1.49461389 0.64088392 -0.75346816 0.56032890
2.29056811 -4.83836746 1.44324648 0.57728833 -0.76817381 0.54107130
2.68026757 -4.71964025 1.80321181 0.67550367 -0.74932384 0.67602187
2.37496018 -4.72934246 1.72068441 0.59855753 -0.75086427 0.64508247
1.90231645 -4.81454039 1.35250843 0.47943786 -0.76439089 0.50705373
1.63525498 -4.84625483 1.28856647 0.41213077 -0.76942611 0.48308197
1.99145746 -4.72514200 1.62572157 0.50190395 -0.75019735 0.60948098
1.73603320 -4.77117062 1.56008208 0.43752974 -0.75750518 0.58487284
1.53977132 -5.71033525 1.43729222 0.38806617 -0.90661365 0.53883910
1.38892329 -4.77091122 1.47370458 0.35004818 -0.75746399 0.55249000
1.34041893 -5.67295790 1.67337430 0.33782369 -0.90067935 0.62734598
2.64784408 -4.95902109 0.94559419 0.66733205 -0.78732967 0.35450208
2.37128282 -5.01234245 0.90323496 0.59763074 -0.79579532 0.33862168
2.74071503 -4.85067701 1.23078239 0.69073814 -0.77012819 0.46141881
2.44045520 -4.88070965 1.17322814 0.61506414 -0.77489638 0.43984178
2.05145311 -5.13521814 0.86099601 0.51702452 -0.81530398 0.32278633
1.89354241 -5.52780628 0.85842252 0.47722656 -0.87763405 0.32182154
2.08163238 -4.91973495 1.10824561 0.52463055 -0.78109235 0.41547990
1.80812883 -4.93200684 1.04191971 0.45569989 -0.78304070 0.39061442
2.54371119 -4.66451502 2.07391691 0.64108759 -0.74057180 0.77750885
2.25874496 -4.70203638 1.99766099 0.56926799 -0.74652892 0.74892062
1.46107972 -4.96479464 0.97661573 0.36823365 -0.78824633 0.36613202
1.20390236 -4.99628592 0.92234379 0.30341765 -0.79324609 0.34578556
1.88388300 -4.70318508 1.89206398 0.47479209 -0.74671131 0.70933247
1.60873318 -4.70767212 1.81171405 0.40544653 -0.74742371 0.67920935
1.99725342 -4.67544413 2.20017314 0.50336468 -0.74230695 0.82484221
1.71818960 -4.68514299 2.11378074 0.43303266 -0.74384683 0.79245377
1.27000129 -4.71767616 1.72417223 0.32007644 -0.74901199 0.64639002
1.03142512 -4.78218460 1.67406118 0.25994846 -0.75925386 0.62760347
1.36282074 -4.70277929 2.01088190 0.34346959 -0.74664688 0.75387716
1.11384463 -4.73119593 1.94602895 0.28072053 -0.75115854 0.72956383
2.58377910 -4.74991083 1.50117218 0.65118581 -0.75412983 0.56278759
2.31843543 -4.81865883 1.44164968 0.58431166 -0.76504475 0.54047269
2.70606112 -4.69615555 1.80064499 0.68200439 -0.74559528 0.67505956
2.40890861 -4.72279835 1.72383368 0.60711348 -0.74982524 0.64626312
1.93762684 -4.81501818 1.35613215 0.48833707 -0.76446670 0.50841224
1.66816556 -4.84321785 1.29057014 0.42042518 -0.76894391 0.48383313
1.76663339 -4.76196003 1.56068158 0.44524187 -0.75604284 0.58509761
1.58033109 -5.71736765 1.44163918 0.39828840 -0.90773016 0.54046875
1.29556751 -5.84255886 1.38971245 0.32651988 -0.92760646 0.52100146
1.41665637 -4.75476313 1.47138035 0.35703769 -0.75490022 0.55161870
1.37112439 -5.64389133 1.66718709 0.34556234 -0.89606458 0.62502640
2.68367600 -4.95093060 0.94731092 0.67636269 -0.78604513 0.35514569
2.39764142 -4.98666239 0.90123504 0.60427386 -0.79171818 0.33787191
2.78578210 -4.85868740 1.23742580 0.70209634 -0.77139997 0.46390942
2.47809553 -4.87923479 1.17668521 0.62455058 -0.77466220 0.44113782
2.07767272 -5.10761881 0.85843974 0.52363265 -0.81092209 0.32182801
1.92177773 -5.49711370 0.85540318 0.48434266 -0.87276107 0.32068959
2.10470009 -4.88862467 1.10406268 0.53044426 -0.77615303 0.41391173
1.83704507 -4.91503477 1.04071558 0.46298760 -0.78034610 0.39016297
2.57108688 -4.66222143 2.07834601 0.64798701 -0.74020761 0.77916932
2.28653502 -4.70309305 2.00274634 0.57627189 -0.74669671 0.75082713
1.48445940 -4.95785427 0.97661573 0.37412599 -0.78714442 0.36613202
1.23390198 -5.01731396 0.92746681 0.31097838 -0.79658467 0.34770617
1.91170645 -4.70808792 1.89775443 0.48180440 -0.74748969 0.71146578
1.63697338 -4.71777678 1.81867659 0.41256386 -0.74902797 0.68181962
2.02366638 -4.67604351 2.20500565 0.51002151 -0.74240214 0.82665390
1.74595022 -4.69251060 2.12090373 0.44002911 -0.74501657 0.79512417
1.29626048 -4.72613955 1.72959447 0.32669452 -0.75035572 0.64842284
1.04796290 -4.74959040 1.66416442 0.26411647 -0.75407892 0.62389320
1.38814259 -4.70691109 2.01551104 0.34985143 -0.74730289 0.75561261
1.13485146 -4.72048712 1.94376314 0.28601485 -0.74945831 0.72871441
2.61453629 -4.75282192 1.50609088 0.65893751 -0.75459200 0.56463158
2.34865379 -4.82330847 1.44644022 0.59192759 -0.76578295 0.54226863
2.74159575 -4.70621681 1.80962873 0.69096011 -0.74719262 0.67842758
2.44064116 -4.72998619 1.73076212 0.61511099 -0.75096643 0.64886057
1.96176875 -4.80940533 1.35716760 0.49442151 -0.76357561 0.50880045
1.69728923 -4.85360527 1.29557931 0.42776516 -0.77059311 0.48571107
2.05094266 -4.72038031 1.63188481 0.51689589 -0.74944133 0.61179161
1.79370844 -4.76610088 1.56487811 0.45206556 -0.75670028 0.58667088
1.62162745 -5.76024961 1.45467997 0.40869623 -0.91453844 0.54535770
1.31800091 -5.81360102 1.38415623 0.33217371 -0.92300886 0.51891845
1.43848431 -4.74620533 1.47079921 0.36253896 -0.75354153 0.55140078
1.42183864 -5.73618460 1.69699812 0.35834378 -0.91071773 0.63620251
2.71460342 -4.95202351 0.95005769 0.68415725 -0.78621870 0.35617545
2.43395948 -5.00195408 0.90623492 0.61342704 -0.79414600 0.33974636
2.80667877 -4.84213781 1.23653996 0.70736289 -0.76877242 0.46357730
2.50194693 -4.86924267 1.17711735 0.63056177 -0.77307582 0.44129983
2.10931110 -5.11599636 0.86163503 0.53160638 -0.81225216 0.32302591
1.94897020 -5.49172783 0.85600704 0.49119592 -0.87190598 0.32091597
2.13717794 -4.90012884 1.10908222 0.53862965 -0.77797949 0.41579354
1.86706114 -4.92467070 1.04472947 0.47055250 -0.78187597 0.39166778
2.61129761 -4.66539764 2.08720422 0.65812129 -0.74071193 0.78249025
2.32832170 -4.71374178 2.01364303 0.58680332 -0.74838734 0.75491226
1.52023864 -4.96342611 0.97968274 0.38314337 -0.78802902 0.36728185
1.26350594 -5.00182915 0.92600310 0.31843942 -0.79412615 0.34715742
1.94846046 -4.71322918 1.90486753 0.49106747 -0.74830598 0.71413249
1.67215025 -4.72332764 1.82494295 0.42142943 -0.74990928 0.68416888
2.06417131 -4.68832397 2.21708679 0.52022988 -0.74435186 0.83118308
1.78313136 -4.70208788 2.13040113 0.44939983 -0.74653709 0.79868478
1.32696307 -4.72152042 1.73095000 0.33443242 -0.74962234 0.64893103
1.08558726 -4.77792597 1.67670035 0.27359888 -0.75857770 0.62859291
1.41985095 -4.70515347 2.01859713 0.35784283 -0.74702382 0.75676954
1.16754508 -4.72586155 1.94904995 0.29425457 -0.75031161 0.73069644
2.64812374 -4.74300575 1.50827694 0.66740251 -0.75303352 0.56545115
2.38060951 -4.81191874 1.44750488 0.59998131 -0.76397467 0.54266781
2.76529217 -4.67913485 1.80577850 0.69693226 -0.74289292 0.67698413
2.47555947 -4.72466660 1.73454130 0.62391138 -0.75012189 0.65027738
1.99793088 -4.81123447 1.36130905 0.50353539 -0.76386601 0.51035309
1.72968173 -4.84832382 1.29708207 0.43592900 -0.76975459 0.48627445
2.07745695 -4.70045185 1.62941957 0.52357823 -0.74627733 0.61086738
1.82361913 -4.75473690 1.56487811 0.45960391 -0.75489604 0.58667088
1.64255607 -5.69778252 1.44115615 0.41397086 -0.90462071 0.54028767
1.35276008 -5.79761982 1.38230407 0.34093401 -0.92047161 0.51822406
1.46425843 -4.72429419 1.46673167 0.36903477 -0.75006276 0.54987592
1.45925307 -5.73272276 1.69868553 0.36777329 -0.91016805 0.63683510
2.75144911 -4.94517946 0.95211780 0.69344342 -0.78513205 0.35694778
2.46533942 -4.98656225 0.90623492 0.62133569 -0.79170227 0.33974636
2.85495257 -4.85460424 1.24451196 0.71952927 -0.77075171 0.46656600
2.54146075 -4.87077236 1.18143868 0.64052039 -0.77331865 0.44291991
2.14372611 -5.10809517 0.86259365 0.54027998 -0.81099772 0.32338530
1.98410356 -5.48123503 0.85630900 0.50005054 -0.87024009 0.32102919
2.17592311 -4.90445089 1.11326516 0.54839450 -0.77866572 0.41736174
1.90216076 -4.92382479 1.04713786 0.47939861 -0.78174162 0.39257067
2.36120987 -4.70569420 2.01654887 0.59509206 -0.74710965 0.75600165
1.55495846 -4.96500158 0.98198301 0.39189377 -0.78827918 0.36814421
1.29733837 -5.00331736 0.92783278 0.32696617 -0.79436249 0.34784335
1.98389053 -4.71465397 1.91055799 0.49999684 -0.74853218 0.71626580
1.70305383 -4.71625996 1.82633543 0.42921799 -0.74878716 0.68469089
2.09585261 -4.68026543 2.21950316 0.52821445 -0.74307245 0.83208901
1.81460536 -4.69593954 2.13277555 0.45733216 -0.74556094 0.79957491
1.36293864 -4.73476219 1.73908329 0.34349930 -0.75172472 0.65198016
1.10840821 -4.73972702 1.66548395 0.27935040 -0.75251299 0.62438786
1.45159185 -4.70318270 2.02168322 0.36584243 -0.74671096 0.75792652
1.19676733 -4.71663523 1.94829464 0.30161941 -0.74884677 0.73041326
2.69028330 -4.74798727 1.51538169 0.67802793 -0.75382441 0.56811470
2.41852927 -4.81239843 1.45229554 0.60953820 -0.76405078 0.54446381
2.80639815 -4.68112040 1.81347883 0.70729214 -0.74320817 0.67987096
2.50873709 -4.71573591 1.73706067 0.63227308 -0.74870396 0.65122187
2.03267527 -4.80924511 1.36441517 0.51229197 -0.76355016 0.51151758
1.76534927 -4.85193729 1.30108941 0.44491825 -0.77032828 0.48777682
2.11560583 -4.70636129 1.63619912 0.53319287 -0.74721557 0.61340904
1.85895658 -4.75742435 1.56967413 0.46850994 -0.75532269 0.58846891
1.68721461 -5.71710253 1.44888401 0.42522606 -0.90768808 0.54318482
1.39587367 -5.81740856 1.38924944 0.35179988 -0.92361343 0.52082789
1.49801171 -4.72775459 1.47079921 0.37754157 -0.75061214 0.55140078
1.46508312 -5.60634851 1.66324985 0.36924261 -0.89010400 0.62355030
2.79026532 -4.94149160 0.95486456 0.70322621 -0.78454655 0.35797754
2.50804400 -4.99392509 0.91056812 0.63209844 -0.79287130 0.34137085
2.88640380 -4.83824158 1.24495494 0.72745585 -0.76815385 0.46673205
2.56475210 -4.84087658 1.17798162 0.64639050 -0.76857221 0.44162384
2.17734289 -5.09815073 0.86323267 0.54875237 -0.80941886 0.32362485
2.01986003 -5.47237492 0.85691285 0.50906217 -0.86883336 0.32125556
2.20264006 -4.88178396 1.11117375 0.55512792 -0.77506697 0.41657767
1.94087577 -4.93186140 1.05155313 0.48915589 -0.78301758 0.39422596
2.73137999 -4.73827171 2.13592505 0.68838543 -0.75228190 0.80075568
2.40080667 -4.71072721 2.02526641 0.60507154 -0.74790877 0.75926989
1.58854640 -4.96260214 0.98351645 0.40035889 -0.78789824 0.36871910
1.33273315 -5.01028442 0.93076020 0.33588666 -0.79546857 0.34894085
2.01570225 -4.70724201 1.91269183 0.50801432 -0.74735540 0.71706581
1.73841953 -4.72132492 1.83260179 0.43813118 -0.74959129 0.68704015
2.13210535 -4.68197155 2.22675180 0.53735119 -0.74334329 0.83480650
1.84807014 -4.69471598 2.13752437 0.46576625 -0.74536669 0.80135524
1.39212155 -4.72430277 1.73840559 0.35085422 -0.75006407 0.65172613
1.15031290 -4.78412008 1.68395793 0.28991157 -0.75956112 0.63131374
1.48111403 -4.69396925 2.02168322 0.37328288 -0.74524814 0.75792652
1.23005295 -4.72337532 1.95433676 0.31000832 -0.74991685 0.73267841
2.71234131 -4.71767616 1.51100957 0.68358713 -0.74901199 0.56647563
2.44784856 -4.79538679 1.45176315 0.61692744 -0.76134992 0.54426420
2.84169626 -4.67308378 1.81732893 0.71618831 -0.74193221 0.68131435
2.54010844 -4.70322752 1.73832047 0.64017957 -0.74671805 0.65169418
2.06131196 -4.79283524 1.36337972 0.51950926 -0.76094478 0.51112938
1.79846501 -4.84802151 1.30309308 0.45326433 -0.76970655 0.48852798
2.14593267 -4.69470310 1.63681543 0.54083610 -0.74536467 0.61364007
1.88531888 -4.73677254 1.56667662 0.47515398 -0.75204390 0.58734512
1.72310269 -5.70638895 1.44888401 0.43427089 -0.90598714 0.54318482
1.43377602 -5.81419516 1.39063859 0.36135235 -0.92310321 0.52134871
1.55037189 -4.78734207 1.49288011 0.39073780 -0.76007265 0.55967891
1.50126052 -5.60074377 1.66437483 0.37836036 -0.88921416 0.62397206
2.83900046 -4.95457125 0.96104479 0.71550888 -0.78662318 0.36029449
2.54026175 -4.97982788 0.91090143 0.64021820 -0.79063308 0.34149581
2.93198252 -4.84498501 1.25159824 0.73894298 -0.76922446 0.46922264
2.61349010 -4.85912991 1.18662429 0.65867382 -0.77147025 0.44486398
2.21091914 -5.08798504 0.86387175 0.55721450 -0.80780488 0.32386446
2.05006528 -5.44845867 0.85510129 0.51667476 -0.86503625 0.32057643
2.24313688 -4.88914251 1.11619329 0.56533432 -0.77623522 0.41845948
1.96893728 -4.91228342 1.04994750 0.49622819 -0.77990925 0.39362401
2.75354242 -4.70820856 2.13001966 0.69397104 -0.74750888 0.79854172
2.43205762 -4.69886589 2.02671933 0.61294770 -0.74602556 0.75981456
1.62093067 -4.95624971 0.98428321 0.40852064 -0.78688967 0.36900654
1.36673689 -5.01130676 0.93258983 0.34445658 -0.79563093 0.34962678
2.05578613 -4.71843386 1.92265010 0.51811659 -0.74913234 0.72079915
1.77130878 -4.71909857 1.83608305 0.44642019 -0.74923784 0.68834525
2.17001367 -4.68672323 2.23561144 0.54690516 -0.74409771 0.83812797
1.88091433 -4.69154930 2.14148164 0.47404391 -0.74486393 0.80283880
1.42398012 -4.72265959 1.74111664 0.35888350 -0.74980325 0.65274251
1.17322421 -4.74744177 1.67340136 0.29568589 -0.75373781 0.62735611
1.51401889 -4.69509363 2.02631235 0.38157582 -0.74542665 0.75966197
1.25735378 -4.70659781 1.95056045 0.31688893 -0.74725312 0.73126268
2.76827025 -4.74531174 1.52576566 0.69768286 -0.75339961 0.57200766
2.48938084 -4.80220556 1.45868301 0.62739480 -0.76243252 0.54685843
2.90801477 -4.71465445 1.84107149 0.73290247 -0.74853230 0.69021541
2.58501458 -4.71552992 1.74902809 0.65149719 -0.74867129 0.65570849
2.09919810 -4.79745674 1.36855662 0.52905762 -0.76167858 0.51307017
1.83092344 -4.84206724 1.30459583 0.46144480 -0.76876122 0.48909137
2.18832588 -4.70868349 1.64667654 0.55152035 -0.74758428 0.61733699
1.92355943 -4.74608707 1.57387066 0.48479170 -0.75352275 0.59004217
1.93957460 -6.27340460 1.59957838 0.48882797 -0.99601060 0.59967995
1.47546339 -5.82583666 1.39573193 0.37185875 -0.92495149 0.52325815
1.59502184 -4.82105303 1.50682592 0.40199086 -0.76542485 0.56490719
1.53792727 -5.59675789 1.66606224 0.38760141 -0.88858134 0.62460464
2.88203096 -4.95703316 0.96516496 0.72635376 -0.78701407 0.36183915
2.58591247 -4.99183750 0.91623461 0.65172350 -0.79253983 0.34349522
2.97262836 -4.84305286 1.25602710 0.74918687 -0.76891774 0.47088301
2.65140486 -4.85635233 1.19008148 0.66822946 -0.77102923 0.44616008
2.24928260 -5.08841562 0.86642796 0.56688321 -0.80787325 0.32482278
2.08495951 -5.43731880 0.85540318 0.52546912 -0.86326760 0.32068959
2.28797984 -4.90503025 1.12330437 0.57663602 -0.77875769 0.42112541
2.01076388 -4.92706871 1.05596840 0.50676972 -0.78225666 0.39588124
2.79166007 -4.70517015 2.13666344 0.70357776 -0.74702650 0.80103248
2.46755743 -4.69506168 2.03180456 0.62189466 -0.74542159 0.76172101
1.65644348 -4.95898294 0.98696685 0.41747087 -0.78732359 0.37001264
1.39767480 -5.00072479 0.93222392 0.35225379 -0.79395086 0.34948960
2.08462811 -4.70371771 1.92193890 0.52538556 -0.74679589 0.72053254
1.80158746 -4.70963001 1.83677936 0.45405129 -0.74773455 0.68860632
2.20256257 -4.67960930 2.23883295 0.55510843 -0.74296826 0.83933568
1.91791570 -4.69837475 2.15018749 0.48336932 -0.74594760 0.80610263
1.45306313 -4.71182346 1.74043894 0.36621323 -0.74808282 0.65248841
1.20988274 -4.76745558 1.68329823 0.30492488 -0.75691533 0.63106644
1.54465806 -4.68898821 2.02785540 0.38929778 -0.74445730 0.76024050
1.29075515 -4.71291018 1.95660245 0.32530701 -0.74825531 0.73352784
2.78817129 -4.71130466 1.52030051 0.70269847 -0.74800044 0.56995881
2.51861310 -4.78476048 1.45815074 0.63476217 -0.75966281 0.54665893
2.91434002 -4.65943766 1.82631266 0.73449659 -0.73976564 0.68468237
2.61734176 -4.70418167 1.75091767 0.65964454 -0.74686956 0.65641689
2.13880825 -4.80531502 1.37476873 0.53904051 -0.76292616 0.51539910
1.86751258 -4.84675312 1.30910420 0.47066629 -0.76950520 0.49078155
2.21868753 -4.69655848 1.64729285 0.55917239 -0.74565923 0.61756808
1.95694566 -4.74274063 1.57686806 0.49320596 -0.75299144 0.59116590
1.51766312 -4.81722403 1.22235954 0.38249427 -0.76481694 0.45826107
1.51252198 -5.81833553 1.39619493 0.38119856 -0.92376059 0.52343178
1.62528169 -4.81093645 1.50682592 0.40961722 -0.76381868 0.56490719
1.59617817 -5.67020082 1.69137347 0.40228230 -0.90024167 0.63409382
2.91916203 -4.94898844 0.96722502 0.73571187 -0.78573680 0.36261147
2.61813760 -4.97724009 0.91656798 0.65984517 -0.79022223 0.34362021
3.00818205 -4.83254004 1.25824165 0.75814742 -0.76724863 0.47171324
2.70631146 -4.88409615 1.20131695 0.68206745 -0.77543402 0.45037225
2.28284168 -5.07777834 0.86706704 0.57534105 -0.80618441 0.32506236
2.11480379 -5.41304684 0.85359162 0.53299069 -0.85941404 0.32001045
2.32973242 -4.91349030 1.12874222 0.58715886 -0.78010088 0.42316407
2.04689503 -4.92702293 1.05877817 0.51587576 -0.78224939 0.39693463
2.81091571 -4.68719101 2.13444877 0.70843071 -0.74417198 0.80020219
2.50094342 -4.70481443 2.04124856 0.63030887 -0.74697000 0.76526153
1.68106937 -4.95483446 0.98773360 0.42367730 -0.78666496 0.37030011
1.42706311 -5.01490831 0.93624914 0.35966051 -0.79620272 0.35099864
2.11758065 -4.71767426 1.93189716 0.53369057 -0.74901170 0.72426587
1.83181369 -4.72209597 1.84513438 0.46166915 -0.74971372 0.69173861
2.23332286 -4.68732309 2.24769258 0.56286091 -0.74419296 0.84265715
1.94768381 -4.70798492 2.15889335 0.49087173 -0.74747336 0.80936646
1.47696209 -4.71030331 1.74247217 0.37223646 -0.74784148 0.65325063
1.22814596 -4.74523354 1.67736018 0.30952772 -0.75338721 0.62884027
1.57207215 -4.69738388 2.03479910 0.39620689 -0.74579024 0.76284367
1.31491041 -4.71391869 1.95962358 0.33139482 -0.74841547 0.73466045
2.83617926 -4.74094439 1.53451002 0.71479785 -0.75270623 0.57528591
2.54832959 -4.78647947 1.46240902 0.64225155 -0.75993574 0.54825532
2.97189379 -4.70156431 1.84877181 0.74900174 -0.74645400 0.69310224
2.64595175 -4.70340109 1.75532663 0.66685510 -0.74674559 0.65806979
2.15502357 -4.78111792 1.37062728 0.54312724 -0.75908446 0.51384646
1.89172673 -4.84151125 1.31010604 0.47676894 -0.76867294 0.49115714
2.24410486 -4.69290400 1.64975810 0.56557828 -0.74507898 0.61849225
1.98583531 -4.74933529 1.58226359 0.50048697 -0.75403845 0.59318864
1.55533051 -4.85616732 1.23443449 0.39198753 -0.77099985 0.46278796
1.54385960 -5.82620287 1.39989913 0.38909653 -0.92500967 0.52482045
1.65107608 -4.81226206 1.50973129 0.41611814 -0.76402915 0.56599641
1.60459661 -5.59797764 1.67168689 0.40440398 -0.88877499 0.62671334
2.96173596 -4.96726370 0.97374862 0.74644172 -0.78863829 0.36505714
2.65444279 -4.98926687 0.92123449 0.66899508 -0.79213172 0.34536967
3.03927636 -4.83148813 1.26178467 0.76598412 -0.76708162 0.47304150
2.72929716 -4.87128878 1.20131695 0.68786049 -0.77340066 0.45037225
2.30921865 -5.07234573 0.86802560 0.58198881 -0.80532187 0.32542172
2.14534044 -5.41590595 0.85570514 0.54068679 -0.85986799 0.32080281
2.35541916 -4.90773726 1.12999701 0.59363264 -0.77918750 0.42363447
2.07235026 -4.92274857 1.05998230 0.52229124 -0.78157079 0.39738604
2.84808564 -4.68211269 2.14035439 0.71779859 -0.74336571 0.80241621
2.53396988 -4.69558096 2.04415441 0.63863248 -0.74550402 0.76635098
1.71541584 -4.95343590 0.98965043 0.43233359 -0.78644294 0.37101871
1.45474565 -4.99261379 0.93368763 0.36663729 -0.79266310 0.35003835
2.14326644 -4.69578886 1.92834055 0.54016411 -0.74553704 0.72293252
1.85735488 -4.70001459 1.84095681 0.46810627 -0.74620795 0.69017243
2.26272988 -4.67319822 2.24769258 0.57027227 -0.74195039 0.84265715
1.97510827 -4.69056749 2.15651917 0.49778345 -0.74470806 0.80847639
1.50827324 -4.70629883 1.74450552 0.38012776 -0.74720567 0.65401298
1.26413727 -4.76117134 1.68593729 0.31859854 -0.75591761 0.63205582
1.60215926 -4.68915701 2.03557062 0.40378970 -0.74448413 0.76313293
1.34600687 -4.71091223 1.96188927 0.33923203 -0.74793810 0.73550987
2.85386229 -4.70333767 1.52795184 0.71925449 -0.74673551 0.57282728
2.58563566 -4.78396893 1.46666741 0.65165371 -0.75953710 0.54985178
2.98492789 -4.65734196 1.83850467 0.75228673 -0.73943293 0.68925315
2.19963193 -4.79903793 1.37994552 0.55436981 -0.76192957 0.51733989
1.92565405 -4.83853865 1.31261063 0.48531958 -0.76820099 0.49209610
2.28528261 -4.70262432 1.65838659 0.57595623 -0.74662226 0.62172711
2.02229834 -4.75259209 1.58765912 0.50967669 -0.75455552 0.59521145
1.58458984 -4.84261465 1.23346841 0.39936170 -0.76884812 0.46242577
1.63082004 -6.00431728 1.44620192 0.41101304 -0.95328838 0.54217929
1.70302713 -4.86311817 1.52948785 0.42921129 -0.77210343 0.57340312
1.53187203 -5.21539879 1.55806756 0.38607532 -0.82803404 0.58411759
3.00109196 -4.96201563 0.97649539 0.75636053 -0.78780508 0.36608690
2.69132423 -4.98292112 0.92323446 0.67829025 -0.79112422 0.34611946
3.08961248 -4.84346724 1.27019966 0.77867025 -0.76898348 0.47619629
2.77615285 -4.88296223 1.20866323 0.69966948 -0.77525401 0.45312634
2.34605837 -5.06846857 0.86994278 0.59127343 -0.80470634 0.32614046
2.17932701 -5.40231943 0.85570514 0.54925239 -0.85771090 0.32080281
2.38016176 -4.88055849 1.12706900 0.59986848 -0.77487236 0.42253676
2.11241579 -4.93127775 1.06479907 0.53238887 -0.78292495 0.39919186
2.89021158 -4.68464375 2.14995074 0.72841555 -0.74376756 0.80601388
