14.76767921 -5.88120317 1.80115783 0.79565758 -1.00000000 0.61784053
15.35841560 -5.61812496 1.29340756 0.82748550 -0.95526797 0.44366995
15.27145767 -5.47794199 1.28206933 0.82280034 -0.93143219 0.43978065
15.23788071 -5.35817337 1.27578974 0.82099128 -0.91106755 0.43762660
15.21587467 -5.27006531 1.27142882 0.81980562 -0.89608628 0.43613070
14.11960602 -5.23826694 2.51152515 0.76074052 -0.89067948 0.86151361
14.82174110 -5.87010098 1.71692574 0.79857033 -0.99811226 0.58894688
15.20527363 -5.15968704 1.26741683 0.81923443 -0.87731826 0.43475449
14.05221844 -5.11290121 2.49352551 0.75710976 -0.86936313 0.85533929
15.18821335 -5.04777336 1.26288152 0.81831527 -0.85828924 0.43319878
13.98567295 -4.98925543 2.47585940 0.75352442 -0.84833926 0.84927940
15.19499016 -4.94426107 1.26061392 0.81868041 -0.84068871 0.43242094
14.11349678 -4.93526316 2.49319220 0.76041132 -0.83915877 0.85522497
14.34605598 -5.79435253 2.12016439 0.77294123 -0.98523253 0.72726744
15.18207359 -4.83484173 1.25660193 0.81798446 -0.82208377 0.43104473
14.11439228 -4.83622026 2.48785901 0.76045960 -0.82231820 0.85339558
14.31223774 -5.67646646 2.10918212 0.77111918 -0.96518797 0.72350025
15.18931675 -4.73227262 1.25450873 0.81837469 -0.80464363 0.43032670
14.26691341 -5.58093739 2.09791088 0.76867718 -0.94894481 0.71963394
15.18857956 -4.65366793 1.25241554 0.81833500 -0.79127818 0.42960870
14.25363827 -5.47280693 2.09039664 0.76796192 -0.93055904 0.71705639
15.22515678 -4.56042099 1.25311327 0.82030571 -0.77542311 0.42984805
15.75384235 -5.35532188 1.23349082 0.84879041 -0.91058272 0.42311707
14.10769749 -4.56298733 2.47219276 0.76009887 -0.77585948 0.84802169
15.86752510 -5.51932621 1.81682479 0.85491544 -0.93846887 0.62321466
14.23956871 -5.36506367 2.08288264 0.76720387 -0.91223913 0.71447891
15.25542259 -4.46522617 1.25328767 0.82193637 -0.75923687 0.42990786
15.70400238 -5.22842598 1.22626030 0.84610510 -0.88900620 0.42063680
14.13420963 -4.47365904 2.47185946 0.76152730 -0.76067072 0.84790730
15.87181664 -5.40922928 1.81312478 0.85514665 -0.91974872 0.62194544
14.22471046 -5.25771475 2.07536840 0.76640338 -0.89398623 0.71190137
15.29850769 -4.37364769 1.25468314 0.82425773 -0.74366546 0.43038654
15.68729115 -5.11353016 1.22198772 0.84520471 -0.86947006 0.41917121
14.18651772 -4.39237928 2.47619271 0.76434559 -0.74685043 0.84939373
15.86970234 -5.29740286 1.80873108 0.85503274 -0.90073454 0.62043834
14.22582054 -5.15681171 2.07045531 0.76646316 -0.87682939 0.71021605
15.37367916 -4.29076767 1.25904393 0.82830787 -0.72957313 0.43188238
15.70392418 -5.00999880 1.22067308 0.84610087 -0.85186630 0.41872028
14.23270226 -4.30889654 2.47952604 0.76683396 -0.73265564 0.85053712
15.71598148 -4.54591942 1.85785532 0.84675050 -0.77295738 0.63728911
14.22249317 -5.05478287 2.06496406 0.76628387 -0.85948110 0.70833242
14.34046650 -5.70250034 2.03635931 0.77264011 -0.96961457 0.69852030
15.36956692 -4.18575048 1.25625300 0.82808626 -0.71171671 0.43092504
15.66471958 -4.88916969 1.21459281 0.84398860 -0.83132136 0.41663459
14.19144726 -4.19914865 2.46752620 0.76461118 -0.71399480 0.84642088
14.68925858 -4.15051365 1.72410738 0.79143244 -0.70572525 0.59141034
15.99364948 -5.11640024 1.81589973 0.86171079 -0.86995810 0.62289733
14.23714542 -4.95948458 2.06236315 0.76707333 -0.84327722 0.70744026
14.37785721 -5.61300707 2.03663850 0.77465463 -0.95439774 0.69861603
15.80200481 -4.19649553 1.29305863 0.85138530 -0.71354371 0.44355026
15.69513035 -4.79064941 1.21459281 0.84562707 -0.81456959 0.41663459
14.24974346 -4.11925316 2.47319269 0.76775211 -0.70040995 0.84836465
15.98348618 -5.03019953 1.81173730 0.86116320 -0.85530108 0.62146950
15.88950062 -5.70642376 1.76008070 0.85609943 -0.97028172 0.60375005
14.21728420 -4.87762642 2.05571580 0.76600325 -0.82935858 0.70516002
14.35611916 -5.52662849 2.02937961 0.77348346 -0.93971050 0.69612610
16.08004379 -4.18897104 1.31643283 0.86636555 -0.71226430 0.45156816
15.68508816 -4.70685530 1.21179914 0.84508604 -0.80032182 0.41567630
14.78576565 -4.00268698 1.73064947 0.79663205 -0.68058980 0.59365445
15.99389839 -4.92321920 1.80919361 0.86172420 -0.83711088 0.62059700
15.88565636 -5.59266281 1.75538671 0.85589230 -0.95093852 0.60213989
14.22700596 -4.78129387 2.05253673 0.76652706 -0.81297886 0.70406955
14.34426785 -5.41875982 2.02240014 0.77284491 -0.92136925 0.69373196
16.42478371 -4.16833878 1.34521461 0.88493961 -0.70875615 0.46144101
15.72964859 -4.61271667 1.21311378 0.84748685 -0.78431511 0.41612723
14.28946400 -5.74286175 2.31796503 0.76989216 -0.97647738 0.79511786
15.98648357 -4.81113386 1.80456865 0.86132473 -0.81805265 0.61901051
15.91860294 -5.49209452 1.75516319 0.85766745 -0.93383861 0.60206324
14.94592857 -5.78149939 1.55389392 0.80526137 -0.98304707 0.53302306
14.22855663 -4.68256807 2.04820180 0.76661056 -0.79619217 0.70258254
14.32234955 -5.30780602 2.01402473 0.77166396 -0.90250343 0.69085896
16.85501862 -4.16446400 1.38167131 0.90811992 -0.70809728 0.47394654
15.77747536 -4.51930666 1.21475720 0.85006368 -0.76843232 0.41669098
15.92156887 -4.09460306 1.86754727 0.85782725 -0.69621861 0.64061368
15.78205967 -4.64136219 1.77612519 0.85031068 -0.78918582 0.60925370
15.91135693 -5.37801647 1.75024557 0.85727704 -0.91444153 0.60037637
14.25204372 -4.59126282 2.04733467 0.76787603 -0.78066725 0.70228511
14.31448746 -5.20277357 2.00788260 0.77124041 -0.88464445 0.68875211
17.15794563 -4.12475491 1.40661538 0.92444110 -0.70134544 0.48250294
15.84969425 -4.43248701 1.21853673 0.85395473 -0.75367010 0.41798744
16.15117645 -4.04536390 1.89323068 0.87019807 -0.68784630 0.64942372
15.91274548 -5.26735878 1.74644566 0.85735184 -0.89562607 0.59907293
14.24473286 -4.49036837 2.04184365 0.76748210 -0.76351184 0.70040154
14.30400944 -5.09738350 2.00146151 0.77067584 -0.86672461 0.68654948
14.43395138 -5.75292206 1.96349978 0.77767688 -0.97818792 0.67352772
17.63568306 -4.12201643 1.44725859 0.95018077 -0.70087981 0.49644455
15.99641228 -4.36549568 1.22872531 0.86185968 -0.74227935 0.42148238
17.27044106 -5.39151430 1.25206196 0.93050218 -0.91673660 0.42948741
14.33421516 -5.44924259 2.30800128 0.77230328 -0.92655236 0.79170001
16.46899414 -4.04220009 1.93078673 0.88732159 -0.68730837 0.66230637
14.80006123 -4.17494011 1.65125132 0.79740226 -0.70987856 0.56641895
15.98465252 -5.20764732 1.75203383 0.86122608 -0.88547313 0.60098982
14.26762581 -4.42377567 2.04213262 0.76871556 -0.75218886 0.70050067
14.30359077 -5.02136040 1.99783206 0.77065331 -0.85379815 0.68530452
14.48858356 -5.69568062 1.96752274 0.78062040 -0.96845502 0.67490768
17.98322868 -4.11358500 1.47673810 0.96890599 -0.69944614 0.50655675
17.05728722 -5.23717928 1.23290718 0.91901779 -0.89049453 0.42291686
14.22465420 -5.33080482 2.28596020 0.76640034 -0.90641397 0.78413939
16.83594894 -4.01984835 1.97367334 0.90709245 -0.68350780 0.67701751
15.96780586 -5.09147263 1.74622214 0.86031836 -0.86571956 0.59899622
15.89540863 -5.72319841 1.64569128 0.85641778 -0.97313392 0.56451172
14.28377151 -4.33061314 2.04039860 0.76958549 -0.73634815 0.69990587
14.27870274 -4.91198730 1.98945653 0.76931238 -0.83520108 0.68243152
14.44638538 -5.57466841 1.95625865 0.77834684 -0.94787890 0.67104381
18.40169907 -4.08735561 1.51197374 0.99145246 -0.69498628 0.51864338
16.25937653 -4.24601316 1.24713027 0.87602770 -0.72196335 0.42779571
17.00961304 -5.10591507 1.22647119 0.91644919 -0.86817527 0.42070916
17.23420715 -4.00018787 2.02043653 0.92854995 -0.68016487 0.69305837
15.98619556 -4.98691702 1.74465740 0.86130917 -0.84794164 0.59845948
14.32208920 -4.24413872 2.04213262 0.77164996 -0.72164464 0.70050067
14.31866264 -4.82535028 1.99085248 0.77146536 -0.82046992 0.68291032
14.44774723 -5.47119951 1.95143116 0.77842021 -0.93028575 0.66938788
16.55994797 -4.21389484 1.27046525 0.89222199 -0.71650219 0.43580016
17.02221680 -4.99334908 1.22493875 0.91712826 -0.84903532 0.42018348
17.63480759 -3.97611237 2.06744218 0.95013362 -0.67607123 0.70918244
15.70220947 -4.11271429 1.75068784 0.84600848 -0.69929814 0.60052812
15.98108101 -4.87540007 1.74041045 0.86103362 -0.82898003 0.59700269
15.91346264 -5.50473499 1.63980961 0.85739046 -0.93598789 0.56249416
14.35798073 -4.15680599 2.04357767 0.77358371 -0.70679516 0.70099634
14.28666496 -4.71472406 1.98163939 0.76974136 -0.80165976 0.67975003
14.42421627 -5.35899305 1.94311714 0.77715242 -0.91120690 0.66653597
16.94778633 -4.19984007 1.30119514 0.91311806 -0.71411240 0.44634128
16.97271538 -4.86332035 1.21850276 0.91446120 -0.82692611 0.41797578
18.08426476 -3.95771480 2.12050533 0.97434962 -0.67294306 0.72738439
15.98366737 -4.07963276 1.78144383 0.86117297 -0.69367313 0.61107814
15.97710323 -4.76471043 1.73638701 0.86081934 -0.81015915 0.59562254
14.51336193 -4.10294533 2.06323004 0.78195542 -0.69763708 0.70773757
14.30282021 -4.62058640 1.97968519 0.77061176 -0.78565323 0.67907971
14.42220497 -5.25541162 1.93802154 0.77704400 -0.89359462 0.66478807
17.29346848 -4.17074537 1.32830977 0.93174285 -0.70916533 0.45564225
17.00485802 -4.75711727 1.21865606 0.91619301 -0.80886805 0.41802838
14.13564873 -4.89565563 2.25063419 0.76160485 -0.83242416 0.77202171
18.52640152 -3.93218231 2.17259908 0.99817121 -0.66860169 0.74525380
16.39059639 -4.07447577 1.82723093 0.88309765 -0.69279629 0.62678421
15.80248547 -4.60498619 1.71246982 0.85141122 -0.78300071 0.58741838
14.75259876 -4.07034254 2.09559870 0.79484510 -0.69209349 0.71884084
14.31835747 -4.52643204 1.97773087 0.77144891 -0.76964390 0.67840934
14.40825939 -5.14808178 1.93131673 0.77629268 -0.87534499 0.66248816
14.58691597 -5.82091379 1.87500918 0.78591835 -0.98974878 0.64317328
16.96321106 -4.63083076 1.21298623 0.91394913 -0.78739512 0.41608348
14.80806446 -4.21580935 1.59288383 0.79783350 -0.71682769 0.54639751
15.03022385 -4.04512930 2.13374758 0.80980307 -0.68780643 0.73192680
14.35975361 -4.44049168 1.97968519 0.77367926 -0.75503117 0.67907971
14.40476418 -5.04505110 1.92622101 0.77610433 -0.85782635 0.66074020
17.04208946 -4.53743887 1.21697032 0.91819900 -0.77151543 0.41745013
14.97520256 -4.18699646 1.61009526 0.80683857 -0.71192855 0.55230147
15.34197140 -4.05118561 2.17796564 0.82659948 -0.68883622 0.74709469
14.36536789 -4.36814404 1.97745168 0.77398175 -0.74272966 0.67831355
14.37776756 -4.95973158 1.91897988 0.77464980 -0.84331918 0.65825629
14.47988129 -5.59417915 1.85160565 0.78015155 -0.95119637 0.63514531
18.46185493 -4.11766481 1.42115664 0.99469352 -0.70013988 0.48749095
17.11732101 -4.47112846 1.22126102 0.92225230 -0.76024044 0.41892195
15.81831264 -4.31460524 1.70531702 0.85226393 -0.73362631 0.58496481
15.68537712 -4.03617716 2.22594070 0.84510159 -0.68628424 0.76355129
14.40771008 -4.28233290 1.97968519 0.77626306 -0.72813892 0.67907971
14.38234806 -4.86044788 1.91522515 0.77489662 -0.82643765 0.65696836
17.20306969 -4.37817812 1.22585821 0.92687231 -0.74443579 0.42049888
15.79515553 -4.20190907 1.69950533 0.85101628 -0.71446419 0.58297127
16.02342606 -4.01557398 2.27304888 0.86331511 -0.68278104 0.77971053
14.44573879 -4.19505167 1.98136020 0.77831197 -0.71329820 0.67965424
16.55050659 -5.73571014 1.62497401 0.89171332 -0.97526133 0.55740523
14.38436699 -4.76068258 1.91120231 0.77500540 -0.80947423 0.65558845
17.40061569 -4.31201839 1.23934317 0.93751574 -0.73318642 0.42512456
15.81433105 -4.02062273 2.60690188 0.85204941 -0.68363947 0.89423013
15.76158714 -4.08719206 1.69257605 0.84920770 -0.69495851 0.58059436
16.38490105 -3.99647880 2.32362485 0.88279074 -0.67953420 0.79705930
14.55370712 -4.12754965 1.99336505 0.78412914 -0.70182061 0.68377221
14.38381577 -4.66047573 1.90691113 0.77497566 -0.79243577 0.65411645
17.57861328 -4.23889446 1.25129580 0.94710594 -0.72075295 0.42922461
16.22460747 -4.01606178 2.67112708 0.87415445 -0.68286395 0.91626090
16.20330620 -4.09270382 1.74085748 0.87300676 -0.69589567 0.59715605
16.76023865 -3.97617817 2.37622404 0.90301335 -0.67608243 0.81510210
14.77396202 -4.09018040 2.02184176 0.79599613 -0.69546658 0.69354039
14.97595787 -4.98226595 1.45047307 0.80687928 -0.84715080 0.49754721
15.15631485 -5.67124987 1.36611199 0.81659663 -0.96430093 0.46860930
14.41470432 -4.57060480 1.90717936 0.77663988 -0.77715474 0.65420842
17.76996803 -4.16687441 1.26432097 0.95741582 -0.70850712 0.43369254
16.56247711 -3.98902011 2.72321033 0.89235824 -0.67826599 0.93412673
16.53372765 -4.06543112 1.77617455 0.89080930 -0.69125843 0.60927063
17.15524292 -3.95573997 2.43171334 0.92429549 -0.67260724 0.83413625
15.04973984 -4.06525373 2.05841470 0.81085455 -0.69122827 0.70608580
14.42230606 -4.47351408 1.90422928 0.77704948 -0.76064605 0.65319651
18.05639839 -4.11421871 1.28485501 0.97284824 -0.69955391 0.44073620
17.25635719 -4.04075432 2.83440638 0.92974335 -0.68706250 0.97226965
16.90252876 -4.07130289 1.81663251 0.91067970 -0.69225681 0.62314868
14.96145821 -4.19296074 1.50242865 0.80609810 -0.71294266 0.51536924
17.53478622 -3.95588851 2.48575759 0.94474465 -0.67263252 0.85267472
15.31558895 -4.06006861 2.09442925 0.82517803 -0.69034660 0.71843970
15.87913704 -5.08830690 1.54022789 0.85554105 -0.86518127 0.52833527
14.44512272 -4.40607691 1.90449750 0.77827877 -0.74917948 0.65328848
18.56034470 -4.13657999 1.32301128 1.00000000 -0.70335609 0.45382473
17.52737045 -4.01688147 2.87626481 0.94434512 -0.68300337 0.98662812
17.21424866 -4.03176880 1.84971428 0.92747462 -0.68553472 0.63449657
18.23994637 -3.99389839 2.58748794 0.98273748 -0.67909545 0.88757068
15.65132046 -4.04441690 2.13965678 0.84326667 -0.68768531 0.73395383
15.92788982 -4.99377298 1.54203093 0.85816777 -0.84910738 0.52895373
14.48012257 -4.31748438 1.90557027 0.78016454 -0.73411584 0.65365648
17.78743553 -3.95873904 2.91524720 0.95835698 -0.67311722 1.00000000
17.70833778 -4.02972555 1.90380740 0.95409530 -0.68518728 0.65305179
18.50671577 -3.93034530 2.62361360 0.99711055 -0.66828930 0.89996266
15.95864868 -4.01741600 2.18069673 0.85982502 -0.68309426 0.74803150
15.93040371 -4.88488102 1.53902578 0.85830325 -0.83059210 0.52792293
14.52219200 -4.23083258 1.90771580 0.78243119 -0.71938217 0.65439248
18.01089096 -3.97939110 1.93577147 0.97039634 -0.67662877 0.66401625
15.80753899 -4.11143541 1.58645368 0.85168350 -0.69908065 0.54419184
15.97031593 -4.78753710 1.54002750 0.86045361 -0.81404042 0.52826655
14.56946564 -4.14544249 1.91066587 0.78497821 -0.70486301 0.65540439
15.10710526 -4.03835440 2.35419703 0.81394529 -0.68665445 0.80754626
18.45150757 -3.95483613 1.98360586 0.99413604 -0.67245358 0.68042457
16.17035294 -4.09794903 1.62321460 0.87123126 -0.69678754 0.55680168
16.66651344 -3.97445416 2.27617741 0.89796358 -0.67578930 0.78078365
14.78625965 -4.10660219 1.93748510 0.79665869 -0.69825888 0.66460407
16.53167915 -4.07958364 1.65976548 0.89069891 -0.69366479 0.56933951
17.04796982 -3.95282698 2.32782602 0.91851580 -0.67211193 0.79850036
15.03566551 -4.07396841 1.96886373 0.81009626 -0.69271004 0.67536765
15.77924347 -4.00713205 2.45232511 0.85015899 -0.68134564 0.84120655
16.87927437 -4.08148861 1.69547617 0.90942675 -0.69398874 0.58158916
17.47380829 -3.96538615 2.38673377 0.94145924 -0.67424744 0.81870717
15.01963902 -4.22248936 1.43224168 0.80923277 -0.71796352 0.49129340
15.32677555 -4.07503557 2.00694704 0.82578075 -0.69289148 0.68843114
16.06454277 -3.99944901 2.49429369 0.86553043 -0.68003923 0.85560280
17.20073128 -4.04536152 1.72761571 0.92674631 -0.68784589 0.59261382
17.90248871 -3.94503832 2.44508290 0.96455586 -0.67078763 0.83872235
15.67066193 -4.06078386 2.05146694 0.84430879 -0.69046819 0.70370257
16.39093781 -3.97189975 2.54169726 0.88311601 -0.67535496 0.87186337
17.66389275 -4.03786850 1.77508986 0.95170069 -0.68657184 0.60889858
18.28899193 -3.91030097 2.49729013 0.98537999 -0.66488111 0.85663068
15.98492050 -4.27658749 1.52740574 0.86124051 -0.72716200 0.52393693
15.98420715 -4.03464556 2.09169602 0.86120206 -0.68602383 0.71750212
16.82341576 -3.96547580 2.60570693 0.90641719 -0.67426270 0.89382023
18.11597443 -4.02211142 1.82130373 0.97605807 -0.68389261 0.62475103
15.89205456 -4.14507723 1.51498437 0.85623705 -0.70480090 0.51967615
16.32883453 -4.01225376 2.13621593 0.87976998 -0.68221647 0.73277348
17.27763939 -3.95865130 2.67303801 0.93089002 -0.67310226 0.91691643
18.41691780 -3.96798992 1.85113263 0.99227238 -0.67469019 0.63498306
16.28048325 -4.13683701 1.55264926 0.87716490 -0.70339978 0.53259611
16.68922424 -3.98935580 2.18288159 0.89918721 -0.67832309 0.74878097
17.75171661 -3.95058823 2.74338818 0.95643246 -0.67173129 0.94104820
16.60565567 -4.10818052 1.58370280 0.89468467 -0.69852722 0.54324818
17.08857727 -3.97101140 2.23491096 0.92070365 -0.67520392 0.76662827
15.03847599 -4.08132696 1.85923719 0.81024766 -0.69396120 0.63776314
16.96916962 -4.11291790 1.61936438 0.91427016 -0.69933271 0.55548096
15.13665390 -4.26696825 1.32371306 0.81553733 -0.72552639 0.45406547
17.52271652 -3.98445106 2.29257226 0.94409436 -0.67748910 0.78640747
15.29515839 -4.07403326 1.89078116 0.82407731 -0.69272107 0.64858347
17.29884529 -4.07754612 1.65081859 0.93203253 -0.69331837 0.56627053
15.30903816 -4.21211481 1.33778429 0.82482511 -0.71619952 0.45889223
17.95392609 -3.96354747 2.34889269 0.96732718 -0.67393482 0.80572677
15.61988735 -4.05600834 1.93046546 0.84157312 -0.68965620 0.66219616
17.74126625 -4.06383514 1.69389284 0.95586944 -0.69098705 0.58104604
18.38167000 -3.93655300 2.40467691 0.99037331 -0.66934484 0.82486212
15.90460968 -4.02379227 1.96480763 0.85691351 -0.68417841 0.67397636
18.15309525 -4.03784275 1.73376167 0.97805810 -0.68656749 0.59472203
15.90193748 -4.16175795 1.38981104 0.85676950 -0.70763719 0.47673866
16.27425766 -4.00913715 2.01034284 0.87682950 -0.68168658 0.68959600
18.51858711 -3.99680686 1.76882207 0.99775016 -0.67958999 0.60674858
16.28271675 -4.15274429 1.42387831 0.87728524 -0.70610452 0.48842454
16.63662338 -3.98813367 2.05486035 0.89635313 -0.67811525 0.70486659
16.62728691 -4.12994194 1.45442784 0.89585012 -0.70222741 0.49890378
17.04570770 -3.97359419 2.10548329 0.91839391 -0.67564309 0.72223145
16.98120880 -4.13341093 1.48645842 0.91491884 -0.70281720 0.50989103
17.38908005 -3.96773314 2.14822030 0.93689424 -0.67464650 0.73689133
17.33812332 -4.10547686 1.51811886 0.93414879 -0.69806749 0.52075136
17.86482239 -3.95890045 2.20749235 0.96252644 -0.67314464 0.75722307
17.75354958 -4.08668375 1.55533361 0.95653123 -0.69487208 0.53351688
18.26938057 -3.92873287 2.25735211 0.98432332 -0.66801518 0.77432615
18.15386391 -4.05933571 1.59106731 0.97809952 -0.69022197 0.54577440
18.51366234 -4.01820135 1.62291276 0.99748486 -0.68322778 0.55669814
