-0.46610498 -3.88251567 0.80205274 -0.14895040 -0.82514393 0.39543021
-0.63443011 -4.57594061 1.72206199 -0.20274106 -0.97251624 0.84901571
-0.37178633 -3.16219115 1.36415577 -0.11880954 -0.67205465 0.67255980
-0.76977015 -4.57887077 1.96419668 -0.24599086 -0.97313899 0.96839356
-0.82728493 -3.14150977 1.13450491 -0.26437053 -0.66765928 0.55933672
-0.90424460 -3.08632588 1.27535987 -0.28896406 -0.65593117 0.62878138
-0.07232976 -3.16890717 0.86556566 -0.02311399 -0.67348200 0.42674354
-0.21937008 -3.24635315 0.86357957 -0.07010279 -0.68994147 0.42576435
0.00523811 -3.13935280 1.02805054 0.00167391 -0.66720086 0.50685227
-0.13914354 -3.15362477 1.01209140 -0.04446527 -0.67023408 0.49898404
-0.45110527 -3.24657130 0.84362715 -0.14415702 -0.68998784 0.41592735
-0.93335968 -3.99250245 1.20989668 -0.29826820 -0.84851921 0.59650654
0.00012856 -3.48651028 0.75733310 0.00004108 -0.74098164 0.37338242
-0.16648987 -3.58030152 0.75880986 -0.05320418 -0.76091486 0.37411049
-0.43263674 -3.80175948 0.78406596 -0.13825515 -0.80798095 0.38656232
-0.61190027 -4.57146406 1.71921682 -0.19554132 -0.97156483 0.84761298
-0.36559135 -3.24582577 1.40039933 -0.11682985 -0.68982935 0.69042867
-0.63877815 -3.93033552 1.67927456 -0.20413053 -0.83530700 0.82792050
-0.81476772 -3.15449715 1.13789380 -0.26037046 -0.67041945 0.56100750
-1.17386580 -3.79134297 1.35142612 -0.37512532 -0.80576712 0.66628379
-0.88497865 -3.07456541 1.26856244 -0.28280735 -0.65343171 0.62543011
-0.05741838 -3.17113662 0.86611223 -0.01834885 -0.67395580 0.42701301
-0.20380375 -3.24350429 0.86251503 -0.06512835 -0.68933600 0.42523950
0.01961776 -3.10709333 1.01714182 0.00626913 -0.66034484 0.50147402
-0.12428094 -3.15424562 1.01209140 -0.03971572 -0.67036599 0.49898404
-0.43335155 -3.22949839 0.83845031 -0.13848357 -0.68635935 0.41337505
-0.35374779 -3.17683840 1.00015497 -0.11304507 -0.67516762 0.49309912
0.01622806 -3.45526719 0.75024688 0.00518590 -0.73434156 0.36988875
-0.15044957 -3.59860158 0.76269913 -0.04807828 -0.76480418 0.37602800
-0.41391009 -3.79597473 0.78239280 -0.13227078 -0.80675155 0.38573742
-0.58042705 -4.55295563 1.71068120 -0.18548362 -0.96763128 0.84340471
-0.34191185 -3.21527052 1.38590193 -0.10926273 -0.68333554 0.68328112
-0.60851282 -3.89981890 1.66423702 -0.19445881 -0.82882130 0.82050663
-0.77791858 -3.09010482 1.11213827 -0.24859481 -0.65673429 0.54830945
-1.15780962 -3.82390285 1.36066306 -0.36999431 -0.81268704 0.67083782
-0.72632480 -3.13788247 1.31034267 -0.23210730 -0.66688836 0.64602870
-0.03748213 -3.16951084 0.86556566 -0.01197794 -0.67361033 0.42674354
-0.18366203 -3.24856901 0.86357957 -0.05869178 -0.69041240 0.42576435
0.03917595 -3.10880280 1.01778352 0.01251922 -0.66070813 0.50179040
-0.10430983 -3.15117073 1.01083171 -0.03333367 -0.66971254 0.49836299
-0.41258574 -3.22832203 0.83741498 -0.13184756 -0.68610936 0.41286460
0.03859553 -3.49409842 0.75910467 0.01233375 -0.74259430 0.37425584
-0.12655082 -3.56825805 0.75578493 -0.04044109 -0.75835532 0.37261915
-0.38721004 -3.76930189 0.77611834 -0.12373841 -0.80108279 0.38264397
-0.01275141 -3.79996419 1.47302663 -0.00407489 -0.80759937 0.72623557
-0.55722129 -4.60292864 1.72846377 -0.17806789 -0.97825193 0.85217190
-0.31624141 -3.15902925 1.36012864 -0.10105938 -0.67138267 0.67057431
-0.58680886 -3.92171621 1.67215145 -0.18752301 -0.83347511 0.82440865
-0.76633954 -3.12787867 1.12433827 -0.24489456 -0.66476232 0.55432433
-1.15119994 -3.88894749 1.38177621 -0.36788210 -0.82651085 0.68124706
-0.71092242 -3.16221452 1.31882930 -0.22718525 -0.67205966 0.65021282
-0.01756185 -3.17545533 0.86720526 -0.00561214 -0.67487365 0.42755190
-0.16292089 -3.24388433 0.86198270 -0.05206366 -0.68941677 0.42497706
0.05890086 -3.11606979 1.02035022 0.01882260 -0.66225260 0.50305581
-0.08406669 -3.13848352 1.00642276 -0.02686469 -0.66701615 0.49618930
-0.39229360 -3.23085070 0.83741498 -0.12536293 -0.68664676 0.41286460
0.05982638 -3.46258974 0.75201845 0.01911836 -0.73589784 0.37076217
-0.10392425 -3.56312799 0.75448853 -0.03321046 -0.75726503 0.37197998
-0.36086166 -3.74244452 0.76984388 -0.11531841 -0.79537487 0.37955052
0.01107839 -3.79439330 1.47081208 0.00354025 -0.80641544 0.72514379
-0.52828944 -4.60633898 1.72846377 -0.16882230 -0.97897673 0.85217190
-0.29065454 -3.09529996 1.33113384 -0.09288274 -0.65783840 0.65627921
-0.56080800 -3.91624165 1.66819417 -0.17921408 -0.83231163 0.82245761
-0.74794561 -3.13813138 1.12637162 -0.23901652 -0.66694129 0.55532682
-1.07284784 -3.71318674 1.31513786 -0.34284359 -0.78915673 0.64839286
-0.68989342 -3.16120338 1.31651473 -0.22046514 -0.67184472 0.64907169
0.00233525 -3.16780782 0.86501914 0.00074626 -0.67324835 0.42647409
-0.14253588 -3.24484396 0.86198270 -0.04554934 -0.68962073 0.42497706
0.09307183 -3.57571292 1.17628086 0.02974241 -0.75993967 0.57993317
-0.06455027 -3.14653993 1.00894213 -0.02062795 -0.66872835 0.49743140
-0.37052432 -3.21980810 0.83379120 -0.11840625 -0.68429989 0.41107801
-0.53874332 -3.31701803 0.83473212 -0.17216299 -0.70495975 0.41154191
-0.29266670 -3.16967177 0.99584079 -0.09352575 -0.67364448 0.49097213
0.08117939 -3.44849896 0.74891824 0.02594201 -0.73290312 0.36923370
-0.08147875 -3.56175876 0.75405639 -0.02603768 -0.75697404 0.37176692
-0.33602071 -3.72904754 0.76649749 -0.10738014 -0.79252762 0.37790069
0.03462114 -3.77380443 1.46269202 0.01106367 -0.80203968 0.72114038
-0.26809761 -3.05874681 1.31422019 -0.08567436 -0.65006983 0.64794040
-0.53670722 -3.92332506 1.66977715 -0.17151234 -0.83381706 0.82323807
-0.72738713 -3.13909745 1.12501597 -0.23244677 -0.66714662 0.55465841
-0.65555859 -3.09498048 1.28642559 -0.20949295 -0.65777051 0.63423705
-0.75429362 -2.89725924 1.18472886 -0.24104512 -0.61574918 0.58409822
0.02234243 -3.17542529 0.86720526 0.00713984 -0.67486727 0.42755190
-0.12206069 -3.24374962 0.86145043 -0.03900621 -0.68938816 0.42471462
0.10970876 -3.42173290 1.12430394 0.03505898 -0.72721457 0.55430740
-0.04485738 -3.15067911 1.01020181 -0.01433481 -0.66960806 0.49805245
-0.35067996 -3.22591615 0.83482653 -0.11206471 -0.68559802 0.41158843
-0.51634157 -3.31078124 0.83222753 -0.16500419 -0.70363426 0.41030708
-0.27365091 -3.18282819 0.99953872 -0.08744899 -0.67644060 0.49279529
0.10368092 -3.47131014 0.75423288 0.03313269 -0.73775113 0.37185395
-0.05896748 -3.55634356 0.75275999 -0.01884389 -0.75582314 0.37112778
-0.31227857 -3.72718549 0.76566094 -0.09979300 -0.79213184 0.37748823
-0.70488238 -4.58169937 1.68569136 -0.22525507 -0.97374016 0.83108413
-0.24846490 -3.05489421 1.31180394 -0.07940045 -0.64925104 0.64674914
-0.51451439 -3.94482064 1.67769158 -0.16442031 -0.83838546 0.82714003
-0.64328700 -3.13523555 1.30185592 -0.20557140 -0.66632587 0.64184457
-0.78002000 -3.07038331 1.25572312 -0.24926634 -0.65254289 0.61910003
0.04199009 -3.15983438 0.86283308 0.01341852 -0.67155379 0.42539632
-0.10117012 -3.23096704 0.85772437 -0.03233033 -0.68667150 0.42287761
0.13539793 -3.51559639 1.15638852 0.04326831 -0.74716324 0.57012582
-0.02508767 -3.15279675 1.01083171 -0.00801712 -0.67005807 0.49836299
-0.32892689 -3.21267200 0.83068508 -0.10511321 -0.68278325 0.40954661
-0.49135780 -3.28717542 0.82521462 -0.15702029 -0.69861734 0.40684956
0.12442507 -3.44525814 0.74847531 0.03976178 -0.73221439 0.36901534
-0.03665257 -3.55859637 0.75319213 -0.01171284 -0.75630194 0.37134084
-0.28730917 -3.70761609 0.76105964 -0.09181368 -0.78797281 0.37521970
-0.68413740 -4.59052992 1.68778014 -0.21862572 -0.97561687 0.83211398
-0.23457710 -3.06333590 1.31502569 -0.07496241 -0.65104514 0.64833754
-0.67446613 -3.37554359 1.40292490 -0.21553513 -0.71739805 0.69167382
0.05739703 -3.18075776 0.86884481 0.01834203 -0.67600060 0.42836022
-0.08638714 -3.24489546 0.86145043 -0.02760622 -0.68963164 0.42471462
0.13322596 -3.13273716 1.02676713 0.04257423 -0.66579485 0.50621951
-0.01050630 -3.18135214 1.02027965 -0.00335744 -0.67612690 0.50302106
-0.31395954 -3.21610999 0.83120275 -0.10033018 -0.68351394 0.40980184
-0.46950531 -3.24733377 0.81419438 -0.15003702 -0.69014984 0.40141633
-0.23785774 -3.17425537 0.99584079 -0.07601079 -0.67461866 0.49097213
-0.60653305 -3.15051460 0.93911582 -0.19382615 -0.66957307 0.46300542
0.14047688 -3.44073701 0.74758953 0.04489136 -0.73125350 0.36857861
-0.01999309 -3.56849265 0.75535280 -0.00638907 -0.75840515 0.37240610
-0.27127796 -3.73039389 0.76566094 -0.08669069 -0.79281372 0.37748823
-0.50520676 -4.22760248 0.83801293 -0.16144592 -0.89848459 0.41315940
-0.65528095 -4.59473801 1.68778014 -0.20940423 -0.97651118 0.83211398
-0.21637098 -3.08119202 1.32227433 -0.06914439 -0.65484005 0.65191126
-0.45250848 -3.80077982 1.61279273 -0.14460544 -0.80777276 0.79514343
-0.67151594 -3.14382601 1.12230492 -0.21459235 -0.66815156 0.55332184
-0.63796830 -3.29809809 1.36820662 -0.20387173 -0.70093870 0.67455697
0.07667196 -3.15725851 0.86228657 0.02450160 -0.67100632 0.42512688
-0.06563838 -3.23188400 0.85772437 -0.02097567 -0.68686634 0.42287761
0.15070924 -3.09211946 1.01329172 0.04816125 -0.65716243 0.49957582
0.00962530 -3.13959455 1.00642276 0.00307590 -0.66725224 0.49618930
-0.29341906 -3.21416950 0.83016741 -0.09376618 -0.68310153 0.40929139
-0.45103091 -3.26363420 0.81770080 -0.14413327 -0.69361418 0.40314507
-0.21838123 -3.18328333 0.99830604 -0.06978679 -0.67653733 0.49218756
-0.58435965 -3.14107776 0.93504834 -0.18674034 -0.66756749 0.46100008
0.16198945 -3.43783879 0.74714667 0.05176600 -0.73063755 0.36836028
0.00252667 -3.54902053 0.75103146 0.00080743 -0.75426680 0.37027556
-0.24581137 -3.69883823 0.75854987 -0.07855248 -0.78610730 0.37398231
-0.46187654 -4.08864927 0.80871135 -0.14759913 -0.86895311 0.39871308
-0.62744331 -4.60619068 1.69056523 -0.20050833 -0.97894520 0.83348703
-0.19470309 -3.04228210 1.30455530 -0.06222011 -0.64657062 0.64317542
-0.42689571 -3.78895545 1.60646105 -0.13642052 -0.80525970 0.79202181
-0.72016573 -3.48929954 1.24769390 -0.23013908 -0.74157441 0.61514145
-0.79475951 -3.10803747 1.08553255 -0.25397655 -0.66054547 0.53519219
-0.60312700 -3.22396183 1.33503127 -0.19273770 -0.68518269 0.65820074
0.09679265 -3.16440487 0.86447263 0.03093145 -0.67252517 0.42620465
-0.04533069 -3.23223257 0.85772437 -0.01448606 -0.68694043 0.42287761
0.16896924 -3.07220459 1.00687480 0.05399650 -0.65292996 0.49641216
0.02935163 -3.13947201 1.00642276 0.00937973 -0.66722620 0.49618930
-0.27261257 -3.20824599 0.82809669 -0.08711718 -0.68184263 0.40827048
-0.42521894 -3.22804260 0.80768239 -0.13588469 -0.68604994 0.39820576
-0.19678311 -3.15609694 0.98906124 -0.06288481 -0.67075950 0.48762965
-0.56591707 -3.15223026 0.93737262 -0.18084675 -0.66993767 0.46214601
0.18566647 -3.47179770 0.75511867 0.05933233 -0.73785478 0.37229067
0.02483056 -3.55284023 0.75189573 0.00793495 -0.75507861 0.37070167
-0.22299303 -3.70812106 0.76022309 -0.07126056 -0.78808016 0.37480727
-0.43639517 -4.09341764 0.80911273 -0.13945621 -0.86996651 0.39891097
-0.59125376 -4.55615377 1.67037368 -0.18894345 -0.96831095 0.82353216
-0.17605036 -3.05258679 1.30858231 -0.05625937 -0.64876068 0.64516079
-0.40124553 -3.77513433 1.59933805 -0.12822364 -0.80232233 0.78850996
-0.72079545 -3.61013174 1.29039395 -0.23034032 -0.76725465 0.63619351
-0.74106288 -2.97944164 1.03736818 -0.23681705 -0.63321525 0.51144606
-0.65600181 -3.64760590 1.51325214 -0.20963459 -0.77521896 0.74606770
0.11667314 -3.16373420 0.86447263 0.03728454 -0.67238259 0.42620465
-0.02512942 -3.24016428 0.85985357 -0.00803046 -0.68862617 0.42392734
0.19045186 -3.10321069 1.01778352 0.06086157 -0.65951967 0.50179040
0.04912893 -3.14492011 1.00831223 0.01569984 -0.66838408 0.49712083
-0.25258860 -3.21182227 0.82861435 -0.08071823 -0.68260270 0.40852571
-0.40366429 -3.22105217 0.80517781 -0.12899660 -0.68456429 0.39697096
-0.17732601 -3.16487241 0.99152648 -0.05666702 -0.67262453 0.48884508
-0.53541243 -3.09154081 0.91761607 -0.17109856 -0.65703946 0.45240557
-0.83021092 -3.73821735 1.08727860 -0.26530555 -0.79447645 0.53605306
0.20619887 -3.45110106 0.75068980 0.06589375 -0.73345613 0.37010711
0.04712360 -3.54870868 0.75103146 0.01505901 -0.75420052 0.37027556
-0.19921778 -3.69968152 0.75813156 -0.06366284 -0.78628647 0.37377608
-0.40451443 -4.03762245 0.79707098 -0.12926827 -0.85810846 0.39297411
0.13596794 -3.08136892 1.18882191 0.04345046 -0.65487766 0.58611619
-0.01216935 -3.84122968 1.46153378 -0.00388889 -0.81636947 0.72056937
-0.15662178 -3.04814625 1.30616605 -0.05005069 -0.64781690 0.64396954
-0.37790278 -3.78123426 1.60092092 -0.12076414 -0.80361873 0.78929037
-0.68111467 -3.52396607 1.25718284 -0.21765976 -0.74894202 0.61981970
-0.76020443 -3.13609982 1.09213030 -0.24293400 -0.66650951 0.53844506
-0.58423680 -3.36049056 1.38980913 -0.18670107 -0.71419889 0.68520749
0.13645372 -3.16101718 0.86392611 0.04360570 -0.67180514 0.42593521
-0.00465099 -3.22483587 0.85559517 -0.00148629 -0.68536842 0.42182785
0.21022657 -3.10573101 1.01906693 0.06718085 -0.66005528 0.50242317
0.06947400 -3.18250942 1.02090943 0.02220139 -0.67637289 0.50333154
-0.23176734 -3.20370770 0.82602596 -0.07406451 -0.68087810 0.40724957
-0.38269579 -3.21776104 0.80367506 -0.12229582 -0.68386483 0.39623007
-0.15727255 -3.16212225 0.99029386 -0.05025865 -0.67204005 0.48823738
-0.51688468 -3.10051298 0.91935933 -0.16517776 -0.65894634 0.45326504
0.22675857 -3.43417501 0.74714667 0.07246388 -0.72985888 0.36836028
0.06955475 -3.55810523 0.75319213 0.02222720 -0.75619757 0.37134084
-0.17506443 -3.67936587 0.75353032 -0.05594430 -0.78196883 0.37150756
-0.37759477 -4.02448606 0.79385984 -0.12066571 -0.85531664 0.39139095
0.15267980 -3.03405976 1.17036700 0.04879098 -0.64482313 0.57701755
0.01218521 -3.74060702 1.42230499 0.00389396 -0.79498434 0.70122868
-0.13718569 -3.04175282 1.30294442 -0.04383961 -0.64645815 0.64238119
-0.35522300 -3.79450083 1.60566962 -0.11351650 -0.80643827 0.79163158
-0.73781592 -3.12980485 1.08817160 -0.23577943 -0.66517168 0.53649330
-0.58396852 -3.49343324 1.44458699 -0.18661535 -0.74245292 0.71221423
0.15663433 -3.16585994 0.86556566 0.05005470 -0.67283440 0.42674354
0.01560555 -3.22865725 0.85665977 0.00498697 -0.68618059 0.42235273
0.22988832 -3.10623693 1.01970851 0.07346404 -0.66016281 0.50273949
0.08897407 -3.15923667 1.01335120 0.02843291 -0.67142677 0.49960515
-0.21197863 -3.21088600 0.82757902 -0.06774075 -0.68240368 0.40801525
-0.36384252 -3.23163843 0.80668056 -0.11627099 -0.68681419 0.39771184
-0.50320536 -3.14153004 0.93098080 -0.16080634 -0.66766357 0.45899469
0.25076702 -3.46379280 0.75423288 0.08013613 -0.73615348 0.37185395
0.09194875 -3.55955052 0.75362426 0.02938351 -0.75650471 0.37155387
-0.15229240 -3.69016576 0.75562179 -0.04866718 -0.78426415 0.37253872
-0.35013387 -4.00336742 0.78904319 -0.11189020 -0.85082829 0.38901621
0.17538284 -3.09054756 1.19325101 0.05604605 -0.65682840 0.58829987
0.03558834 -3.71623278 1.41286099 0.01137275 -0.78980410 0.69657254
-0.11830629 -3.04987359 1.30616605 -0.03780644 -0.64818400 0.64396954
-0.33103567 -3.79299998 1.60408676 -0.10578710 -0.80611932 0.79085124
-0.71163708 -3.10681438 1.07827485 -0.22741362 -0.66028553 0.53161401
-0.71191829 -4.46529770 1.85426354 -0.22750349 -0.94900149 0.91419405
0.17640333 -3.16289330 0.86501914 0.05637216 -0.67220390 0.42647409
0.03591923 -3.23427892 0.85825664 0.01147849 -0.68737537 0.42314002
0.25071272 -3.11982846 1.02484202 0.08011878 -0.66305143 0.50527042
0.11945233 -3.53811240 1.13932323 0.03817267 -0.75194854 0.56171227
-0.19262363 -3.22758722 0.83172047 -0.06155559 -0.68595320 0.41005710
-0.34482995 -3.24540520 0.80968612 -0.11019526 -0.68974000 0.39919364
-0.11834254 -3.19047379 0.99892235 -0.03781802 -0.67806554 0.49249142
-0.49014562 -3.19006968 0.94492656 -0.15663292 -0.67797965 0.46587026
0.26923692 -3.42328072 0.74537510 0.08603844 -0.72754353 0.36748686
0.11348744 -3.52766919 0.74671006 0.03626651 -0.74972904 0.36814502
-0.12841234 -3.66759086 0.75060225 -0.04103597 -0.77946633 0.37006396
-0.32228005 -3.97425532 0.78262091 -0.10298911 -0.84464115 0.38584989
0.19007094 -3.09154129 1.19398928 0.06073984 -0.65703958 0.58866382
0.05291951 -3.69552708 1.40486991 0.01691118 -0.78540355 0.69263279
-0.10398299 -3.05222726 1.30697155 -0.03322922 -0.64868426 0.64436668
-0.31347966 -3.79817724 1.60566962 -0.10017683 -0.80721962 0.79163158
-0.70081031 -3.12669039 1.08421290 -0.22395378 -0.66450977 0.53454161
-0.70920765 -4.59086370 1.90595531 -0.22663727 -0.97568780 0.93967927
0.19194867 -3.17162466 0.86775178 0.06133989 -0.67405957 0.42782134
0.05115995 -3.23407364 0.85825664 0.01634888 -0.68733174 0.42314002
0.26454729 -3.10918069 1.02163363 0.08453980 -0.66078848 0.50368857
0.12376770 -3.15996456 1.01398098 0.03955171 -0.67158145 0.49991566
-0.17675486 -3.21495223 0.82809669 -0.05648450 -0.68326789 0.40827048
-0.32787251 -3.23159337 0.80567873 -0.10477627 -0.68680459 0.39721793
-0.10246588 -3.15866160 0.98844492 -0.03274441 -0.67130452 0.48732582
-0.47402829 -3.18476558 0.94260228 -0.15148240 -0.67685235 0.46472433
0.28606004 -3.42974448 0.74714667 0.09141450 -0.72891730 0.36836028
0.13077800 -3.54856515 0.75146359 0.04179195 -0.75417000 0.37048861
-0.11161175 -3.68770695 0.75478524 -0.03566710 -0.78374159 0.37212628
-0.30307093 -3.96987152 0.78141671 -0.09685057 -0.84370947 0.38525620
0.20949179 -3.09028602 1.19398928 0.06694604 -0.65677279 0.58866382
0.07484381 -3.60941505 1.37145281 0.02391739 -0.76710236 0.67615741
-0.08476470 -3.05099010 1.30616605 -0.02708775 -0.64842129 0.64396954
-0.29050508 -3.81105590 1.61041832 -0.09283498 -0.80995667 0.79397279
-0.53701180 -3.16575623 1.12094939 -0.17160967 -0.67281234 0.55265349
-0.67578131 -3.10708189 1.07563567 -0.21595541 -0.66034240 0.53031284
-0.68034863 -4.59522915 1.90595531 -0.21741496 -0.97661561 0.93967927
0.21201321 -3.17227483 0.86829829 0.06775180 -0.67419773 0.42809078
0.07175344 -3.25103712 0.86304730 0.02292982 -0.69093692 0.42550191
0.28518593 -3.11876845 1.02548373 0.09113517 -0.66282612 0.50558680
0.14391582 -3.16671181 1.01650047 0.04599032 -0.67301542 0.50115782
-0.15671484 -3.21985960 0.82913202 -0.05008043 -0.68431085 0.40878093
-0.30736607 -3.23166323 0.80517781 -0.09822315 -0.68681943 0.39697096
-0.45323497 -3.18199205 0.94085908 -0.14483760 -0.67626292 0.46386489
-0.59433311 -3.13043094 0.89885056 -0.18992749 -0.66530472 0.44315374
0.30648923 -3.41623044 0.74448931 0.09794294 -0.72604519 0.36705014
0.15226854 -3.52620816 0.74671006 0.04865955 -0.74941856 0.36814502
-0.08775319 -3.65118217 0.74683762 -0.02804277 -0.77597904 0.36820790
-0.27694687 -3.95606685 0.77820557 -0.08850227 -0.84077561 0.38367301
0.22935298 -3.09446692 1.19620383 0.07329296 -0.65766138 0.58975565
0.09592717 -3.53435469 1.34239435 0.03065488 -0.75114989 0.66183090
-0.06556608 -3.04963207 1.30536067 -0.02095256 -0.64813268 0.64357245
-0.26558903 -3.79998493 1.60487819 -0.08487271 -0.80760378 0.79124141
-0.51303267 -3.14304233 1.11146045 -0.16394679 -0.66798502 0.54797524
-0.65343547 -3.09835267 1.07101727 -0.20881449 -0.65848720 0.52803582
-0.64544421 -4.55553913 1.88743889 -0.20626077 -0.96818036 0.93055028
0.23163565 -3.16704440 0.86720526 0.07402243 -0.67308611 0.42755190
0.09188060 -3.23703027 0.85932124 0.02936174 -0.68796009 0.42366490
0.30398965 -3.10937881 1.02291703 0.09714416 -0.66083056 0.50432134
0.16338025 -3.15626359 1.01335120 0.05221045 -0.67079490 0.49960515
-0.13641129 -3.21885014 0.82861435 -0.04359214 -0.68409628 0.40852571
-0.28723830 -3.23545837 0.80567873 -0.09179103 -0.68762600 0.39721793
-0.06243384 -3.13496733 0.98043275 -0.01995161 -0.66626883 0.48337561
-0.53685701 -3.42907238 0.82920194 -0.17156020 -0.72877443 0.40881538
-0.58074152 -3.16615796 0.90841258 -0.18558411 -0.67289770 0.44786805
0.32953173 -3.42975950 0.74803245 0.10530649 -0.72892046 0.36879700
0.17459174 -3.52908373 0.74757433 0.05579324 -0.75002968 0.36857113
-0.06476293 -3.64775014 0.74600101 -0.02069590 -0.77524960 0.36779544
-0.25033545 -3.93231821 0.77298748 -0.07999821 -0.83572835 0.38110039
0.24701850 -3.07259512 1.18808365 0.07893823 -0.65301299 0.58575225
0.10704990 -3.13320470 1.18620563 0.03420930 -0.66589421 0.58482635
-0.04618449 -3.02435541 1.29408491 -0.01475890 -0.64276069 0.63801324
-0.24183427 -3.80341101 1.60566962 -0.07728153 -0.80833197 0.79163158
-0.48628500 -3.09968448 1.09451604 -0.15539920 -0.65877026 0.53962129
-0.63395518 -3.10239720 1.07101727 -0.20258929 -0.65934676 0.52803582
0.25103605 -3.15977597 0.86556566 0.08022209 -0.67154139 0.42674354
0.11188929 -3.22482657 0.85612750 0.03575579 -0.68536645 0.42209032
0.32226980 -3.09611082 1.01906693 0.10298584 -0.65801072 0.50242317
0.18438236 -3.17792320 1.02090943 0.05892197 -0.67539817 0.50333154
-0.11589671 -3.20998859 0.82602596 -0.03703642 -0.68221295 0.40724957
-0.26536316 -3.21984124 0.80117047 -0.08480053 -0.68430692 0.39499524
-0.04281670 -3.14671350 0.98413068 -0.01368268 -0.66876525 0.48519880
-0.51059389 -3.39972186 0.82099098 -0.16316745 -0.72253662 0.40476722
-0.56014395 -3.16596866 0.90728766 -0.17900187 -0.67285746 0.44731343
0.34750196 -3.39465857 0.74050331 0.11104913 -0.72146052 0.36508495
0.19637196 -3.52011561 0.74584579 0.06275342 -0.74812371 0.36771894
-0.04185384 -3.65004086 0.74641931 -0.01337498 -0.77573645 0.36800167
-0.22770205 -3.96705675 0.77981114 -0.07276539 -0.84311128 0.38446462
0.26856568 -3.09504199 1.19768023 0.08582394 -0.65778357 0.59048355
0.12540597 -3.09336138 1.17094994 0.04007524 -0.65742642 0.57730490
-0.02721839 -3.04106188 1.30133367 -0.00869802 -0.64631128 0.64158708
-0.20690979 -3.62887359 1.52969038 -0.06612093 -0.77123785 0.75417209
-0.46358508 -3.08032894 1.08638263 -0.14814512 -0.65465665 0.53561133
-0.61407161 -3.10446930 1.07035744 -0.19623521 -0.65978712 0.52771056
-0.58905929 -4.57061434 1.89052498 -0.18824217 -0.97138423 0.93207175
-0.82551742 -4.57367039 1.85917425 -0.26380569 -0.97203374 0.91661513
0.27176797 -3.16771507 0.86829829 0.08684728 -0.67322868 0.42809078
0.13241637 -3.23176670 0.85825664 0.04231551 -0.68684143 0.42314002
0.34325847 -3.10719490 1.02355874 0.10969307 -0.66036642 0.50463772
0.20379733 -3.16722679 1.01776016 0.06512630 -0.67312485 0.50177890
-0.09595232 -3.22030997 0.82861435 -0.03066291 -0.68440658 0.40852571
-0.24528624 -3.22337461 0.80167139 -0.07838466 -0.68505788 0.39524221
-0.02304133 -3.14311504 0.98289800 -0.00736318 -0.66800046 0.48459104
-0.48472100 -3.37017775 0.81278008 -0.15489940 -0.71625769 0.40071905
-0.54057515 -3.17131567 0.90785009 -0.17274839 -0.67399389 0.44759071
0.37215951 -3.42147255 0.74714667 0.11892880 -0.72715926 0.36836028
0.21870501 -3.52271175 0.74671006 0.06989026 -0.74867547 0.36814502
-0.01892004 -3.64827585 0.74600101 -0.00604616 -0.77536136 0.36779544
-0.20013203 -3.92145991 0.77017778 -0.06395500 -0.83342063 0.37971514
0.28837582 -3.09699273 1.19915664 0.09215455 -0.65819818 0.59121144
0.14573890 -3.11485505 1.17966747 0.04657291 -0.66199440 0.58160287
-0.00809570 -3.04483414 1.30294442 -0.00258710 -0.64711297 0.64238119
-0.18234895 -3.59892678 1.51623571 -0.05827217 -0.76487327 0.74753863
-0.44396561 -3.08131671 1.08570492 -0.14187545 -0.65486658 0.53527719
-0.62828326 -3.27865934 1.13105774 -0.20077674 -0.69680744 0.55763716
-0.56076235 -4.57789040 1.89206803 -0.17919949 -0.97293061 0.93283254
-0.79253304 -4.55506659 1.84935594 -0.25326505 -0.96807992 0.91177452
0.29185456 -3.16785955 0.86884481 0.09326623 -0.67325938 0.42836022
0.15303507 -3.23857594 0.86038584 0.04890451 -0.68828857 0.42418978
0.36416700 -3.11625671 1.02740884 0.11637468 -0.66229230 0.50653589
0.22600487 -3.20187593 1.02972758 0.07222303 -0.68048882 0.50767910
-0.07565034 -3.21698618 0.82757902 -0.02417513 -0.68370014 0.40801525
-0.22414687 -3.21326804 0.79866582 -0.07162928 -0.68290997 0.39376038
-0.00330255 -3.14129519 0.98228168 -0.00105538 -0.66761369 0.48428717
-0.45797604 -3.33082271 0.80215418 -0.14635268 -0.70789361 0.39548025
-0.36955580 -3.16004038 0.93098080 -0.11809675 -0.67159754 0.45899469
-0.51612252 -3.14816189 0.89997548 -0.16493420 -0.66907305 0.44370836
0.39107001 -3.39776850 0.74227488 0.12497191 -0.72212148 0.36595839
0.23961423 -3.50177860 0.74238873 0.07657209 -0.74422657 0.36601451
0.00395078 -3.64049983 0.74432778 0.00126253 -0.77370870 0.36697051
-0.17470735 -3.90698504 0.76696664 -0.05583019 -0.83034432 0.37813199
0.30122849 -3.07896090 1.19251287 0.09626180 -0.65436590 0.58793592
0.15991330 -3.10296464 1.17530870 0.05110254 -0.65946734 0.57945389
0.00615685 -3.03385496 1.29811203 0.00196751 -0.64477962 0.63999873
-0.16633397 -3.61808920 1.52415025 -0.05315436 -0.76894581 0.75144070
-0.77010846 -4.55327702 1.84709013 -0.24609898 -0.96769959 0.91065741
0.30658171 -3.16453552 0.86829829 0.09797249 -0.67255288 0.42809078
0.16803077 -3.23204112 0.85878897 0.05369659 -0.68689972 0.42340246
0.37451142 -3.08068609 1.01585841 0.11968038 -0.65473253 0.50084126
0.23913209 -3.17236948 1.02027965 0.07641802 -0.67421782 0.50302106
-0.06051397 -3.21923876 0.82809669 -0.01933809 -0.68417889 0.40827048
-0.20914011 -3.21622014 0.79916674 -0.06683366 -0.68353736 0.39400735
0.01167400 -3.15839887 0.98782861 0.00373059 -0.67124867 0.48702195
-0.44154391 -3.32716751 0.80070519 -0.14110155 -0.70711678 0.39476585
-0.35727561 -3.18648744 0.93853474 -0.11417244 -0.67721832 0.46271893
-0.50473171 -3.17138720 0.90616268 -0.16129410 -0.67400908 0.44675878
0.41048825 -3.42297888 0.74847531 0.13117729 -0.72747940 0.36901534
0.25663805 -3.50840402 0.74411726 0.08201230 -0.74563468 0.36686671
0.02086121 -3.61892891 0.73972654 0.00666649 -0.76912427 0.36470199
-0.15523247 -3.88427711 0.76214993 -0.04960672 -0.82551825 0.37575722
0.32097763 -3.08070254 1.19398928 0.10257291 -0.65473604 0.58866382
0.17912027 -3.09631562 1.17312932 0.05724040 -0.65805423 0.57837939
0.02516390 -3.03009534 1.29650116 0.00804148 -0.64398056 0.63920450
-0.14351459 -3.61722803 1.52335882 -0.04586210 -0.76876283 0.75105053
-0.50097978 -4.49571133 1.85503507 -0.16009513 -0.95546526 0.91457444
0.32750779 -3.17210865 0.87103093 0.10465971 -0.67416239 0.42943802
0.18863511 -3.23669744 0.86038584 0.06028100 -0.68788934 0.42418978
0.40169466 -3.13646936 1.03575075 0.12836717 -0.66658807 0.51064867
0.26019964 -3.18594718 1.02531850 0.08315045 -0.67710346 0.50550532
-0.04026190 -3.21569180 0.82706130 -0.01286626 -0.68342507 0.40775999
-0.18792245 -3.20201325 0.79515940 -0.06005326 -0.68051797 0.39203164
0.03117482 -3.13733673 0.98104906 0.00996235 -0.66677243 0.48367947
-0.11180511 -3.18629956 0.96657848 -0.03572889 -0.67717838 0.47654516
-0.41761988 -3.30482602 0.79442632 -0.13345630 -0.70236862 0.39167023
-0.33686897 -3.18486071 0.93737262 -0.10765121 -0.67687261 0.46214601
-0.48298496 -3.16312361 0.90278786 -0.15434463 -0.67225283 0.44509491
0.43224302 -3.42226553 0.74891824 0.13812932 -0.72732776 0.36923370
0.27838993 -3.50282717 0.74325299 0.08896341 -0.74444944 0.36644062
0.04394457 -3.63828087 0.74390954 0.01404310 -0.77323711 0.36676431
-0.13295703 -3.93999505 0.77338892 -0.04248828 -0.83735991 0.38129830
0.33902961 -3.06754804 1.18956006 0.10834167 -0.65194035 0.58648014
0.19932108 -3.10815144 1.17821455 0.06369585 -0.66056973 0.58088654
-0.43848807 -4.32875252 0.81559902 -0.14012502 -0.91998178 0.40210885
0.04420193 -3.02987742 1.29650116 0.01412535 -0.64393425 0.63920450
-0.12529470 -3.73368478 1.57322013 -0.04003968 -0.79351318 0.77563328
-0.41716537 -3.94615126 1.62280786 -0.13331105 -0.83866829 0.80008113
0.34765396 -3.17189932 0.87157744 0.11109771 -0.67411792 0.42970747
0.20919240 -3.23929763 0.86145043 0.06685037 -0.68844193 0.42471462
0.41716149 -3.10387230 1.02548373 0.13330981 -0.65966028 0.50558680
0.27974916 -3.17857361 1.02342892 0.08939777 -0.67553639 0.50457370
-0.02005594 -3.22167683 0.82861435 -0.00640916 -0.68469703 0.40852571
-0.16882201 -3.22052717 0.79966766 -0.05394944 -0.68445271 0.39425433
0.05118888 -3.15039420 0.98536330 0.01635813 -0.66954750 0.48580649
-0.09131327 -3.17359114 0.96238196 -0.02918044 -0.67447746 0.47447616
-0.39465249 -3.28810120 0.78959632 -0.12611675 -0.69881409 0.38928893
-0.31756034 -3.19453645 0.93969691 -0.10148087 -0.67892897 0.46329191
-0.46194172 -3.15850663 0.90053797 -0.14761996 -0.67127162 0.44398567
0.45212942 -3.40789104 0.74626088 0.14448431 -0.72427279 0.36792356
0.29961482 -3.49127626 0.74109232 0.09574612 -0.74199450 0.36537534
0.06656936 -3.62815690 0.74181801 0.02127317 -0.77108550 0.36573315
-0.10698514 -3.90354562 0.76576245 -0.03418861 -0.82961339 0.37753829
0.35966450 -3.07642579 1.19398928 0.11493585 -0.65382713 0.58866382
0.21896490 -3.10869718 1.17894101 0.06997331 -0.66068566 0.58124471
-0.40687090 -4.28254795 0.80601472 -0.13002132 -0.91016203 0.39738357
0.06394505 -3.05515957 1.30777693 0.02043454 -0.64930743 0.64476371
-0.10705837 -3.89410901 1.64207637 -0.03421200 -0.82760781 0.80958098
-0.39893830 -4.01850319 1.65212560 -0.12748633 -0.85404509 0.81453544
0.36640760 -3.16010427 0.86884481 0.11709069 -0.67161113 0.42836022
0.22829849 -3.21868062 0.85612750 0.07295599 -0.68406028 0.42209032
0.65961957 -4.61351299 1.54332745 0.21079069 -0.98050141 0.76089549
0.29821882 -3.15973473 1.01776016 0.09530001 -0.67153263 0.50177890
0.00003902 -3.19855762 0.82240218 0.00001247 -0.67978358 0.40546295
-0.14787379 -3.20798922 0.79616123 -0.04725515 -0.68178803 0.39252558
0.07081682 -3.14430475 0.98351431 0.02263051 -0.66825330 0.48489490
-0.07126112 -3.17028761 0.96118295 -0.02277249 -0.67377537 0.47388503
-0.37253383 -3.27700806 0.78621536 -0.11904842 -0.69645649 0.38762203
-0.29566446 -3.17549634 0.93330508 -0.09448373 -0.67488241 0.46014062
-0.44208723 -3.16134691 0.90053797 -0.14127518 -0.67187524 0.44398567
0.47549328 -3.41849399 0.74936110 0.15195055 -0.72652626 0.36945206
0.32154509 -3.48932481 0.74109232 0.10275425 -0.74157977 0.36537534
0.08942340 -3.62962198 0.74223632 0.02857650 -0.77139688 0.36593938
-0.08178604 -3.87867856 0.76054436 -0.02613588 -0.82432842 0.37496564
0.37970567 -3.07963514 1.19620383 0.12134028 -0.65450919 0.58975565
0.23862346 -3.10911894 1.17966747 0.07625548 -0.66077530 0.58160287
-0.37585184 -4.23611879 0.79643035 -0.12010874 -0.90029454 0.39265826
0.02260252 -3.85139775 1.42971551 0.00722295 -0.81853050 0.70488220
0.08128024 -2.99980903 1.28361464 0.02597424 -0.63754392 0.63285118
-0.08181258 -3.86532736 1.62941313 -0.02614436 -0.82149088 0.80333769
-0.37352011 -4.01909208 1.65135407 -0.11936360 -0.85417026 0.81415510
0.38699314 -3.16346407 0.87048441 0.12366910 -0.67232519 0.42916858
0.24906285 -3.22487473 0.85825664 0.07959154 -0.68537670 0.42314002
0.69406700 -4.64484978 1.55551958 0.22179887 -0.98716140 0.76690650
0.31949103 -3.17291760 1.02279902 0.10209785 -0.67433435 0.50426316
0.02018491 -3.20235753 0.82343757 0.00645037 -0.68059117 0.40597343
-0.12700059 -3.19338131 0.79215389 -0.04058482 -0.67868346 0.39054987
0.08969937 -3.11907840 0.97550213 0.02866470 -0.66289198 0.48094472
-0.05134033 -3.17067289 0.96118295 -0.01640652 -0.67385727 0.47388503
-0.35017979 -3.26190519 0.78186846 -0.11190487 -0.69324672 0.38547891
-0.55788720 -3.60681438 0.83407897 -0.17828070 -0.76654965 0.41121987
-0.27662620 -3.18873668 0.93679154 -0.08839979 -0.67769635 0.46185952
-0.42194933 -3.16216135 0.89997548 -0.13483983 -0.67204833 0.44370836
0.49754718 -3.41929555 0.75024688 0.15899819 -0.72669661 0.36988875
0.34544402 -3.50862432 0.74584579 0.11039149 -0.74568146 0.36771894
0.11208426 -3.62507939 0.74139977 0.03581810 -0.77043146 0.36552691
-0.05788532 -3.90262270 0.76536107 -0.01849807 -0.82941723 0.37734041
0.40331703 -3.10849810 1.20875311 0.12888563 -0.66064340 0.59594274
0.25858024 -3.11313224 1.18184686 0.08263294 -0.66162825 0.58267736
-0.34603980 -4.19729948 0.78837955 -0.11058188 -0.89204431 0.38868904
0.04592120 -3.80071783 1.41051030 0.01467477 -0.80775958 0.69541365
0.10181690 -3.04131055 1.30213904 0.03253702 -0.64636415 0.64198411
-0.05715466 -3.84740138 1.62149858 -0.01826457 -0.81768113 0.79943562
-0.34766042 -4.01400328 1.64826798 -0.11109977 -0.85308874 0.81263357
0.40531534 -3.14953089 0.86720526 0.12952422 -0.66936398 0.42755190
0.26887497 -3.21747994 0.85665977 0.08592278 -0.68380511 0.42235273
0.72353739 -4.64226770 1.55616117 0.23121653 -0.98661262 0.76722282
0.33733064 -3.15007186 1.01587057 0.10779875 -0.66947895 0.50084728
0.04015906 -3.19444156 0.82136679 0.01283339 -0.67890877 0.40495250
-0.10755040 -3.20959401 0.79616123 -0.03436924 -0.68212909 0.39252558
0.11079691 -3.15457273 0.98721224 0.03540671 -0.67043555 0.48671806
-0.03141753 -3.17093277 0.96118295 -0.01003991 -0.67391253 0.47388503
-0.33114234 -3.27949834 0.78573239 -0.10582118 -0.69698572 0.38738391
-0.53106940 -3.58332634 0.82759660 -0.16971068 -0.76155776 0.40802392
-0.25644416 -3.18850350 0.93621045 -0.08195033 -0.67764676 0.46157303
-0.40080255 -3.15523815 0.89716315 -0.12808208 -0.67057693 0.44232181
0.52206433 -3.43536639 0.75467581 0.16683298 -0.73011208 0.37207231
0.36767471 -3.50832796 0.74627793 0.11749562 -0.74561846 0.36793196
0.13485895 -3.62430382 0.74139977 0.04309607 -0.77026659 0.36552691
-0.03298603 -3.87548184 0.75974160 -0.01054115 -0.82364905 0.37456986
0.41510317 -3.08631706 1.20063305 0.13265204 -0.65592927 0.59193939
0.27324760 -3.11187911 1.18184686 0.08732011 -0.66136193 0.58267736
-0.32297671 -4.15385580 0.77956194 -0.10321175 -0.88281131 0.38434175
0.06321023 -3.77242756 1.39984071 0.02019972 -0.80174708 0.69015330
0.11672224 -3.05359864 1.30777693 0.03730023 -0.64897567 0.64476371
-0.03755021 -3.75212908 1.58034325 -0.01199970 -0.79743308 0.77914512
-0.32704586 -3.99351978 1.63900971 -0.10451210 -0.84873539 0.80806905
0.41961908 -3.14377546 0.86611223 0.13409518 -0.66814083 0.42701301
0.28371894 -3.21233416 0.85559517 0.09066638 -0.68271148 0.42182785
0.74447960 -4.63319969 1.55423617 0.23790891 -0.98468542 0.76627374
0.35376239 -3.16354942 1.02090943 0.11304974 -0.67234331 0.50333154
0.05571452 -3.21546125 0.82706130 0.01780436 -0.68337607 0.40775999
-0.09242441 -3.21006513 0.79616123 -0.02953552 -0.68222922 0.39252558
0.12513323 -3.14261174 0.98351431 0.03998808 -0.66789347 0.48489490
-0.01662961 -3.18440104 0.96537948 -0.00531423 -0.67677492 0.47595403
-0.31585839 -3.28295541 0.78621536 -0.10093699 -0.69772047 0.38762203
-0.50671607 -3.53575516 0.81555784 -0.16192824 -0.75144756 0.40208855
-0.24260655 -3.20685887 0.94144017 -0.07752833 -0.68154782 0.46415138
-0.38788992 -3.17232037 0.90166295 -0.12395567 -0.67420739 0.44454032
0.53668034 -3.42324328 0.75246131 0.17150374 -0.72753561 0.37098053
0.38299423 -3.49490237 0.74368513 0.12239119 -0.74276519 0.36665365
0.15119341 -3.60799956 0.73805338 0.04831598 -0.76680148 0.36387709
-0.01465206 -3.86775732 0.75813603 -0.00468227 -0.82200736 0.37377828
0.29230687 -3.10453200 1.17966747 0.09341077 -0.65980047 0.58160287
-0.29556799 -4.13621712 0.77572823 -0.09445290 -0.87906259 0.38245162
0.08537087 -3.71777010 1.37921286 0.02728146 -0.79013085 0.67998326
0.13497026 -3.03452229 1.29972279 0.04313164 -0.64492142 0.64079285
-0.01383993 -3.73759770 1.57401156 -0.00442275 -0.79434478 0.77602345
-0.30259609 -4.00469875 1.64286733 -0.09669884 -0.85111123 0.80997092
0.44019976 -3.14678764 0.86775178 0.14067201 -0.66878098 0.42782134
0.30525345 -3.22585130 0.85985357 0.09754802 -0.68558425 0.42392734
0.37510771 -3.17446971 1.02531850 0.11987094 -0.67466420 0.50550532
0.07551191 -3.20153093 0.82343757 0.02413089 -0.68041545 0.40597343
-0.07219745 -3.20864701 0.79566032 -0.02307171 -0.68192786 0.39227861
0.14507611 -3.14556360 0.98474699 0.04636111 -0.66852087 0.48550263
0.00338893 -3.18253469 0.96477997 0.00108298 -0.67637825 0.47565845
-0.29263601 -3.25393033 0.77848744 -0.09351595 -0.69155180 0.38381201
-0.47789326 -3.49264169 0.80444521 -0.15271750 -0.74228472 0.39660975
-0.22221202 -3.20449996 0.94027799 -0.07101097 -0.68104649 0.46357840
-0.36585227 -3.15754938 0.89660066 -0.11691323 -0.67106813 0.44204450
0.56208414 -3.44287944 0.75777602 0.17962188 -0.73170882 0.37360078
0.40644148 -3.50601411 0.74671006 0.12988408 -0.74512672 0.36814502
0.17386000 -3.60697818 0.73805338 0.05555940 -0.76658446 0.36387709
0.00965532 -3.86581373 0.75773466 0.00308549 -0.82159430 0.37358040
0.66150552 -4.42930794 1.74246764 0.21139339 -0.94135267 0.85907614
0.31180733 -3.10263395 1.17966747 0.09964241 -0.65939707 0.58160287
-0.26957372 -4.13799238 0.77572823 -0.08614607 -0.87943989 0.38245162
0.10879334 -3.71902847 1.37992418 0.03476644 -0.79039830 0.68033397
0.15487452 -3.04823542 1.30616605 0.04949233 -0.64783585 0.64396954
0.01147306 -3.09842849 1.29858685 0.00366638 -0.65850329 0.64023280
-0.27742800 -4.00652122 1.64286733 -0.08865602 -0.85149860 0.80997092
0.45938143 -3.14015603 0.86665875 0.14680178 -0.66737157 0.42728245
0.32460776 -3.21427321 0.85719210 0.10373297 -0.68312359 0.42261517
0.79301125 -4.56939602 1.53562713 0.25341788 -0.97112530 0.75709903
0.09604579 -3.21257663 0.82654363 0.03069278 -0.68276298 0.40750480
-0.05186100 -3.20129442 0.79365665 -0.01657291 -0.68036520 0.39129075
0.16595598 -3.16358376 0.99091017 0.05303356 -0.67235065 0.48854122
0.02338336 -3.18054247 0.96418047 0.00747248 -0.67595482 0.47536287
-0.27278391 -3.26344490 0.78041947 -0.08717193 -0.69357395 0.38476452
-0.45331132 -3.47629690 0.79981488 -0.14486200 -0.73881096 0.39432690
-0.20055717 -3.17908359 0.93214291 -0.06409086 -0.67564476 0.45956764
-0.34512123 -3.15215969 0.89435077 -0.11028834 -0.66992271 0.44093525
0.57897949 -3.41238713 0.75157553 0.18502103 -0.72522837 0.37054381
0.42778462 -3.49757218 0.74541366 0.13670458 -0.74333256 0.36750588
0.19698945 -3.61362362 0.73972654 0.06295075 -0.76799679 0.36470199
0.03411700 -3.91465902 0.76776940 0.01090257 -0.83197528 0.37852776
0.68196142 -4.37918139 1.72401273 0.21793035 -0.93069935 0.84997743
0.33129546 -3.10061359 1.17966747 0.10587012 -0.65896767 0.58160287
-0.24272333 -4.12392426 0.77266121 -0.07756565 -0.87645000 0.38093954
0.17320809 -3.03441358 1.30052817 0.05535108 -0.64489836 0.64118993
0.03077101 -3.04870367 1.27721775 0.00983331 -0.64793539 0.62969738
-0.25256869 -4.01371145 1.64518189 -0.08071187 -0.85302669 0.81111205
0.48152339 -3.15240717 0.87103093 0.15387757 -0.66997528 0.42943802
0.34537813 -3.21792459 0.85878897 0.11037043 -0.68389958 0.42340246
0.82033056 -4.55687189 1.53306043 0.26214814 -0.96846360 0.75583363
0.41871968 -3.19964457 1.03539622 0.13380775 -0.68001455 0.51047385
0.11598274 -3.20611954 0.82499057 0.03706392 -0.68139070 0.40673909
-0.03187177 -3.20930099 0.79566032 -0.01018507 -0.68206686 0.39227861
0.18483955 -3.14728951 0.98597962 0.05906807 -0.66888767 0.48611036
0.04342197 -3.18796468 0.96657848 0.01387610 -0.67753226 0.47654516
-0.25213635 -3.26315856 0.77993643 -0.08057372 -0.69351310 0.38452637
-0.42719913 -3.44627595 0.79194343 -0.13651748 -0.73243070 0.39044610
-0.18173403 -3.20321655 0.93911582 -0.05807566 -0.68077374 0.46300542
-0.32530895 -3.15426588 0.89435077 -0.10395704 -0.67037034 0.44093525
0.60565275 -3.43746328 0.75821888 0.19354485 -0.73055774 0.37381914
0.44998997 -3.49675345 0.74584579 0.14380062 -0.74315858 0.36771894
0.22020926 -3.62012053 0.74139977 0.07037096 -0.76937753 0.36552691
0.05819412 -3.86146855 0.75693184 0.01859675 -0.82067078 0.37318459
0.71435845 -4.40414524 1.73582387 0.22828327 -0.93600488 0.85580063
0.35136312 -3.10402966 1.18184686 0.11228302 -0.65969372 0.58267736
-0.21587366 -4.10576105 0.76882750 -0.06898546 -0.87258983 0.37904942
0.19265442 -3.03874397 1.30294442 0.06156543 -0.64581865 0.64238119
0.05015758 -3.07232666 1.28750658 0.01602856 -0.65295595 0.63476998
-0.22819990 -4.03180408 1.65212560 -0.07292448 -0.85687190 0.81453544
0.50289369 -3.15880942 0.87376356 0.16070674 -0.67133594 0.43078530
0.36600149 -3.21952462 0.85985357 0.11696091 -0.68423963 0.42392734
0.84325796 -4.52185774 1.52279329 0.26947492 -0.96102208 0.75077170
0.63189393 -4.67258453 1.52920675 0.20193058 -0.99305576 0.75393367
0.13687858 -3.22076368 0.82913202 0.04374147 -0.68450296 0.40878093
-0.01178397 -3.21718264 0.79766399 -0.00376573 -0.68374193 0.39326647
0.20393212 -3.13657689 0.98289800 0.06516937 -0.66661090 0.48459104
0.06345155 -3.18762898 0.96657848 0.02027684 -0.67746091 0.47654516
-0.23075123 -3.25112104 0.77655548 -0.07373980 -0.69095474 0.38285950
-0.40339050 -3.43151331 0.78777617 -0.12890910 -0.72929323 0.38839155
-0.16109851 -3.19282413 0.93562937 -0.05148129 -0.67856503 0.46128654
-0.30587810 -3.16006589 0.89547575 -0.09774765 -0.67160296 0.44148988
0.62109065 -3.40100908 0.75068980 0.19847824 -0.72281021 0.37010711
0.46894887 -3.47061729 0.74066019 0.14985920 -0.73760390 0.36516231
0.24138917 -3.59720874 0.73679847 0.07713930 -0.76450813 0.36325839
0.08182480 -3.82184577 0.74890405 0.02614827 -0.81224984 0.36922672
0.74265122 -4.40323257 1.73730028 0.23732463 -0.93581092 0.85652852
0.37316012 -3.12212849 1.18983793 0.11924856 -0.66354024 0.58661711
-0.18999127 -4.10507488 0.76844412 -0.06071438 -0.87244403 0.37886041
0.14634918 -3.10968661 1.14874995 0.04676794 -0.66089594 0.56635982
0.21146448 -3.03382277 1.30133367 0.06757645 -0.64477277 0.64158708
0.06907871 -3.04807639 1.27721775 0.02207507 -0.64780205 0.62969738
-0.20227911 -4.02025509 1.64672494 -0.06464113 -0.85441738 0.81187278
0.52142513 -3.14800334 0.87157744 0.16662872 -0.66903937 0.42970747
0.38622299 -3.21716166 0.85985357 0.12342298 -0.68373746 0.42392734
0.87752765 -4.54620361 1.53306043 0.28042629 -0.96619630 0.75583363
0.66356283 -4.68544769 1.53487551 0.21205083 -0.99578959 0.75672847
0.15689975 -3.21598244 0.82809669 0.05013952 -0.68348682 0.40827048
0.00843745 -3.21525693 0.79716307 0.00269631 -0.68333262 0.39301950
0.22452156 -3.14661527 0.98659593 0.07174902 -0.66874433 0.48641419
0.08359200 -3.19289041 0.96837693 0.02671300 -0.67857909 0.47743183
-0.21043256 -3.25444436 0.77703846 -0.06724668 -0.69166106 0.38309762
-0.38544410 -3.46489906 0.79518461 -0.12317408 -0.73638862 0.39204407
-0.14139566 -3.20333505 0.93853474 -0.04518497 -0.68079889 0.46271893
-0.28472090 -3.14855313 0.89153844 -0.09098656 -0.66915619 0.43954870
0.64805281 -3.42575288 0.75733310 0.20709439 -0.72806895 0.37338242
0.49363241 -3.48888779 0.74541366 0.15774716 -0.74148691 0.36750588
0.26213571 -3.57222486 0.73177892 0.08376915 -0.75919837 0.36078364
0.10552962 -3.80754447 0.74609429 0.03372347 -0.80921042 0.36784142
0.77227658 -4.40945625 1.74172938 0.24679182 -0.93713361 0.85871214
0.39100313 -3.10492015 1.18402624 0.12495054 -0.65988296 0.58375186
-0.16350754 -4.08657074 0.76461041 -0.05225113 -0.86851138 0.37697029
0.15850638 -2.98555684 1.10180378 0.05065294 -0.63451493 0.54321432
0.23188096 -3.04885411 1.30858231 0.07410082 -0.64796734 0.64516079
0.08847427 -3.05859995 1.28196645 0.02827320 -0.65003860 0.63203859
-0.17723076 -4.02697802 1.64903951 -0.05663658 -0.85584623 0.81301391
0.54559314 -3.16928554 0.87868226 0.17435195 -0.67356241 0.43321031
0.40688887 -3.21849966 0.86091810 0.13002706 -0.68402183 0.42445219
0.90986323 -4.55916023 1.53947723 0.29075956 -0.96894991 0.75899726
0.69190943 -4.67366982 1.53235614 0.22110938 -0.99328643 0.75548637
0.17710313 -3.21493292 0.82809669 0.05659579 -0.68326378 0.40827048
0.02863921 -3.21514034 0.79716307 0.00915206 -0.68330789 0.39301950
0.24444734 -3.14703846 0.98721224 0.07811658 -0.66883427 0.48671806
0.10325354 -3.17704296 0.96358097 0.03299612 -0.67521107 0.47506732
-0.18876858 -3.23244405 0.77124256 -0.06032365 -0.68698537 0.38024011
-0.35830992 -3.41890669 0.78360891 -0.11450297 -0.72661394 0.38633698
-0.12090439 -3.19268346 0.93504834 -0.03863670 -0.67853516 0.46100008
-0.26458618 -3.14645696 0.89041346 -0.08455223 -0.66871071 0.43899408
0.66763598 -3.41205430 0.75511867 0.21335246 -0.72515762 0.37229067
0.51252377 -3.46445036 0.74066019 0.16378418 -0.73629326 0.36516231
0.28607342 -3.58804536 0.73554361 0.09141878 -0.76256067 0.36263970
0.12872118 -3.78134561 0.74087620 0.04113466 -0.80364239 0.36526880
0.80013663 -4.44415331 1.75723147 0.25569490 -0.94450772 0.86635506
0.40402374 -3.09009862 1.17894101 0.12911145 -0.65673298 0.58124471
-0.14341563 -4.05982780 0.75924313 -0.04583048 -0.86282772 0.37432411
0.18005008 -3.10042810 1.14590466 0.05753753 -0.65892828 0.56495702
0.24528834 -3.03678536 1.30374992 0.07838534 -0.64540243 0.64277834
0.10224231 -3.03428006 1.27167761 0.03267297 -0.64486998 0.62696594
-0.15471642 -3.92449784 1.60583436 -0.04944180 -0.83406627 0.79171282
0.56052190 -3.16667938 0.87868226 0.17912264 -0.67300856 0.43321031
0.42324522 -3.22611141 0.86357957 0.13525395 -0.68563950 0.42576435
0.94761634 -4.63269806 1.56642830 0.30282411 -0.98457879 0.77228475
0.71587712 -4.68350124 1.53676510 0.22876859 -0.99537587 0.75766009
0.19250618 -3.21791792 0.82913202 0.06151805 -0.68389815 0.40878093
0.04378983 -3.21496964 0.79716307 0.01399365 -0.68327159 0.39301950
0.25775814 -3.12879467 0.98166537 0.08237024 -0.66495699 0.48398334
0.11857638 -3.18796396 0.96717793 0.03789275 -0.67753214 0.47684070
-0.17426872 -3.24880672 0.77510649 -0.05569002 -0.69046289 0.38214511
-0.34157938 -3.41475296 0.78221983 -0.10915649 -0.72573113 0.38565215
-0.10575547 -3.18939185 0.93388617 -0.03379565 -0.67783558 0.46042711
-0.25074077 -3.15914226 0.89378834 -0.08012773 -0.67140669 0.44065794
0.68844402 -3.43179011 0.76043338 0.22000195 -0.72935206 0.37491092
0.52856016 -3.46006465 0.74022806 0.16890882 -0.73536116 0.36494926
0.30403224 -3.59834456 0.73805338 0.09715777 -0.76474953 0.36387709
0.14686567 -3.79048824 0.74288315 0.04693299 -0.80558550 0.36625826
0.83048761 -4.45181799 1.76239884 0.26539397 -0.94613665 0.86890268
0.42728937 -3.11706281 1.19056439 0.13654631 -0.66246361 0.58697528
-0.11814005 -4.07046032 0.76116002 -0.03775331 -0.86508745 0.37526917
0.19913004 -3.09364200 1.14377081 0.06363481 -0.65748602 0.56390500
0.06173272 -3.75015736 1.35705781 0.01972756 -0.79701406 0.66906035
0.26521915 -3.04429746 1.30777693 0.08475450 -0.64699894 0.64476371
0.12222149 -3.06111360 1.28354931 0.03905759 -0.65057284 0.63281900
-0.13062224 -3.94568181 1.61432111 -0.04174217 -0.83856851 0.79589701
0.58004838 -3.16120481 0.87813574 0.18536261 -0.67184502 0.43294087
0.44375783 -3.22530007 0.86411190 0.14180905 -0.68546706 0.42602679
0.98628712 -4.67109346 1.58182883 0.31518191 -0.99273890 0.77987754
0.74296570 -4.66390371 1.53172624 0.23742512 -0.99121088 0.75517583
0.21188322 -3.20508432 0.82602596 0.06771026 -0.68117064 0.40724957
0.06380506 -3.20107865 0.79365665 0.02038980 -0.68031937 0.39129075
0.27795294 -3.13279581 0.98351431 0.08882377 -0.66580731 0.48489490
0.13761404 -3.16046190 0.95878500 0.04397650 -0.67168713 0.47270277
-0.15297633 -3.22850680 0.76979357 -0.04888574 -0.68614858 0.37952572
-0.31895944 -3.40521526 0.77944165 -0.10192797 -0.72370416 0.38428244
-0.08524347 -3.16703343 0.92691326 -0.02724075 -0.67308378 0.45698929
-0.22921322 -3.13960981 0.88760114 -0.07324830 -0.66725552 0.43760753
0.70226538 -3.39115477 0.75201845 0.22441877 -0.72071588 0.37076217
0.55058563 -3.45860553 0.74066019 0.17594737 -0.73505104 0.36516231
0.32381713 -3.56716251 0.73177892 0.10348032 -0.75812250 0.36078364
0.17060128 -3.78753281 0.74248177 0.05451804 -0.80495739 0.36606038
0.85736102 -4.44104147 1.76018429 0.27398175 -0.94384634 0.86781085
0.62757134 -4.43433523 1.70998299 0.20054924 -0.94242108 0.84306043
-0.09231871 -4.05738401 0.75847644 -0.02950174 -0.86230838 0.37394610
0.21798784 -3.08487487 1.14092553 0.06966107 -0.65562278 0.56250221
0.08480720 -3.72157621 1.34661388 0.02710133 -0.79093975 0.66391122
0.28488907 -3.04803562 1.31019318 0.09104031 -0.64779341 0.64595503
0.14094412 -3.04743814 1.27800918 0.04504067 -0.64766639 0.63008755
-0.43714246 -4.57868624 1.57179439 -0.13969502 -0.97309977 0.77493036
-0.10570849 -3.94089031 1.61200655 -0.03378063 -0.83755016 0.79475588
0.59952819 -3.15561032 0.87758917 0.19158766 -0.67065603 0.43267140
0.46348840 -3.21862841 0.86304730 0.14811423 -0.68404919 0.42550191
1.01150823 -4.64631271 1.57541192 0.32324165 -0.98747230 0.77671385
0.77527833 -4.67788363 1.53802490 0.24775109 -0.99418199 0.75828123
0.23232052 -3.20754147 0.82706130 0.07424129 -0.68169290 0.40775999
0.08414735 -3.21222973 0.79666215 0.02689047 -0.68268925 0.39277253
0.29897735 -3.14423800 0.98782861 0.09554241 -0.66823912 0.48702195
0.15870982 -3.18812847 0.96777743 0.05071795 -0.67756706 0.47713625
