3.89784837 5.12888527 1.00861835 0.78373736 0.68538976 0.39007065
4.26771545 5.05829620 0.97678012 0.85810626 0.67595667 0.37775761
4.37460804 5.85787392 -0.07223057 0.87959903 0.78280687 -0.02793428
3.70969963 5.09236574 1.31321084 0.74590641 0.68050951 0.50786805
4.49563265 5.62121916 -0.12132806 0.90393335 0.75118190 -0.04692212
4.07811117 5.04527617 1.29479623 0.81998265 0.67421675 0.50074643
3.44667101 5.25565910 0.62819833 0.69301945 0.70233095 0.24294792
3.64100885 5.20078373 0.60022986 0.73209482 0.69499773 0.23213147
4.56898594 4.97066593 1.28446436 0.91868246 0.66424638 0.49675068
3.96981525 5.17271948 0.59462035 0.79820764 0.69124746 0.22996205
3.85894489 5.09068203 2.39495683 0.77591503 0.68028450 0.92621988
4.20581388 5.11938810 0.56113791 0.84565973 0.68412060 0.21701314
3.86088490 5.18379784 0.80460674 0.77630514 0.69272786 0.31117168
4.11214352 5.15229511 0.79008710 0.82682550 0.68851805 0.30555639
4.52287769 5.07296133 0.54571271 0.90941149 0.67791641 0.21104763
4.78697300 5.01996040 0.50646806 0.96251297 0.67083377 0.19587025
4.39197826 5.06855106 0.76843315 0.88309169 0.67732710 0.29718199
4.63597822 5.00502110 0.73586631 0.93215257 0.66883737 0.28458717
3.97513294 6.09089327 0.24951230 0.79927689 0.81394601 0.09649579
3.06118917 5.20248222 1.67988527 0.61551094 0.69522470 0.64967483
4.11997080 5.86583948 0.20370044 0.82839930 0.78387135 0.07877862
3.39881706 5.15939999 1.67106783 0.68339753 0.68946749 0.64626479
3.37493896 5.32706881 0.41373518 0.67859638 0.71187365 0.16000696
2.91578341 5.24565601 1.99764383 0.58627433 0.70099419 0.77256399
3.55527759 5.22545052 0.38275033 0.71485692 0.69829404 0.14802395
3.25011992 5.19214582 1.99719310 0.65349907 0.69384342 0.77238971
4.13983870 5.42271090 0.15553378 0.83239412 0.72465461 0.06015076
3.81764460 5.05167627 1.66208220 0.76761085 0.67507201 0.64278972
4.22353554 5.01837969 1.66225338 0.84922302 0.67062253 0.64285588
3.90867782 5.27640629 0.36634457 0.78591484 0.70510346 0.14167923
3.67478895 5.09808969 2.00044513 0.73888695 0.68127441 0.77364737
4.34256792 5.46707821 0.35495690 0.87315679 0.73058355 0.13727519
4.42838430 5.51756668 2.18775725 0.89041179 0.73733050 0.84608799
4.68313408 4.92400742 1.65657175 0.94163412 0.65801126 0.64065862
4.73020697 5.48643112 0.33477113 0.95109904 0.73316973 0.12946859
4.57266808 5.01020861 2.02456355 0.91942281 0.66953057 0.78297490
3.11701441 5.27834988 1.03417766 0.62673569 0.70536315 0.39995539
4.19695425 6.01569510 -0.29013801 0.84387833 0.80389702 -0.11220728
3.43751383 5.21617270 1.02189851 0.69117826 0.69705421 0.39520660
3.87529659 6.15263891 -0.00444993 0.77920288 0.82219726 -0.00172096
2.94043589 5.26194239 1.33441865 0.59123117 0.70317060 0.51606989
4.24867392 6.27548552 -0.04140470 0.85427755 0.83861369 -0.01601276
3.25489140 5.18128347 1.31972218 0.65445846 0.69239187 0.51038623
3.85846758 5.14377642 1.00670111 0.77581906 0.68737966 0.38932920
4.23076868 5.07895041 0.97557241 0.85067737 0.67871678 0.37729055
4.30225325 5.83684921 -0.07276908 0.86505073 0.77999729 -0.02814254
3.67763042 5.11557388 1.31321084 0.73945832 0.68361086 0.50786805
4.44405651 5.62899399 -0.12138773 0.89356297 0.75222087 -0.04694520
4.03651571 5.05857897 1.29158509 0.81161910 0.67599446 0.49950454
3.41143537 5.27387047 0.62771374 0.68593466 0.70476460 0.24276051
3.60485673 5.21866560 0.59953612 0.72482574 0.69738740 0.23186317
4.52583027 4.98615837 1.28101408 0.91000515 0.66631669 0.49541634
3.92289424 5.17850494 0.59193802 0.78877330 0.69202060 0.22892469
3.81238770 5.09532452 2.38571000 0.76655382 0.68090492 0.92264378
4.15847349 5.12722206 0.55861717 0.83614105 0.68516749 0.21603827
3.82356977 5.20156097 0.80345070 0.76880223 0.69510162 0.31072462
4.05754185 5.15009785 0.78506184 0.81584680 0.68822443 0.30361295
4.49091434 5.10127878 0.54571271 0.90298468 0.68170059 0.21104763
4.73753452 5.03114367 0.50406110 0.95257241 0.67232817 0.19493939
4.35490942 5.09000683 0.76736039 0.87563825 0.68019426 0.29676712
4.58429098 5.01215363 0.73205054 0.92175984 0.66979051 0.28311148
3.02748108 5.21994591 1.67933869 0.60873330 0.69755846 0.64946342
4.06475210 5.86539030 0.20217673 0.81729656 0.78381133 0.07818935
3.36844420 5.18387985 1.67213249 0.67729044 0.69273883 0.64667654
3.33930111 5.34478283 0.41338632 0.67143071 0.71424085 0.15987204
2.88095808 5.26054335 1.99636042 0.57927203 0.70298362 0.77206767
3.52237511 5.24768591 0.38275033 0.70824122 0.70126545 0.14802395
3.21242070 5.20440435 1.99404371 0.64591897 0.69548160 0.77117169
4.38355827 5.81967402 0.17547742 0.88139868 0.77770209 0.06786372
3.78582883 5.07556343 1.66208220 0.76121366 0.67826414 0.64278972
4.76187849 5.89550114 0.13947019 0.95746720 0.78783512 0.05393837
4.17825842 5.02847862 1.65674317 0.84011918 0.67197204 0.64072490
3.87544823 5.30086088 0.36634457 0.77923334 0.70837140 0.14167923
3.65585828 5.13972616 2.00784111 0.73508060 0.68683845 0.77650768
4.30689621 5.49268913 0.35481599 0.86598426 0.73400605 0.13722070
4.44714403 5.61242628 2.21473455 0.89418381 0.75000691 0.85652113
4.63753462 4.93772984 1.65125883 0.93246549 0.65984499 0.63860393
4.70079947 5.52213669 0.33529231 0.94518608 0.73794121 0.12967014
4.53088236 5.02743721 2.01991487 0.91102099 0.67183292 0.78117704
3.07393289 5.28076887 1.03074419 0.61807328 0.70568645 0.39862755
4.13858366 6.01235628 -0.28939086 0.83214182 0.80345088 -0.11191833
3.39063025 5.21621943 1.01756525 0.68175137 0.69706047 0.39353076
3.89748073 6.27556038 -0.00232185 0.78366345 0.83862370 -0.00089795
2.89235759 5.25292730 1.32733238 0.58156407 0.70196587 0.51332933
4.18908644 6.27217627 -0.04186284 0.84229636 0.83817142 -0.01618993
3.22123837 5.19997549 1.31929004 0.64769191 0.69488972 0.51021910
3.81203556 5.14883232 1.00286686 0.76648301 0.68805534 0.38784635
4.17356300 5.07497025 0.96953374 0.83917505 0.67818487 0.37495518
4.18697548 5.75518703 -0.07397175 0.84187192 0.76908451 -0.02860766
3.63077188 5.11779594 1.30777299 0.73003650 0.68390781 0.50576502
4.44314957 5.70087767 -0.12125922 0.89338064 0.76182693 -0.04689550
3.99369693 5.07002306 1.28797257 0.80300951 0.67752379 0.49810743
3.36950541 5.26308107 0.62383699 0.67750382 0.70332277 0.24126123
3.56557846 5.21432400 0.59652990 0.71692806 0.69680721 0.23070055
4.48004770 4.98254919 1.27449667 0.90079969 0.66583437 0.49289581
4.81168938 4.82547474 1.23411572 0.96748263 0.64484400 0.47727898
3.88894629 5.18418455 0.59014982 0.78194743 0.69277954 0.22823313
3.76617503 5.08312368 2.37148380 0.75726187 0.67927444 0.91714197
4.12426329 5.13438749 0.55693668 0.82926244 0.68612498 0.21538836
4.14022207 5.00498724 2.37637901 0.83247125 0.66883284 0.91903514
3.77698398 5.18905067 0.79795957 0.75943524 0.69342983 0.30860099
4.02833557 5.16293097 0.78394508 0.80997431 0.68993938 0.30318105
4.44597149 5.09832573 0.54250717 0.89394802 0.68130594 0.20980793
4.67698193 5.01420259 0.49906209 0.94039714 0.67006433 0.19300608
4.31172371 5.08773375 0.76333749 0.86695492 0.67989051 0.29521132
4.53656673 5.00731087 0.72747153 0.91216397 0.66914332 0.28134060
4.27650499 6.71638203 0.28622669 0.85987353 0.89753211 0.11069462
2.98571777 5.20405912 1.66950130 0.60033596 0.69543546 0.64565897
4.03933668 5.88776779 0.20236719 0.81218630 0.78680170 0.07826300
3.32825661 5.17542458 1.66414809 0.66920996 0.69160891 0.64358866
3.30573964 5.34687519 0.41199085 0.66468251 0.71452045 0.15933236
2.84717250 5.25737381 1.98994350 0.57247877 0.70256007 0.76958603
3.47211409 5.22612333 0.37897074 0.69813526 0.69838399 0.14656223
3.17393279 5.19685125 1.98522568 0.63818020 0.69447225 0.76776147
4.39060020 5.88681221 0.17797036 0.88281459 0.78667396 0.06882784
3.72987270 5.04973364 1.64758706 0.74996263 0.67481244 0.63718390
4.60000515 5.75123692 0.13164194 0.92491949 0.76855659 0.05091089
4.12610960 5.01381397 1.64522207 0.82963365 0.67001235 0.63626927
3.82713962 5.28668642 0.36327979 0.76951998 0.70647722 0.14049396
3.65122628 5.18496180 2.01893497 0.73414922 0.69288343 0.78079808
4.28956223 5.52392864 0.35580239 0.86249894 0.73818070 0.13760217
4.35799170 5.55394316 2.18296123 0.87625802 0.74219161 0.84423321
4.59971952 4.94385481 1.64594591 0.92486203 0.66066349 0.63654917
4.35930347 5.16800117 0.30324122 0.87652177 0.69061691 0.11727478
4.50587082 5.04730082 2.01933384 0.90599197 0.67448735 0.78095233
4.85415649 4.89044380 1.98442125 0.97602147 0.65352601 0.76745033
3.04999137 5.29690695 1.03108752 0.61325938 0.70784301 0.39876032
4.19726038 6.15878487 -0.29258698 0.84393990 0.82301861 -0.11315439
3.36064982 5.22386456 1.01589859 0.67572325 0.69808215 0.39288619
2.86942530 5.26993084 1.32821822 0.57695311 0.70423812 0.51367193
4.15062428 6.27852488 -0.04206646 0.83456278 0.83901983 -0.01626868
3.19362044 5.21011305 1.31799364 0.64213878 0.69624448 0.50971770
3.77959442 5.15556717 1.00063014 0.75996011 0.68895531 0.38698131
4.14584160 5.08999395 0.96862793 0.83360118 0.68019253 0.37460485
4.15165854 5.76347113 -0.07409740 0.83477074 0.77019149 -0.02865625
3.60325789 5.13003635 1.30651808 0.72450429 0.68554354 0.50527966
4.42359447 5.73123121 -0.12123168 0.88944870 0.76588321 -0.04688485
3.94919086 5.06258917 1.28114891 0.79406077 0.67653036 0.49546847
3.33215237 5.27741957 0.62286782 0.66999328 0.70523888 0.24088642
3.53051305 5.23333740 0.59606737 0.70987749 0.69934803 0.23052168
4.43566513 4.99588156 1.27066302 0.89187574 0.66761601 0.49141318
4.86014891 4.93523550 1.25497365 0.97722638 0.65951169 0.48534551
3.84569812 5.19410801 0.58813810 0.77325153 0.69410568 0.22745512
3.71768570 5.08400059 2.36081433 0.74751216 0.67939162 0.91301572
4.07703447 5.14154434 0.55441594 0.81976616 0.68708140 0.21441349
4.12178898 5.04683495 2.38403773 0.82876492 0.67442507 0.92199707
3.74430609 5.21267939 0.79795957 0.75286472 0.69658738 0.30860099
3.97519064 5.16153049 0.77919900 0.79928851 0.68975222 0.30134556
4.40479326 5.11557674 0.54110479 0.88566834 0.68361127 0.20926557
4.62778950 5.02449989 0.49665517 0.93050605 0.67144036 0.19207524
4.27080107 5.10405731 0.76146013 0.85872668 0.68207186 0.29448527
4.49041748 5.01949644 0.72467333 0.90288478 0.67077172 0.28025845
4.05757904 6.46020985 0.26845479 0.81585425 0.86329901 0.10382157
2.95766711 5.23110580 1.67223394 0.59469581 0.69904977 0.64671576
4.01125908 5.92624092 0.20312904 0.80654073 0.79194295 0.07855764
3.29048324 5.18811131 1.66148663 0.66161489 0.69330430 0.64255935
3.27104759 5.36583567 0.41181642 0.65770698 0.71705419 0.15926489
2.81496930 5.27683353 1.99058521 0.56600368 0.70516056 0.76983416
3.48202944 5.31271553 0.38537964 0.70012897 0.70995557 0.14904080
3.14023280 5.21506834 1.98459589 0.63140416 0.69690663 0.76751786
4.28390169 5.81914711 0.17289850 0.86136079 0.77763170 0.06686635
3.70260262 5.07932854 1.64965785 0.74447942 0.67876732 0.63798475
4.41463232 5.59220076 0.12286258 0.88764668 0.74730408 0.04751558
4.09207439 5.03664207 1.64422023 0.82279021 0.67306298 0.63588178
3.78576827 5.29924488 0.36220711 0.76120150 0.70815545 0.14007911
3.66828704 5.27983570 2.04728556 0.73757964 0.70556176 0.79176235
4.32543087 5.64240265 0.36397538 0.86971104 0.75401276 0.14076297
4.00050640 5.16731644 2.01809907 0.80437869 0.69052541 0.78047484
4.54631710 4.94829464 1.63773501 0.91412443 0.66125679 0.63337374
4.30638504 5.17069054 0.30115661 0.86588150 0.69097632 0.11646859
4.33660316 4.91861916 1.95599663 0.87195742 0.65729117 0.75645745
4.76269484 4.85934639 1.95911002 0.95763135 0.64937037 0.75766152
3.00504923 5.29536343 1.02696741 0.60422289 0.70763677 0.39716694
3.31820369 5.22992182 1.01289868 0.66718864 0.69889158 0.39172602
2.82343245 5.26375008 1.32201779 0.56770539 0.70341218 0.51127398
4.10451221 6.29444695 -0.04221917 0.82529110 0.84114754 -0.01632774
3.15879035 5.22674036 1.31712937 0.63513553 0.69846642 0.50938350
3.73214817 5.15837097 0.99647623 0.75042015 0.68932998 0.38537484
4.09387970 5.09135199 0.96379703 0.82315320 0.68037403 0.37273657
4.09805346 5.76494217 -0.07436666 0.82399243 0.77038807 -0.02876038
3.55543041 5.13002014 1.30066192 0.71488762 0.68554139 0.50301486
4.41669321 5.79701185 -0.12112153 0.88806105 0.77467370 -0.04684225
3.90050006 5.06562185 1.27552950 0.78427052 0.67693561 0.49329522
3.28848958 5.28136492 0.62044483 0.66121405 0.70576608 0.23994936
3.48207808 5.23231316 0.59282994 0.70013875 0.69921112 0.22926964
4.37968731 4.99553394 1.26337886 0.88062030 0.66756958 0.48859611
4.79879522 4.93475246 1.24692321 0.96489000 0.65944713 0.48223209
3.80014420 5.20047617 0.58567935 0.76409203 0.69495666 0.22650424
3.70635891 5.13612556 2.37432909 0.74523473 0.68635726 0.91824239
4.03111029 5.14987326 0.55210525 0.81053221 0.68819439 0.21351987
4.07463980 5.05370665 2.37498641 0.81928468 0.67534333 0.91849655
3.69211173 5.20859385 0.79304647 0.74237001 0.69604146 0.30670092
3.94268155 5.18640518 0.77919900 0.79275191 0.69307631 0.30134556
4.35458326 5.12187243 0.53829992 0.87557268 0.68445259 0.20818083
4.58537436 5.04172421 0.49517399 0.92197764 0.67374212 0.19150241
4.22607088 5.11547232 0.75877821 0.84973282 0.68359733 0.29344806
4.44693041 5.03426647 0.72238380 0.89414084 0.67274553 0.27937299
4.11533308 6.64544106 0.27845812 0.82746685 0.88805205 0.10769023
2.91078115 5.22432899 1.66403604 0.58526850 0.69814420 0.64354533
3.98954201 5.97454262 0.20446229 0.80217409 0.79839766 0.07907326
3.25165439 5.19889688 1.65829277 0.65380764 0.69474560 0.64132416
3.22297716 5.36232805 0.40937433 0.64804149 0.71658546 0.15832046
2.77388048 5.27929735 1.98480999 0.55774200 0.70548981 0.76760066
3.43444276 5.31277275 0.38324332 0.69056076 0.70996320 0.14821461
3.09181333 5.20863104 1.97451806 0.62166852 0.69604641 0.76362038
4.25310421 5.85404778 0.17332831 0.85516834 0.78229558 0.06703258
3.64029264 5.06005192 1.63568044 0.73195082 0.67619133 0.63257915
4.40776825 5.65600681 0.12454529 0.88626653 0.75583071 0.04816635
4.05183411 5.05170774 1.64071381 0.81469911 0.67507625 0.63452572
3.74553442 5.31312609 0.36128771 0.75311172 0.71001041 0.13972355
3.94450521 5.75730181 2.22540259 0.79311860 0.76936710 0.86064690
4.18597603 5.53294659 0.35185680 0.84167093 0.73938578 0.13607626
3.92026663 5.13034105 1.99351966 0.78824496 0.68558425 0.77096903
4.50603867 4.96667242 1.63435400 0.90602571 0.66371268 0.63206619
4.63373280 5.63807535 0.33828893 0.93170106 0.75343448 0.13082905
4.32314253 4.96603155 1.96413171 0.86925089 0.66362703 0.75960362
4.73742437 4.89467525 1.96135998 0.95255023 0.65409148 0.75853169
2.97267437 5.31586313 1.02731073 0.59771335 0.71037620 0.39729971
3.28002048 5.24232578 1.01123202 0.65951115 0.70054919 0.39108145
2.79392457 5.28829670 1.32378936 0.56177223 0.70669240 0.51195914
3.11081123 5.22137117 1.31064737 0.62548840 0.69774890 0.50687665
3.69623756 5.17688751 0.99551767 0.74319959 0.69180441 0.38500413
4.05810690 5.11233997 0.96289122 0.81596041 0.68317872 0.37238625
4.06060696 5.78893661 -0.07438461 0.81646311 0.77359456 -0.02876732
3.52971959 5.16196585 1.30317175 0.70971799 0.68981040 0.50398552
4.41275835 5.86771536 -0.12099761 0.88726991 0.78412199 -0.04679433
3.86740446 5.08847332 1.27512813 0.77761602 0.67998934 0.49314001
3.25214148 5.29683685 0.61971796 0.65390557 0.70783365 0.23966825
3.44036937 5.24083090 0.59097993 0.69175237 0.70034939 0.22855417
4.32132959 4.99170542 1.25532806 0.86888641 0.66705793 0.48548257
4.74856949 4.94500828 1.24180019 0.95479119 0.66081762 0.48025084
3.76623631 5.22263479 0.58545578 0.75727421 0.69791776 0.22641777
3.65242696 5.12878990 2.36010289 0.73439068 0.68537700 0.91274059
3.99134731 5.16567945 0.55084485 0.80253708 0.69030666 0.21303242
4.01936197 5.04994297 2.36106133 0.80816996 0.67484039 0.91311121
3.66608739 5.24144077 0.79478049 0.73713732 0.70043087 0.30737150
3.88853335 5.18262863 0.77417374 0.78186440 0.69257164 0.29940212
4.30446911 5.12773991 0.53549510 0.86549628 0.68523669 0.20709610
4.52557039 5.03940439 0.49128586 0.90995294 0.67343211 0.18999872
4.17263079 5.11574936 0.75421894 0.83898765 0.68363434 0.29168484
4.39820147 5.04272413 0.71907681 0.88434297 0.67387575 0.27809405
3.98747921 6.52946711 0.26962540 0.80175936 0.87255406 0.10427428
2.87605834 5.23913527 1.66294301 0.57828683 0.70012277 0.64312261
3.91881466 5.94953537 0.20160533 0.78795302 0.79505587 0.07796837
3.20671535 5.19957495 1.65190530 0.64477175 0.69483620 0.63885391
3.18720126 5.37903786 0.40902546 0.64084810 0.71881843 0.15818553
2.74238467 5.29999256 1.98609340 0.55140918 0.70825535 0.76809704
3.39991713 5.33257008 0.38307899 0.68361872 0.71260881 0.14815105
3.05227661 5.21650839 1.97010911 0.61371887 0.69709909 0.76191527
4.20580101 5.86601067 0.17255464 0.84565717 0.78389418 0.06673337
3.59173036 5.05914116 1.62791514 0.72218645 0.67606962 0.62957603
4.12140369 5.35954571 0.10954723 0.82868743 0.71621364 0.04236603
4.00553274 5.05889511 1.63470268 0.80538934 0.67603672 0.63220102
3.47964644 5.14387941 1.97640860 0.69964981 0.68739343 0.76435155
4.12716246 5.52723789 0.34903851 0.82984537 0.73862290 0.13498633
4.45538378 4.97314453 1.62710905 0.89584059 0.66457760 0.62926430
4.67215204 5.75872135 0.34597600 0.93942600 0.76955676 0.13380194
4.27942514 4.97854519 1.95832098 0.86046070 0.66529930 0.75735641
4.67465115 4.89114094 1.94786060 0.93992847 0.65361917 0.75331098
2.92976475 5.31714725 1.02387726 0.58908552 0.71054780 0.39597183
3.23868966 5.24943209 1.00856543 0.65120083 0.70149881 0.39005017
2.75169897 5.28841496 1.31936038 0.55328196 0.70670819 0.51024628
3.07595420 5.23745251 1.30978310 0.61847973 0.69989794 0.50654238
3.64779019 5.17736292 0.99104422 0.73345834 0.69186795 0.38327408
4.00141954 5.10668850 0.95685256 0.80456233 0.68242353 0.37005088
4.00375271 5.78467607 -0.07470772 0.80503142 0.77302521 -0.02889228
3.47762394 5.15479422 1.29564238 0.69924313 0.68885201 0.50107366
4.40810776 5.93859673 -0.12087369 0.88633478 0.79359412 -0.04674640
3.80938029 5.07827377 1.26629746 0.76594913 0.67862636 0.48972484
3.20754862 5.29844761 0.61705267 0.64493930 0.70804888 0.23863748
3.39543605 5.24403954 0.58843625 0.68271768 0.70077819 0.22757043
4.47173738 5.52211714 -0.16147308 0.89912874 0.73793858 -0.06244772
4.26827717 4.99332571 1.24881077 0.85821915 0.66727448 0.48296210
4.68890476 4.94486904 1.23411572 0.94279444 0.66079903 0.47727898
3.71155024 5.21535969 0.58120883 0.74627852 0.69694561 0.22477531
3.57947850 5.09338903 2.33307338 0.71972299 0.68064624 0.90228724
3.94185686 5.16856766 0.54790401 0.79258609 0.69069260 0.21189509
3.95964170 5.03980303 2.34435105 0.79616207 0.67348540 0.90664876
3.60622907 5.22519541 0.78784436 0.72510165 0.69825995 0.30468905
3.84997535 5.19901943 0.77277780 0.77411157 0.69476199 0.29886225
4.25824881 5.13778830 0.53329128 0.85620278 0.68657947 0.20624380
4.48321199 5.05585194 0.48980469 0.90143597 0.67563003 0.18942590
4.14164400 5.14341307 0.75448710 0.83275712 0.68733114 0.29178855
4.34824324 5.04926968 0.71551538 0.87429792 0.67475045 0.27671671
4.06739807 6.75660944 0.28218278 0.81782860 0.90290785 0.10913070
2.83489847 5.24184418 1.65802431 0.57001084 0.70048481 0.64122039
4.07156706 6.26498556 0.21817562 0.81866682 0.83721054 0.08437672
3.17096090 5.21468878 1.65030849 0.63758266 0.69685596 0.63823634
3.14334869 5.38172054 0.40728113 0.63203067 0.71917695 0.15751094
2.69109225 5.28161287 1.97261786 0.54109585 0.70579922 0.76288551
3.35994625 5.34372282 0.38209301 0.67558181 0.71409917 0.14776973
3.01848650 5.23394203 1.96947920 0.60692471 0.69942880 0.76167166
4.16771173 5.89068604 0.17246868 0.83799857 0.78719169 0.06670012
3.56538820 5.08953810 1.63050365 0.71688986 0.68013161 0.63057709
4.37516785 5.76177597 0.12688646 0.87971163 0.76996499 0.04907177
3.96648502 5.07483196 1.63169718 0.79753804 0.67816639 0.63103867
4.07571602 5.53062487 0.34706572 0.81950104 0.73907548 0.13422337
4.39970064 4.97334671 1.61793220 0.88464439 0.66460460 0.62571526
4.82261610 4.90880728 1.60316837 0.96967965 0.65597999 0.62000549
4.58489943 5.72395802 0.34063414 0.92188215 0.76491123 0.13173604
4.23572159 4.99070597 1.95251024 0.85167325 0.66692436 0.75510913
4.66100693 4.93850946 1.95517278 0.93718505 0.65994918 0.75613886
2.89162755 5.32677650 1.02216053 0.58141732 0.71183461 0.39530793
3.19739938 5.25622606 1.00589883 0.64289862 0.70240670 0.38901892
3.91828322 6.75283051 0.00538325 0.78784615 0.90240282 0.00208190
2.72195053 5.31255484 1.32113194 0.54730046 0.70993412 0.51093143
3.03117800 5.23643494 1.30459738 0.60947663 0.69976193 0.50453687
3.60845757 5.19043255 0.98912704 0.72554976 0.69361448 0.38253263
3.96075296 5.12080860 0.95473903 0.79638553 0.68431044 0.36923349
3.96395850 5.80475378 -0.07476157 0.79703003 0.77570826 -0.02891311
3.50554919 5.26791716 1.31906700 0.70485806 0.70396900 0.51013285
3.76920152 5.09111166 1.26348770 0.75787044 0.68034190 0.48863822
3.16812348 5.30824804 0.61559892 0.63701212 0.70935857 0.23807526
3.35812116 5.25858641 0.58751124 0.67521483 0.70272213 0.22721270
4.42202044 5.53131580 -0.16139328 0.88913220 0.73916781 -0.06241686
4.22294378 5.00350189 1.24459362 0.84910405 0.66863436 0.48133117
4.64426088 4.95992041 1.23045635 0.93381792 0.66281039 0.47586375
3.67643404 5.23531675 0.58076179 0.73921776 0.69961250 0.22460243
3.52726293 5.08652782 2.31955862 0.70922405 0.67972934 0.89706057
3.89489055 5.17420959 0.54538321 0.78314263 0.69144654 0.21092020
3.92789769 5.06458235 2.34435105 0.78977937 0.67679673 0.90664876
3.57554436 5.25102949 0.78842235 0.71893191 0.70171225 0.30491257
3.79610896 5.19439268 0.76775253 0.76328069 0.69414371 0.29691878
4.21332836 5.14900303 0.53128785 0.84717065 0.68807811 0.20546900
4.42371368 5.05254030 0.48591658 0.88947266 0.67518753 0.18792222
4.08344650 5.13667393 0.74885505 0.82105541 0.68643057 0.28961042
4.29966688 5.05689526 0.71220839 0.86453068 0.67576945 0.27543777
4.03704262 6.80267334 0.28345978 0.81172502 0.90906352 0.10962456
2.80550241 5.26635695 1.66021037 0.56410021 0.70376050 0.64206582
4.29628754 6.70010376 0.24141210 0.86385119 0.89535677 0.09336314
3.12916279 5.21965790 1.64551783 0.62917835 0.69751996 0.63638365
3.10749555 5.39790487 0.40693223 0.62482172 0.72133970 0.15737601
2.66291523 5.30859375 1.97646797 0.53543031 0.70940477 0.76437449
3.31785798 5.35120344 0.38077837 0.66711915 0.71509886 0.14726132
2.97516251 5.23468590 1.96255076 0.59821361 0.69952822 0.75899220
4.11808634 5.89869881 0.17152306 0.82802039 0.78826243 0.06633442
3.56832314 5.16280746 1.64706945 0.71747994 0.68992287 0.63698369
4.36655188 5.82585859 0.12856916 0.87797922 0.77852857 0.04972253
3.92501998 5.08741951 1.62768984 0.78920072 0.67984855 0.62948889
3.57350087 5.27687931 0.35148045 0.71852106 0.70516664 0.13593072
3.42618418 5.20471811 1.98318815 0.68890017 0.69552350 0.76697344
3.98197579 5.47562599 0.34002003 0.80065280 0.73172581 0.13149853
3.82287121 5.20332050 1.99351966 0.76866174 0.69533676 0.77096903
4.35182524 4.98183966 1.61165321 0.87501812 0.66573954 0.62328690
4.84059954 4.98913956 1.61983740 0.97329557 0.66671503 0.62645203
4.58214951 5.79501295 0.34415194 0.92132926 0.77440655 0.13309650
4.17366600 4.98045540 1.93798339 0.83919579 0.66555458 0.74949110
4.27517366 5.05186987 0.25619301 0.85960585 0.67509788 0.09907947
4.59444141 4.92989492 1.93998599 0.92380077 0.65879798 0.75026554
2.85071540 5.33091497 1.01941371 0.57319111 0.71238762 0.39424562
3.15207243 5.25595808 1.00189900 0.63378477 0.70237088 0.38747203
2.67717505 5.30687618 1.31537437 0.53829753 0.70917523 0.50870472
2.98945665 5.24014091 1.30070817 0.60108775 0.70025718 0.50303280
3.55687809 5.18526363 0.98369509 0.71517873 0.69292378 0.38043189
3.91524863 5.12834930 0.95141780 0.78723598 0.68531811 0.36794904
4.21669006 6.26162624 -0.07009448 0.84784657 0.83676159 -0.02710817
3.39548612 5.17187214 1.28894961 0.68272775 0.69113421 0.49848530
4.09553719 5.66677523 -0.12180080 0.82348651 0.75726974 -0.04710495
3.72204590 5.09417582 1.25826967 0.74838889 0.68075138 0.48662022
3.13604736 5.31112909 0.61390281 0.63056260 0.70974356 0.23741931
3.32370257 5.25927019 0.58543003 0.66829431 0.70281351 0.22640781
4.47630930 5.65424490 -0.16182554 0.90004802 0.75559527 -0.06258402
4.18552160 5.00673723 1.24037647 0.84157956 0.66906667 0.47970024
4.60742188 4.96737480 1.22679710 0.92641073 0.66380656 0.47444859
3.63704157 5.23132229 0.57785594 0.73129714 0.69907874 0.22347863
3.50957131 5.11236000 2.32382631 0.70566678 0.68318141 0.89871103
3.86210871 5.18136978 0.54391283 0.77655119 0.69240344 0.21035154
3.90857482 5.08896923 2.34713626 0.78589410 0.68005562 0.90772587
3.53204513 5.23986292 0.78350925 0.71018559 0.70022005 0.30301249
3.76925683 5.20902205 0.76719415 0.75788152 0.69609869 0.29670283
4.17778397 5.15485239 0.52948475 0.84002376 0.68885982 0.20477167
4.41687584 5.09283686 0.48832351 0.88809782 0.68057245 0.18885307
4.06163740 5.15898180 0.74939144 0.81667030 0.68941164 0.28981787
4.26168156 5.06045294 0.70941013 0.85689300 0.67624491 0.27435559
3.93749142 6.70605516 0.27632976 0.79170835 0.89615208 0.10686711
2.76818395 5.25564575 1.65255904 0.55659658 0.70232916 0.63910675
4.33129883 6.82468414 0.24731645 0.87089092 0.91200489 0.09564658
3.09661889 5.22110701 1.64125943 0.62263477 0.69771361 0.63473678
3.07908344 5.40728474 0.40640894 0.61910892 0.72259319 0.15717362
2.62617207 5.29728317 1.96748435 0.52804238 0.70789331 0.76090020
3.28422165 5.35321426 0.37946373 0.66035593 0.71536756 0.14675289
2.94765425 5.24369335 1.96066117 0.59268254 0.70073193 0.75826144
4.08458662 5.90980434 0.17109326 0.82128465 0.78974652 0.06616820
3.49401140 5.10606289 1.62325609 0.70253813 0.68233991 0.62777418
4.30437660 5.79992437 0.12644748 0.86547768 0.77506286 0.04890200
3.88801837 5.08897591 1.62217975 0.78176081 0.68005651 0.62735790
3.53533387 5.27374125 0.34964159 0.71084684 0.70474732 0.13521956
3.37164927 5.17447710 1.96531487 0.67793489 0.69148231 0.76006120
4.00997639 5.56864262 0.34650207 0.80628282 0.74415594 0.13400538
3.81183648 5.23975039 2.00071359 0.76644301 0.70020497 0.77375120
4.32070827 4.99346256 1.60875535 0.86876148 0.66729277 0.62216622
4.73318911 4.92516708 1.59112966 0.95169866 0.65816623 0.61534971
4.59034824 5.86220741 0.34793031 0.92297775 0.78338599 0.13455774
4.14649725 4.99563885 1.93624008 0.83373296 0.66758358 0.74881685
4.26033020 5.08264303 0.25702563 0.85662127 0.67921025 0.09940148
4.56332207 4.94305325 1.93661118 0.91754365 0.66055638 0.74896038
2.82098722 5.33556509 1.01769698 0.56721371 0.71300906 0.39358169
3.12828112 5.27244616 1.00223231 0.62900108 0.70457423 0.38760093
2.64781594 5.31069136 1.31315994 0.53239429 0.70968509 0.50784832
2.96279931 5.25077534 1.29984391 0.59572774 0.70167828 0.50269854
4.18005943 6.08241415 -0.32058048 0.84048128 0.81281292 -0.12398053
3.51363873 5.17413998 0.97826308 0.70648462 0.69143724 0.37833112
3.87188196 5.12156916 0.94658685 0.77851629 0.68441206 0.36608073
4.20260334 6.30476665 -0.06984318 0.84501421 0.84252661 -0.02701098
3.34138966 5.14179945 1.27723742 0.67185062 0.68711549 0.49395576
4.15526342 5.80611944 -0.12146117 0.83549559 0.77589077 -0.04697360
3.69569182 5.10849142 1.25746691 0.74308991 0.68266445 0.48630977
3.09169221 5.31181812 0.61123753 0.62164414 0.70983565 0.23638855
3.28531098 5.27163696 0.58427376 0.66057491 0.70446610 0.22596064
4.45296526 5.69805193 -0.16189204 0.89535427 0.76144934 -0.06260974
4.13282013 5.00713491 1.23385918 0.83098292 0.66911983 0.47717977
4.54680777 4.96441460 1.21874666 0.91422313 0.66341096 0.47133517
3.60633850 5.25735617 0.57830298 0.72512370 0.70255774 0.22365151
3.50137234 5.16998577 2.34018636 0.70401824 0.69088215 0.90503806
3.81882453 5.19114780 0.54202223 0.76784807 0.69371009 0.20962039
3.85604978 5.08659840 2.33460355 0.77533293 0.67973882 0.90287900
3.49905252 5.26195192 0.78350925 0.70355177 0.70317185 0.30301249
3.72373796 5.21491337 0.76412314 0.74872911 0.69688594 0.29551515
4.13664389 5.17009735 0.52808231 0.83175176 0.69089705 0.20422930
4.34319496 5.07220984 0.48239875 0.87328285 0.67781603 0.18656173
4.00370455 5.15145779 0.74375939 0.80502176 0.68840617 0.28763974
4.21707249 5.07191515 0.70686626 0.84792352 0.67777663 0.27337179
3.88631582 6.71508217 0.27537200 0.78141850 0.89735842 0.10649671
2.74126720 5.28491068 1.65638471 0.55118448 0.70623994 0.64058626
4.27875566 6.83654737 0.24645936 0.86032605 0.91359019 0.09531511
3.06081724 5.23547697 1.63966262 0.61543614 0.69963396 0.63411921
3.03535485 5.40911722 0.40466461 0.61031646 0.72283804 0.15649903
2.59696078 5.32220554 1.97069287 0.52216887 0.71122372 0.76214105
3.24326181 5.36182880 0.37831342 0.65212011 0.71651876 0.14630803
2.90817165 5.25050879 1.95625210 0.58474380 0.70164269 0.75655627
4.03167915 5.91219521 0.16988975 0.81064659 0.79006600 0.06570276
3.46186042 5.12791538 1.62325609 0.69607359 0.68526012 0.62777418
4.24176788 5.79145527 0.12483793 0.85288900 0.77393115 0.04827952
3.83606482 5.08708620 1.61366403 0.77131456 0.67980397 0.62406456
3.55795360 5.38085890 0.35745674 0.71539497 0.71906179 0.13824196
3.33293033 5.18593550 1.96161699 0.67014968 0.69301355 0.75863105
3.97490859 5.59372759 0.34650207 0.79923177 0.74750811 0.13400538
3.87271833 5.39350033 2.05107164 0.77868450 0.72075111 0.79322654
4.44660950 5.57975006 0.08874858 0.89407635 0.74564028 0.03432241
4.25533295 4.98056555 1.59571445 0.85561651 0.66556931 0.61712277
4.67124891 4.92244101 1.58047998 0.93924439 0.65780193 0.61123103
4.42085791 5.71845579 0.33372882 0.88889849 0.76417595 0.12906548
4.39052868 5.35994625 2.06872511 0.88280022 0.71626717 0.80005383
4.24747467 5.13232327 0.25880978 0.85403645 0.68584919 0.10009147
4.51011992 4.94758177 1.92704916 0.90684628 0.66116154 0.74526238
2.77746248 5.33392715 1.01392019 0.55846220 0.71279013 0.39212108
3.08307719 5.27161026 0.99823242 0.61991191 0.70446253 0.38605404
3.23997545 5.80673504 -0.01586082 0.65145934 0.77597302 -0.00613397
2.60330367 5.30442381 1.30740237 0.52344424 0.70884752 0.50562167
2.91924810 5.25054932 1.29509044 0.58697093 0.70164812 0.50086021
4.17975473 6.16492796 -0.32226327 0.84042007 0.82383949 -0.12463133
3.47777891 5.19118309 0.97730452 0.69927430 0.69371480 0.37796041
3.82656479 5.12840652 0.94326562 0.76940441 0.68532574 0.36479628
4.15086937 6.31263399 -0.07004063 0.83461207 0.84357792 -0.02708735
3.31741619 5.17589283 1.28058374 0.66703027 0.69167149 0.49524990
3.65894723 5.12524748 1.25586128 0.73570168 0.68490362 0.48568881
3.05530977 5.32596302 0.61051065 0.61432874 0.71172589 0.23610742
3.24166751 5.27528381 0.58196127 0.65179956 0.70495343 0.22506632
4.44628668 5.76400566 -0.16205165 0.89401144 0.77026296 -0.06267147
4.10004282 5.03147745 1.23347580 0.82439244 0.67237282 0.47703150
4.50890923 4.98561335 1.21691704 0.90660286 0.66624385 0.47062758
3.55882192 5.25846815 0.57539719 0.71556956 0.70270634 0.22252774
3.68375945 5.51586962 2.48813796 0.74069065 0.73710370 0.96225655
3.77557015 5.20058775 0.54013169 0.75915098 0.69497156 0.20888925
3.81498957 5.09874487 2.32903337 0.76707697 0.68136197 0.90072483
3.44972014 5.25895929 0.77917415 0.69363254 0.70277196 0.30133596
3.68860674 5.23497677 0.76356477 0.74166530 0.69956708 0.29529920
4.09179163 5.18033266 0.52607888 0.82273334 0.69226480 0.20345449
4.25989103 4.98905993 2.32739496 0.85653299 0.66670442 0.90009117
4.31769133 5.10698271 0.48332450 0.86815482 0.68246281 0.18691976
3.96404934 5.16705418 0.74215025 0.79704833 0.69049037 0.28701741
4.17375088 5.08454704 0.70457679 0.83921283 0.67946464 0.27248636
3.84798717 6.74631739 0.27579767 0.77371180 0.90153247 0.10666133
2.68975353 5.26598740 1.64490771 0.54082668 0.70371115 0.63614768
4.22202110 6.84123039 0.24522136 0.84891850 0.91421604 0.09483632
3.01721215 5.23626661 1.63380730 0.60666853 0.69973946 0.63185471
2.99364185 5.41410828 0.40326911 0.60192925 0.72350502 0.15595934
2.54067445 5.29052591 1.95272553 0.51085144 0.70699030 0.75519240
3.19308567 5.35476255 0.37568411 0.64203125 0.71557444 0.14529118
2.86597538 5.25204563 1.94995356 0.57625943 0.70184803 0.75412041
4.04887390 6.01880121 0.17410199 0.81410390 0.80431211 0.06733179
3.43809700 5.16245651 1.62739754 0.69129550 0.68987596 0.62937582
4.23233032 5.85517216 0.12652065 0.85099137 0.78244585 0.04893029
3.79473805 5.09869194 1.60965669 0.76300502 0.68135488 0.62251478
3.49263525 5.35457087 0.35301283 0.70226145 0.71554881 0.13652334
3.28812099 5.18744993 1.95422113 0.66113991 0.69321591 0.75577080
3.96268797 5.65119362 0.34932035 0.79677457 0.75518751 0.13509531
3.88417649 5.48141813 2.07565093 0.78098834 0.73249984 0.80273229
4.41638947 5.61387730 0.08900260 0.88800001 0.75020081 0.03442065
4.20774698 4.98786879 1.58943546 0.84604841 0.66654521 0.61469448
4.64022827 4.95169401 1.58047998 0.93300712 0.66171110 0.61123103
4.35589123 5.70796061 0.33060190 0.87583566 0.76277345 0.12785619
4.37115240 5.40532541 2.07569814 0.87890422 0.72233135 0.80275053
4.23162651 5.17895746 0.26035604 0.85084987 0.69208103 0.10068947
4.47894478 4.97582197 1.92704916 0.90057796 0.66493535 0.74526238
2.73942852 5.34249163 1.01220345 0.55081475 0.71393466 0.39145714
3.04196978 5.27723598 0.99556583 0.61164647 0.70521432 0.38502276
3.30305743 6.00952387 -0.01204496 0.66414320 0.80307233 -0.00465824
2.56823945 5.31715775 1.30651665 0.51639390 0.71054918 0.50527912
2.87581682 5.24998379 1.29033697 0.57823825 0.70157254 0.49902183
3.43534470 5.19807625 0.97442871 0.69074208 0.69463593 0.37684822
3.78955722 5.14599514 0.94205785 0.76196331 0.68767619 0.36432919
4.09378433 6.31169653 -0.07032783 0.82313406 0.84345269 -0.02719842
3.27027678 5.17344141 1.27472758 0.65755200 0.69134390 0.49298510
4.15200996 5.95777178 -0.12118120 0.83484143 0.79615653 -0.04686533
3.60286784 5.11457539 1.24743211 0.72442585 0.68347746 0.48242891
3.02081442 5.34332323 0.61026835 0.60739279 0.71404576 0.23601373
3.21259809 5.30233002 0.58288628 0.64595461 0.70856774 0.22542405
4.43895435 5.83009958 -0.16221124 0.89253712 0.77909529 -0.06273319
4.06467152 5.05253935 1.23232567 0.81728035 0.67518735 0.47658670
4.46698236 5.00214434 1.21398950 0.89817268 0.66845292 0.46949539
3.52131891 5.27409887 0.57450306 0.70802885 0.70479512 0.22218195
3.73932934 5.21936798 0.53950149 0.75186408 0.69748122 0.20864552
3.77952242 5.11810064 2.32694483 0.75994563 0.68394852 0.89991707
3.41767907 5.28219557 0.77946317 0.68719006 0.70587707 0.30144772
3.64201379 5.23858023 0.76021457 0.73229688 0.70004863 0.29400358
4.04575539 5.18863630 0.52387506 0.81347692 0.69337445 0.20260219
4.22120953 5.00707293 2.32332826 0.84875530 0.66911155 0.89851844
4.25606060 5.09893799 0.47906607 0.85576278 0.68138778 0.18527287
3.92316508 5.18077278 0.74027294 0.78882778 0.69232363 0.28629139
4.12793016 5.09376001 0.70177853 0.82999969 0.68069583 0.27140415
3.82889962 6.81220675 0.27835169 0.76987386 0.91033751 0.10764907
2.66090560 5.29139185 1.64764035 0.53502619 0.70710599 0.63720447
4.17478228 6.86080694 0.24484043 0.83942026 0.91683209 0.09468900
2.97850657 5.24508190 1.63061357 0.59888601 0.70091748 0.63061959
2.95482850 5.42404699 0.40239695 0.59412509 0.72483313 0.15562204
2.51702332 5.32697105 1.96042573 0.50609595 0.71186060 0.75817037
3.15429950 5.36614418 0.37486246 0.63423252 0.71709543 0.14497341
2.82206583 5.24992228 1.94239521 0.56743056 0.70156431 0.75119728
4.07368755 6.13919783 0.17900194 0.81909317 0.82040113 0.06922679
3.37604141 5.13865089 1.61290240 0.67881805 0.68669474 0.62377000
4.14069223 5.80532789 0.12308206 0.83256578 0.77578497 0.04760046
3.73384643 5.08351326 1.59713364 0.75076163 0.67932653 0.61767167
3.44926047 5.36128569 0.35163370 0.69354010 0.71644616 0.13598998
3.22637057 5.16112232 1.93634772 0.64872384 0.68969768 0.74885851
3.93964195 5.69399023 0.35087040 0.79214072 0.76090658 0.13569479
3.84526682 5.49947357 2.07325292 0.77316481 0.73491263 0.80180490
4.38835859 5.65100908 0.08938364 0.88236386 0.75516284 0.03456802
4.15776300 4.99178076 1.58219063 0.83599818 0.66706800 0.61189264
4.59178972 4.96223831 1.57446063 0.92326760 0.66312015 0.60890317
4.31037140 5.72243643 0.32955959 0.86668301 0.76470792 0.12745309
4.31569099 5.40569973 2.06523871 0.86775261 0.72238135 0.79870552
4.16880608 5.16824102 0.25750139 0.83821863 0.69064897 0.09958547
4.40537214 4.95665407 1.90848756 0.88578475 0.66237390 0.73808390
2.70404267 5.35607481 1.01151681 0.54369974 0.71574980 0.39119160
3.00581264 5.29111052 0.99456584 0.60437644 0.70706844 0.38463601
2.52896214 5.32083845 1.30341637 0.50849646 0.71104103 0.50408012
3.91192079 6.68843603 -0.03924125 0.78656685 0.89379758 -0.01517607
2.84277368 5.26794910 1.29033697 0.57159430 0.70397329 0.49902183
3.40154386 5.21790075 0.97410923 0.68394578 0.69728518 0.37672469
3.74897742 5.15853500 0.93994433 0.75380397 0.68935192 0.36351183
4.04760742 6.32716799 -0.07043554 0.81384927 0.84552020 -0.02724007
3.23667765 5.19222403 1.27430928 0.65079623 0.69385391 0.49282333
4.14635277 6.02979660 -0.12105268 0.83370394 0.80578148 -0.04681563
3.57740211 5.14674330 1.24984038 0.71930546 0.68777615 0.48336029
2.97853827 5.34656048 0.60808766 0.59889239 0.71447837 0.23517036
3.16283011 5.29517651 0.57918632 0.63594782 0.70761180 0.22399314
4.43216276 5.89792871 -0.16237749 0.89117151 0.78815955 -0.06279749
4.01825428 5.05948734 1.22772515 0.80794728 0.67611587 0.47480750
4.50903797 5.59543991 -0.19506457 0.90662879 0.74773693 -0.07543880
4.41980600 5.01246214 1.20959842 0.88868695 0.66983175 0.46779722
3.48158431 5.28613997 0.57316190 0.70003945 0.70640421 0.22166327
3.69723511 5.22979641 0.53782099 0.74340022 0.69887483 0.20799561
3.72399879 5.11000204 2.31232333 0.74878156 0.68286628 0.89426243
3.37594914 5.29019165 0.77715111 0.67879945 0.70694566 0.30055356
3.60902715 5.26136017 0.76021457 0.72566426 0.70309281 0.29400358
4.00219488 5.19972754 0.52207196 0.80471820 0.69485658 0.20190486
4.27721310 5.13934278 2.37280631 0.86001593 0.68678719 0.91765344
4.21249866 5.11178255 0.47739974 0.84700382 0.68310422 0.18462844
3.88817310 5.20213795 0.73973656 0.78179193 0.69517875 0.28608394
4.08215904 5.10259914 0.69898027 0.82079655 0.68187702 0.27032197
2.61913061 5.29073524 1.64217508 0.52662659 0.70701826 0.63509089
4.12333584 6.87321806 0.24407858 0.82907593 0.91849065 0.09439436
2.94643927 5.26537180 1.63114583 0.59243828 0.70362890 0.63082546
2.91600847 5.43371248 0.40152478 0.58631957 0.72612476 0.15528473
2.48112583 5.33751917 1.95850074 0.49887803 0.71327019 0.75742590
3.11750627 5.38069296 0.37436947 0.62683457 0.71903962 0.14478275
2.78991818 5.26922464 1.94302511 0.56096667 0.70414376 0.75144088
4.01106071 6.12782526 0.17711073 0.80650085 0.81888133 0.06849538
3.34891391 5.16788530 1.61549079 0.67336351 0.69060141 0.62477106
4.10413456 5.83122969 0.12308206 0.82521516 0.77924633 0.04760046
3.68128633 5.07872057 1.58811712 0.74019337 0.67868608 0.61418462
3.40487671 5.36598063 0.35010129 0.68461591 0.71707356 0.13539734
3.19189286 5.17804575 1.93511510 0.64179140 0.69195920 0.74838179
3.57958221 5.24668741 0.31042817 0.71974379 0.70113200 0.12005425
3.63542676 5.27119732 1.97673368 0.73097241 0.70440733 0.76447725
4.35276604 5.67847013 0.08938364 0.87520730 0.75883257 0.03456802
4.10544062 4.99225712 1.57397974 0.82547778 0.66713166 0.60871714
4.53023529 4.95804644 1.56381106 0.91089088 0.66255999 0.60478455
4.24823570 5.71409607 0.32669324 0.85418946 0.76359338 0.12634456
4.26511908 5.41161823 2.05710363 0.85758418 0.72317225 0.79555935
4.13000870 5.18654203 0.25690669 0.83041763 0.69309461 0.09935548
4.35381556 4.96121740 1.89948797 0.87541831 0.66298372 0.73460346
2.66423988 5.36058712 1.00911331 0.53569663 0.71635282 0.39026207
2.96378708 5.29443455 0.99156594 0.59592634 0.70751262 0.38347584
3.21885800 6.03465176 -0.01237518 0.64721328 0.80643028 -0.00478595
2.49876094 5.34370184 1.30518794 0.50242394 0.71409637 0.50476527
2.80869603 5.28398561 1.28990483 0.56474233 0.70611632 0.49885473
3.36975431 5.24083424 0.97442871 0.67755389 0.70034981 0.37684822
3.70607543 5.16756201 0.93722695 0.74517769 0.69055825 0.36246091
3.19991565 5.20577955 1.27263606 0.64340454 0.69566536 0.49217623
3.53051972 5.14815998 1.24462235 0.70987886 0.68796545 0.48134229
2.93918943 5.35470867 0.60663390 0.59098053 0.71556723 0.23460814
3.12848377 5.31323576 0.57895505 0.62904179 0.71002507 0.22390370
4.44249773 5.99004650 -0.16264351 0.89324957 0.80046952 -0.06290036
3.98397303 5.08153772 1.22695839 0.80105436 0.67906255 0.47451097
4.44005537 5.58149815 -0.19463465 0.89275849 0.74587387 -0.07527254
4.37267733 5.02238560 1.20520723 0.87921083 0.67115784 0.46609896
3.43214130 5.28285933 0.56980902 0.69009799 0.70596576 0.22036658
3.63915420 5.21711540 0.53319961 0.73172194 0.69718021 0.20620835
3.68742013 5.12722540 2.30953836 0.74142671 0.68516791 0.89318538
3.32901073 5.28948021 0.77339405 0.66936159 0.70685053 0.29910058
3.54690337 5.24138069 0.75295579 0.71317309 0.70042288 0.29119632
3.94786525 5.19618320 0.51846576 0.79379421 0.69438297 0.20051020
4.10559130 4.99559307 2.29350615 0.82550806 0.66757745 0.88698506
4.16642094 5.12119961 0.47536311 0.83773905 0.68436265 0.18384080
3.83197975 5.19449282 0.73437268 0.77049321 0.69415706 0.28400955
4.03273773 5.10640574 0.69541883 0.81085944 0.68238574 0.26894462
2.58583641 5.30708742 1.64217508 0.51993209 0.70920348 0.63509089
4.06883478 6.88010359 0.24303104 0.81811744 0.91941077 0.09398925
2.90205956 5.26355934 1.62475836 0.58351487 0.70338666 0.62835515
2.87533331 5.43957520 0.40030375 0.57814103 0.72690827 0.15481251
2.43659639 5.32884693 1.94951701 0.48992455 0.71211123 0.75395155
3.07767272 5.38980865 0.37338349 0.61882526 0.72025776 0.14440145
2.74792147 5.26984882 1.93672645 0.55252242 0.70422715 0.74900496
3.28636265 5.14152002 1.60047805 0.66078639 0.68707818 0.61896509
4.08229685 5.87820005 0.12403316 0.82082427 0.78552312 0.04796829
3.65043497 5.10332155 1.58861804 0.73399013 0.68197358 0.61437833
3.36793709 5.38218641 0.34964159 0.67718852 0.71923918 0.13521956
3.15929556 5.19799900 1.93511510 0.63523710 0.69462562 0.74838179
3.56109643 5.29054403 0.31226003 0.71602690 0.70699275 0.12076270
3.49223924 5.13338089 1.91558480 0.70218182 0.68599051 0.74082869
4.37708139 5.78558445 0.09255891 0.88009638 0.77314657 0.03579601
4.06424379 5.00586891 1.57011569 0.81719434 0.66895068 0.60722280
4.48460817 4.97056580 1.55871773 0.90171671 0.66423297 0.60281479
4.19578505 5.71810150 0.32486919 0.84364325 0.76412863 0.12563914
4.21230221 5.41408730 2.04780650 0.84696436 0.72350222 0.79196382
4.07752180 5.18733692 0.25500360 0.81986415 0.69320083 0.09861948
4.32634163 4.99281502 1.90117538 0.86989415 0.66720623 0.73525602
2.62620711 5.36835718 1.00739658 0.52804941 0.71739113 0.38959816
2.92471361 5.30261040 0.98956597 0.58806992 0.70860517 0.38270238
3.07730794 5.85618114 -0.01648456 0.61875194 0.78258067 -0.00637520
2.45623827 5.33977461 1.30031610 0.49387392 0.71357155 0.50288117
2.76632476 5.28425932 1.28558350 0.55622280 0.70615286 0.49718350
3.32413650 5.24185419 0.97059441 0.66838157 0.70048612 0.37536538
4.15894318 6.02706909 -0.36651647 0.83623546 0.80541700 -0.14174570
3.65976644 5.17142391 0.93360376 0.73586637 0.69107431 0.36105970
3.16109538 5.21572685 1.27012634 0.63559902 0.69699466 0.49120563
3.49258733 5.16214514 1.24261534 0.70225179 0.68983436 0.48056608
2.90921712 5.35975981 0.60542244 0.58495402 0.71624225 0.23413962
3.09838343 5.31935310 0.57779884 0.62298954 0.71084255 0.22345655
3.94199896 5.07694197 1.22120786 0.79261470 0.67844838 0.47228700
4.50065327 5.71208000 -0.19574927 0.90494287 0.76332396 -0.07570361
4.33736324 5.02957010 1.20191383 0.87211025 0.67211789 0.46482527
3.40293050 5.29227352 0.56891495 0.68422461 0.70722383 0.22002082
3.61112261 5.22930717 0.53256941 0.72608560 0.69880944 0.20596462
3.64901638 5.12473583 2.30048704 0.73370486 0.68483526 0.88968486
3.29468107 5.28995991 0.77079296 0.66245896 0.70691466 0.29809463
3.52991676 5.26952982 0.75491011 0.70975763 0.70418453 0.29195213
3.91976094 5.20994759 0.51786470 0.78814328 0.69622236 0.20027776
4.07372189 5.00464344 2.28876162 0.81910008 0.66878688 0.88515019
4.13597059 5.13304234 0.47443736 0.83161640 0.68594527 0.18348277
3.79931092 5.20126390 0.73249531 0.76392448 0.69506192 0.28328350
4.00004053 5.11444139 0.69363815 0.80428505 0.68345952 0.26825595
2.54754186 5.29143286 1.63343072 0.51223224 0.70711148 0.63170910
4.00901222 6.85271406 0.24045978 0.80608898 0.91575062 0.09299485
2.87443781 5.27210808 1.62316155 0.57796097 0.70452905 0.62773764
2.84324956 5.44068289 0.39908269 0.57168996 0.72705626 0.15434028
2.40062761 5.31606245 1.94053340 0.48269233 0.71040285 0.75047725
3.04139495 5.38519621 0.37157583 0.61153090 0.71964139 0.14370234
2.71517825 5.26758099 1.93105769 0.54593879 0.70392412 0.74681264
3.25593352 5.14713335 1.59737194 0.65466803 0.68782830 0.61776382
4.02840042 5.85956621 0.12235045 0.80998737 0.78303301 0.04731752
3.61847639 5.10943174 1.58511150 0.72756422 0.68279010 0.61302221
3.33209300 5.38101006 0.34810922 0.66998136 0.71908200 0.13462692
3.12013936 5.18832159 1.92587030 0.62736398 0.69333237 0.74480647
3.79621410 5.69494009 0.34523386 0.76330185 0.76103348 0.13351491
3.45515847 5.13083124 1.90839088 0.69472605 0.68564975 0.73804653
4.37962008 5.84622622 0.09414654 0.88060683 0.78125036 0.03641001
4.02970648 5.01131868 1.56576872 0.81024992 0.66967893 0.60554165
4.48820210 5.59827280 0.04141778 0.90243930 0.74811554 0.01601781
4.45202875 4.98151636 1.55547655 0.89516598 0.66569632 0.60156131
3.96898842 5.46114063 0.30258977 0.79804140 0.72979009 0.11702285
4.17743397 5.42172194 2.04315782 0.83995342 0.72452247 0.79016596
4.05672550 5.21120882 0.25536042 0.81568265 0.69639087 0.09875748
4.28269339 4.98990631 1.89217591 0.86111784 0.66681755 0.73177558
2.60088015 5.38067341 1.00739658 0.52295697 0.71903700 0.38959816
2.89969325 5.31633377 0.98956597 0.58303905 0.71043909 0.38270238
3.17980123 6.12299919 -0.01127445 0.63936019 0.81823641 -0.00436025
2.43264914 5.35484695 1.30120194 0.48913088 0.71558571 0.50322372
2.73868227 5.29204321 1.28428710 0.55066472 0.70719308 0.49668214
3.29626608 5.25243378 0.96963578 0.66277766 0.70189995 0.37499464
3.62965775 5.18053484 0.93209410 0.72981244 0.69229186 0.36047584
3.13248086 5.22384262 1.26845312 0.62984550 0.69807917 0.49055853
3.45507550 5.15905380 1.23779869 0.69470936 0.68942124 0.47870332
2.86525106 5.35864115 0.60275716 0.57611382 0.71609277 0.23310886
3.05196810 5.31636095 0.57479262 0.61365688 0.71044272 0.22229393
4.11445856 5.67506742 -0.16115387 0.82729101 0.75837785 -0.06232426
3.88148284 5.06412840 1.21200693 0.78044677 0.67673606 0.46872866
4.47946167 5.75914812 -0.19594035 0.90068185 0.76961380 -0.07577750
4.28648710 5.03432560 1.19642496 0.86188066 0.67275339 0.46270254
3.35160899 5.28495836 0.56511503 0.67390543 0.70624632 0.21855123
3.55681729 5.22073126 0.52857822 0.71516651 0.69766343 0.20442107
3.57559752 5.08939934 2.27402902 0.71894264 0.68011308 0.87945253
3.25313735 5.29703856 0.76848090 0.65410578 0.70786059 0.29720047
3.46492147 5.24379110 0.74681377 0.69668907 0.70074499 0.28882098
3.87159109 5.21365595 0.51526022 0.77845782 0.69671792 0.19927050
4.02458572 5.00808382 2.27859497 0.80922031 0.66924661 0.88121837
4.08496952 5.13560820 0.47166014 0.82136166 0.68628812 0.18240872
3.73655438 5.18313646 0.72552234 0.75130612 0.69263947 0.28058678
3.94348288 5.10814428 0.68855041 0.79291302 0.68261802 0.26628834
2.51424479 5.30733490 1.63343072 0.50553727 0.70923656 0.63170910
3.96387172 6.87431192 0.24026932 0.79701263 0.91863680 0.09292118
2.82656860 5.26293993 1.61464477 0.56833595 0.70330387 0.62444389
2.80447984 5.44956684 0.39821053 0.56389457 0.72824347 0.15400299
2.37785649 5.35531616 1.94951701 0.47811377 0.71564841 0.75395155
3.00262380 5.39550686 0.37075418 0.60373521 0.72101927 0.14338459
2.68462229 5.28960609 1.93294728 0.53979492 0.70686740 0.74754339
3.20929122 5.14449453 1.59012437 0.64528972 0.68747562 0.61496091
3.99488401 5.88971424 0.12256993 0.80324823 0.78706181 0.04740240
3.57627344 5.11781454 1.58060324 0.71907854 0.68391031 0.61127871
3.29615021 5.39842939 0.34780273 0.66275436 0.72140980 0.13450840
3.09133792 5.21438313 1.92833555 0.62157291 0.69681507 0.74575990
3.79338884 5.76858997 0.34946126 0.76273376 0.77087557 0.13514981
3.41754746 5.14450979 1.90539336 0.68716359 0.68747771 0.73688728
