-5.61238527 -10.00479507 1.96499109 -0.99053323 -0.98446614 0.89428508
-5.50760889 -9.96391201 1.94988382 -0.97204119 -0.98044324 0.88740963
-5.44959164 -10.00698090 1.95160055 -0.96180171 -0.98468119 0.88819093
-5.37546873 -10.02016926 1.94748044 -0.94871968 -0.98597896 0.88631582
-5.36315489 -10.11159515 1.96052766 -0.94654644 -0.99497521 0.89225376
-5.56131220 -9.92932606 0.07094999 -0.98151934 -0.97703999 0.03228998
-5.52391958 -9.95482445 0.85836834 -0.97491986 -0.97954905 0.39065114
-5.43910599 -9.85541916 0.06867516 -0.95995104 -0.96976763 0.03125468
-5.41744232 -9.90884113 0.85034436 -0.95612764 -0.97502428 0.38699937
-5.53969574 -9.88749409 -0.30605114 -0.97770423 -0.97292376 -0.13928662
-5.41896439 -9.96677303 0.07028956 -0.95639628 -0.98072475 0.03198941
-5.56063223 -9.94395161 1.25162840 -0.98139930 -0.97847915 0.56962734
-5.54193735 -9.95475483 0.46905360 -0.97809982 -0.97954220 0.21347050
-5.38709116 -10.00238228 0.85627508 -0.95077091 -0.98422873 0.38969848
-5.45337868 -9.87829399 -0.30530921 -0.96247005 -0.97201848 -0.13894896
-5.34870720 -9.98650932 0.06999603 -0.94399655 -0.98266679 0.03185582
-5.41114378 -9.82030678 1.22957933 -0.95501602 -0.96631259 0.55959260
-5.46396351 -9.96133518 0.46735090 -0.96433818 -0.98018968 0.21269560
-5.33716631 -10.06069660 0.85871720 -0.94195968 -0.98996681 0.39080992
-5.39501333 -9.91939735 -0.30542791 -0.95216912 -0.97606301 -0.13900299
-5.47138119 -9.81635284 1.86554241 -0.96564734 -0.96592349 0.84902513
-5.42823744 -9.96261215 1.24581325 -0.95803285 -0.98031533 0.56698078
-5.41411400 -9.98170090 0.46703166 -0.95554024 -0.98219365 0.21255031
-5.34632158 -9.94118404 -0.30536857 -0.94357550 -0.97820681 -0.13897598
-5.49860382 -9.97487545 1.89120841 -0.97045189 -0.98152202 0.86070597
-5.36085510 -9.98776722 1.24460173 -0.94614053 -0.98279059 0.56642944
-5.36067057 -10.03315353 0.46809584 -0.94610792 -0.98725659 0.21303463
-5.44337559 -10.02307796 1.89387500 -0.96070462 -0.98626512 0.86191952
-5.54642820 -9.93016148 0.00690376 -0.97889245 -0.97712225 0.00314196
-5.31371498 -10.05111790 1.24872077 -0.93782073 -0.98902428 0.56830406
-5.47783995 -9.88499165 0.79341298 -0.96678722 -0.97267753 0.36108938
-5.38775826 -10.07097912 1.89654160 -0.95088869 -0.99097860 0.86313313
-5.45684099 -9.91580582 0.00619110 -0.96308112 -0.97570962 0.00281762
-5.44916391 -9.98038578 0.79916459 -0.96172619 -0.98206425 0.36370698
-5.53446579 -9.87274170 -0.37282133 -0.97678119 -0.97147214 -0.16967434
-5.39251804 -9.94638348 0.00614019 -0.95172876 -0.97871846 0.00279446
-5.56026983 -10.01175594 1.19430554 -0.98133534 -0.98515105 0.54353917
-5.53908777 -9.94937038 0.40482932 -0.97759694 -0.97901237 0.18424146
-5.37687492 -9.99688911 0.79752123 -0.94896787 -0.98368818 0.36295909
-5.45001602 -9.86710262 -0.37186667 -0.96187657 -0.97091728 -0.16923986
-5.33180761 -9.98359394 0.00619110 -0.94101393 -0.98237991 0.00281762
-5.45803022 -9.97511101 1.18482447 -0.96329099 -0.98154521 0.53922427
-5.45815086 -9.95073032 0.40301991 -0.96331233 -0.97914618 0.18341798
-5.34485388 -10.08854389 0.80294418 -0.94331646 -0.99270695 0.36542711
-5.39366579 -9.91167927 -0.37211570 -0.95193130 -0.97530359 -0.16935320
-5.40053034 -9.98151970 1.18228066 -0.95314282 -0.98217583 0.53806657
-5.40737629 -9.96932316 0.40263900 -0.95435107 -0.98097569 0.18324463
-5.35545397 -9.95281887 -0.37248927 -0.94518727 -0.97935170 -0.16952321
-5.34145832 -10.02226067 1.18320572 -0.94271719 -0.98618472 0.53848755
-5.36257792 -10.03654766 0.40444839 -0.94644457 -0.98759055 0.18406810
-5.55858231 -9.90590286 -0.03589912 -0.98103750 -0.97473520 -0.01633801
-5.64318609 -10.09074497 1.54908752 -0.99596930 -0.99292356 0.70500368
-5.49479628 -9.88602257 0.73089850 -0.96977991 -0.97277898 0.33263847
-5.43642902 -9.83201313 -0.03701204 -0.95947862 -0.96746451 -0.01684451
-5.51683903 -10.01149464 1.53001308 -0.97367024 -0.98512536 0.69632268
-5.46884966 -9.98688030 0.73672152 -0.96520054 -0.98270333 0.33528858
-5.54565048 -9.84683323 -0.41763690 -0.97875518 -0.96892279 -0.19007030
-5.43602896 -9.79008961 1.77836347 -0.95940799 -0.96333921 0.80934918
-5.41650152 -9.94332695 -0.03622222 -0.95596159 -0.97841769 -0.01648506
-5.45194435 -10.04247856 1.52943504 -0.96221691 -0.98817414 0.69605964
-5.55842447 -9.95317078 0.35247722 -0.98100966 -0.97938633 0.16041555
-5.40316153 -10.01577473 0.73626184 -0.95360720 -0.98554653 0.33507937
-5.41791439 -9.76248455 -0.41427135 -0.95621097 -0.96062291 -0.18853861
-5.45562792 -9.97315693 1.80584288 -0.96286702 -0.98135293 0.82185531
-5.34732199 -9.96481609 -0.03634787 -0.94375205 -0.98053223 -0.01654224
-5.52552128 -9.98239517 1.14449227 -0.97520256 -0.98226196 0.52086872
-5.38222742 -10.06430817 1.52741206 -0.94991255 -0.99032217 0.69513893
-5.47945499 -9.95810890 0.35101584 -0.96707231 -0.97987223 0.15975046
-5.34945011 -10.06715202 0.73779422 -0.94412762 -0.99060202 0.33577678
-5.39375257 -9.86481762 -0.41620159 -0.95194662 -0.97069240 -0.18941708
-5.39565802 -10.01245785 1.80680156 -0.95228291 -0.98522013 0.82229161
-5.47746801 -10.00657749 1.14426875 -0.96672159 -0.98464149 0.52076697
-5.42009354 -9.96098042 0.34989831 -0.95659554 -0.98015481 0.15924187
-5.35194492 -9.89892769 -0.41644904 -0.94456798 -0.97404885 -0.18952970
-5.35674334 -10.05346966 1.80967724 -0.94541484 -0.98925567 0.82360035
-5.40602493 -10.02503586 1.14225709 -0.95411259 -0.98645782 0.51985145
-5.37057161 -10.01951790 0.35110179 -0.94785541 -0.98591483 0.15978958
-5.54950857 -9.91202831 -0.11177696 -0.97943610 -0.97533792 -0.05087070
-5.34571695 -10.06407547 1.14292765 -0.94346881 -0.99029928 0.52015662
-5.62550545 -10.05915356 1.48553157 -0.99284881 -0.98981494 0.67607880
-5.51807499 -9.92860603 0.66412163 -0.97388834 -0.97696918 0.30224773
-5.46192122 -9.90121460 -0.11189629 -0.96397775 -0.97427386 -0.05092501
-5.51329136 -10.00592709 1.47129321 -0.97304410 -0.98457754 0.66959876
-5.46135139 -9.97356987 0.66496712 -0.96387720 -0.98139358 0.30263251
-5.52697134 -9.83406544 -0.49008155 -0.97545850 -0.96766645 -0.22304052
-5.39864445 -9.93358231 -0.11190088 -0.95280999 -0.97745883 -0.05092710
-5.44841814 -10.03689194 1.47073483 -0.96159458 -0.98762441 0.66934466
-5.55072641 -9.94805527 0.27906191 -0.97965103 -0.97888297 0.12700358
-5.38907480 -9.99014568 0.66355801 -0.95112103 -0.98302466 0.30199122
-5.45244217 -9.84588718 -0.48927027 -0.96230477 -0.96882969 -0.22267130
-5.33328247 -9.96202183 -0.11191465 -0.94127423 -0.98025727 -0.05093336
-5.46467876 -9.88107491 1.05394483 -0.96446443 -0.97229213 0.47965977
-5.38243628 -10.06569290 1.46989727 -0.94994938 -0.99045843 0.66896343
-5.46685982 -9.94424057 0.27745235 -0.96484935 -0.97850758 0.12627105
-5.34592390 -10.06077099 0.66651720 -0.94350529 -0.98997414 0.30333796
-5.39239264 -9.88345718 -0.48939508 -0.95170659 -0.97252655 -0.22272810
-5.60838890 -9.98479462 1.71500552 -0.98982793 -0.98249811 0.78051442
-5.45827007 -9.97993469 1.06276751 -0.96333337 -0.98201990 0.48367503
-5.37302160 -10.16266060 1.48134375 -0.94828779 -1.00000000 0.67417288
-5.41514921 -9.96112061 0.27708656 -0.95572293 -0.98016858 0.12610458
-5.36099577 -9.93688011 -0.49039358 -0.94616532 -0.97778332 -0.22318253
-5.43991613 -9.79356003 1.67696202 -0.96009403 -0.96368074 0.76320046
-5.38883114 -10.00178814 1.06129706 -0.95107806 -0.98417026 0.48300582
-5.37138939 -10.03015327 0.27854979 -0.94799972 -0.98696136 0.12677051
-5.46017170 -9.97655201 1.70292819 -0.96366894 -0.98168701 0.77501792
-5.35114098 -10.08283901 1.06696880 -0.94442606 -0.99214560 0.48558709
-5.53953123 -9.92153072 0.60368741 -0.97767520 -0.97627294 0.27474356
-5.40114546 -10.01761627 1.70413601 -0.95325136 -0.98572773 0.77556759
-5.50218487 -9.87408829 -0.17543171 -0.97108388 -0.97160465 -0.07984055
-5.55195236 -10.03593445 1.41290021 -0.97986740 -0.98753023 0.64302361
-5.48858929 -9.97714520 0.60525084 -0.96868438 -0.98174536 0.27545509
-5.34088802 -10.05658817 1.70504177 -0.94261652 -0.98956251 0.77597982
-5.44195461 -9.91197395 -0.17544502 -0.96045381 -0.97533256 -0.07984661
-5.45758724 -10.01313686 1.40404987 -0.96321285 -0.98528695 0.63899571
-5.41631508 -9.99386978 0.60394794 -0.95592868 -0.98339111 0.27486214
-5.37103367 -9.93012333 -0.17538516 -0.94793695 -0.97711849 -0.07981937
-5.57957172 -10.04737854 1.01852810 -0.98474193 -0.98865628 0.46354130
-5.40951681 -10.07519531 1.40834093 -0.95472884 -0.99139345 0.64094859
-5.49159288 -9.93153954 0.22261786 -0.96921450 -0.97725785 0.10131539
-5.36278296 -10.04532719 0.60525084 -0.94648075 -0.98845446 0.27545509
-5.34133911 -10.02551174 -0.17561792 -0.94269615 -0.98650461 -0.07992529
-5.59735489 -9.87001038 2.18194103 -0.98788053 -0.97120339 0.99302095
-5.46587324 -9.98962498 1.00790977 -0.96467525 -0.98297340 0.45870879
-5.36919165 -10.15282631 1.41504574 -0.94761187 -0.99903232 0.64400005
-5.41192675 -9.93422031 0.22147477 -0.95515418 -0.97752160 0.10079516
-5.58236885 -9.95283031 2.19459224 -0.98523563 -0.97935283 0.99877864
-5.41685009 -10.01176739 1.00750911 -0.95602310 -0.98515218 0.45852646
-5.36221838 -9.95432758 0.22128426 -0.94638115 -0.97950017 0.10070845
-5.52634811 -9.99974632 2.19727588 -0.97534847 -0.98396933 1.00000000
-5.57513475 -9.86568165 -0.22807340 -0.98395884 -0.97077745 -0.10379826
-5.36409855 -10.06493950 1.00971293 -0.94671297 -0.99038428 0.45952943
-5.33225012 -10.04968548 0.22350694 -0.94109201 -0.98888332 0.10172002
-5.55693817 -9.96711922 0.54177660 -0.98074734 -0.98075885 0.24656740
-5.44656897 -10.00321102 2.19037533 -0.96126819 -0.98431027 0.99685949
-5.44666147 -9.78181934 -0.22699063 -0.96128452 -0.96252543 -0.10330547
-5.49116230 -9.93906116 1.31713951 -0.96913850 -0.97799796 0.59944201
-5.46334457 -9.94589806 0.53797042 -0.96422893 -0.97867072 0.24483517
-5.39563131 -10.05974388 2.19535899 -0.95227820 -0.98987305 0.99912763
-5.43334961 -9.90343094 -0.22778678 -0.95893514 -0.97449195 -0.10366781
-5.44002342 -9.99425507 1.32019222 -0.96011299 -0.98342901 0.60083133
-5.56154013 -9.93983269 0.14674090 -0.98155951 -0.97807384 0.06678310
-5.40265226 -9.98353672 0.53820831 -0.95351732 -0.98237431 0.24494344
-5.36052275 -9.91803932 -0.22761163 -0.94608188 -0.97592938 -0.10358810
-5.46863222 -9.85406494 0.90935093 -0.96516216 -0.96963435 0.41385379
-5.36583424 -10.00727940 1.31713951 -0.94701928 -0.98471057 0.59944201
-5.46120930 -9.90636158 0.14479232 -0.96385211 -0.97478032 0.06589629
-5.34358644 -10.02432632 0.53868407 -0.94309276 -0.98638797 0.24515997
-5.44590902 -9.95979786 0.91694200 -0.96115172 -0.98003840 0.41730854
-5.32980824 -10.09161758 1.32451677 -0.94066101 -0.99300939 0.60279948
-5.40268803 -9.94750118 0.14499217 -0.95352364 -0.97882843 0.06598724
-5.38846111 -9.96609974 0.91490537 -0.95101273 -0.98065853 0.41638166
-5.36049700 -9.98164845 0.14524199 -0.94607735 -0.98218852 0.06610093
-5.34827852 -10.04190350 0.91934896 -0.94392085 -0.98811758 0.41840398
-5.66602421 -9.97571373 2.10100245 -1.00000000 -0.98160452 0.95618510
-5.57144308 -9.95455265 2.08892679 -0.98330730 -0.97952229 0.95068938
-5.49259329 -9.96012115 2.08270597 -0.96939105 -0.98007023 0.94785821
-5.43555450 -10.00479126 2.08490157 -0.95932424 -0.98446572 0.94885743
-5.40421915 -10.05971241 2.09112239 -0.95379388 -0.98986995 0.95168859
