-4.21202850 8.00658417 2.02001214 -0.87722069 0.99286824 0.95538151
-4.22811127 7.91638565 2.00362539 -0.88057017 0.98168302 0.94763130
-4.24322796 7.82630348 1.98723841 -0.88371843 0.97051227 0.93988091
-4.23957396 7.73277664 1.96819413 -0.88295746 0.95891434 0.93087375
-4.27188730 7.67705107 1.96066499 -0.88968718 0.95200402 0.92731279
-4.15574360 7.78790998 1.50421953 -0.86549848 0.96575123 0.71143311
-4.29789114 7.61104965 1.95047855 -0.89510292 0.94381940 0.92249501
-4.22250128 7.79452038 1.51074314 -0.87940180 0.96657091 0.71451855
-4.35633707 7.60248470 1.95535028 -0.90727520 0.94275725 0.92479914
-4.24946547 7.72817659 1.50284624 -0.88501751 0.95834386 0.71078360
-4.08980608 7.98010540 0.02666401 -0.85176593 0.98958468 0.01261096
-4.42075014 7.60358763 1.96287942 -0.92069024 0.94289404 0.92836010
-4.28444052 7.67726755 1.49803936 -0.89230162 0.95203084 0.70851016
-4.11853933 7.91350174 0.02582011 -0.85775012 0.98132539 0.01221184
-4.46644783 7.57230616 1.96199369 -0.93020749 0.93901491 0.92794120
-4.13699865 7.90057659 0.64241862 -0.86159456 0.97972262 0.30383721
-3.98358989 7.80621290 -0.26791656 -0.82964480 0.96802092 -0.12671337
-4.31279325 7.64328289 1.49529254 -0.89820653 0.94781649 0.70721102
-4.13988066 7.86396170 0.02519637 -0.86219478 0.97518212 0.01191683
-4.52113199 7.58295965 1.97040856 -0.94159633 0.94033605 0.93192112
-4.22792292 8.03911304 1.97570431 -0.88053095 0.99690199 0.93442577
-4.20534372 7.90956879 0.64590728 -0.87582844 0.98083770 0.30548722
-4.03718042 7.78989601 -0.26806495 -0.84080583 0.96599752 -0.12678355
-4.36073208 7.61603403 1.49529254 -0.90819055 0.94443750 0.70721102
-4.17122364 7.80432844 0.02449924 -0.86872244 0.96778721 0.01158712
-4.56564808 7.54940319 1.96907985 -0.95086747 0.93617481 0.93129265
-4.24354506 7.94685459 1.95928323 -0.88378447 0.98546135 0.92665929
-4.15810108 7.96703386 0.34081936 -0.86598945 0.98796374 0.16119334
-4.23880196 7.85322046 0.64294189 -0.88279665 0.97385013 0.30408472
-4.10194778 7.79442406 -0.26856944 -0.85429466 0.96655899 -0.12702215
-4.42340374 7.61400509 1.50044274 -0.92124289 0.94418585 0.70964688
-4.21634626 7.77094412 0.02435248 -0.87811995 0.96364731 0.01151771
-4.65086460 7.58199358 1.98546684 -0.96861517 0.94021624 0.93904305
-4.24056768 7.82206106 1.93465149 -0.88316441 0.96998614 0.91500950
-4.20145226 7.96234941 0.95990288 -0.87501800 0.98738283 0.45399404
-4.14891005 7.82970858 0.33411500 -0.86407530 0.97093451 0.15802246
-4.26979637 7.79327536 0.63962764 -0.88925177 0.96641654 0.30251721
-4.15273285 7.77202034 -0.26862881 -0.86487144 0.96378082 -0.12705022
-4.48421335 7.60809851 1.50490630 -0.93390745 0.94345343 0.71175796
-4.26315117 7.74079990 0.02427909 -0.88786775 0.95990926 0.01148300
-4.72012568 7.58734941 1.99476755 -0.98303986 0.94088042 0.94344187
-4.26431751 7.74901247 1.92298377 -0.88811070 0.96092767 0.90949112
-4.22692013 7.89035034 0.95360315 -0.88032210 0.97845447 0.45101452
-4.20942593 7.82456541 0.33539200 -0.87667865 0.97029674 0.15862644
-4.31478930 7.75933743 0.63892990 -0.89862221 0.96220803 0.30218720
-4.19765377 7.73875189 -0.26851010 -0.87422693 0.95965528 -0.12699409
-4.54207754 7.59666061 1.50833976 -0.94595855 0.94203508 0.71338183
-4.21104145 7.94060183 1.48521936 -0.87701511 0.98468596 0.70244682
-4.31072426 7.71211815 0.02424240 -0.89777559 0.95635253 0.01146565
-4.78441477 7.58389664 2.00185370 -0.99642903 0.94045222 0.94679332
-4.09732533 7.95291710 -0.02399533 -0.85333198 0.98621315 -0.01134879
-4.29680061 7.69304609 1.91563749 -0.89487582 0.95398748 0.90601665
-4.25736427 7.82879829 0.94875717 -0.88666254 0.97082162 0.44872260
-4.24408722 7.77170324 0.33379573 -0.88389742 0.96374148 0.15787145
-4.36935616 7.74247122 0.63997650 -0.90998662 0.96011651 0.30268219
-4.25781727 7.73321962 -0.26886621 -0.88675690 0.95896924 -0.12716250
-4.61125565 7.60330153 1.51555002 -0.96036595 0.94285858 0.71679199
-4.23106098 7.85835552 1.47455299 -0.88118452 0.97448689 0.69740206
-4.37791681 7.71788502 0.02493953 -0.91176951 0.95706767 0.01179536
-4.11213923 7.85960054 -0.02496252 -0.85641718 0.97464132 -0.01180623
-4.33258581 7.64378309 1.91001976 -0.90232861 0.94787854 0.90335971
-4.28268194 7.78780031 0.94584966 -0.89193535 0.96573758 0.44734746
-4.28454113 7.75860167 0.33422139 -0.89232254 0.96211678 0.15807278
-4.41669750 7.74080610 0.64189529 -0.91984618 0.95991004 0.30358970
-4.17829132 7.95007753 0.60213196 -0.87019438 0.98586106 0.28478330
-4.29811907 7.72004938 -0.26898491 -0.89515036 0.95733607 -0.12721865
-4.68527365 7.64355469 1.52825391 -0.97578138 0.94785023 0.72280037
-3.96851444 7.76097012 -0.31881982 -0.82650506 0.96241051 -0.15078849
-4.24081182 7.78804207 1.46488655 -0.88321525 0.96576756 0.69283026
-4.43121719 7.72661924 0.02556328 -0.92287016 0.95815074 0.01209036
-4.12957191 7.80297136 -0.02549702 -0.86004782 0.96761894 -0.01205903
-4.36565685 7.61819172 1.90872335 -0.90921617 0.94470507 0.90274656
-4.32570028 7.75035000 0.94439584 -0.90089458 0.96109354 0.44665986
-4.33222437 7.72978783 0.33411500 -0.90225333 0.95854366 0.15802246
-4.11324835 7.98491335 0.29017061 -0.85664815 0.99018091 0.13723861
-4.48428822 7.74562025 0.64520955 -0.93392301 0.96050704 0.30515721
-4.19545650 7.86204481 0.59638035 -0.87376928 0.97494441 0.28206304
-4.36728239 7.72940683 -0.26960814 -0.90955472 0.95849645 -0.12751341
-4.06306839 7.82471752 -0.32089522 -0.84619743 0.97031558 -0.15177006
-4.28491163 7.75260210 1.46321988 -0.89239973 0.96137279 0.69204199
-4.50087929 7.73487186 0.02633379 -0.93737835 0.95917416 0.01245478
-4.17663240 7.77334309 -0.02554792 -0.86984891 0.96394479 -0.01208310
-4.43005657 7.61934853 1.91606963 -0.92262840 0.94484848 0.90622103
-4.37332916 7.72129297 0.94415355 -0.91081405 0.95749027 0.44654527
-4.18579054 7.97940397 0.91010195 -0.87175620 0.98949772 0.43044028
-4.39755917 7.73188925 0.33592409 -0.91586035 0.95880425 0.15887809
-4.14950800 7.93232775 0.28874215 -0.86419982 0.98365992 0.13656300
-4.55717754 7.75846767 0.64939600 -0.94910336 0.96210015 0.30713722
-4.22775412 7.80394363 0.59342241 -0.88049579 0.96773946 0.28066406
-4.44072723 7.74512815 -0.27035004 -0.92485076 0.96044600 -0.12786430
-4.10472345 7.78486681 -0.32056317 -0.85487270 0.96537381 -0.15161301
-4.32104731 7.70313835 1.45888674 -0.89992553 0.95523900 0.68999261
-4.57184029 7.74427271 0.02714099 -0.95215708 0.96033990 0.01283656
-4.22157717 7.73991585 -0.02564973 -0.87920934 0.95979965 -0.01213125
-4.49760723 7.62504816 1.92471230 -0.93669689 0.94555527 0.91030866
-4.42970228 7.70741415 0.94609195 -0.92255467 0.95576918 0.44746205
-4.19585705 7.87746000 0.90015829 -0.87385273 0.97685599 0.42573735
-4.47211027 7.74902105 0.33869097 -0.93138677 0.96092874 0.16018671
-4.17873812 7.86723804 0.28664705 -0.87028742 0.97558838 0.13557211
-4.63859463 7.78437757 0.65497786 -0.96605974 0.96531320 0.30977723
-4.27192163 7.76848173 0.59260076 -0.88969433 0.96334195 0.28027546
-4.50949335 7.75159931 -0.27094358 -0.93917239 0.96124846 -0.12814502
-4.14979744 7.75186253 -0.32039711 -0.86426008 0.96128112 -0.15153447
-4.37421989 7.68441677 1.46055329 -0.91099960 0.95291740 0.69078082
-4.27205372 7.71674204 -0.02559882 -0.88972187 0.95692593 -0.01210718
-4.55042171 7.60502863 1.92687297 -0.94769633 0.94307274 0.91133058
-4.49912500 7.71539593 0.95118016 -0.93701303 0.95675898 0.44986856
-4.22927380 7.82119799 0.89622712 -0.88081229 0.96987915 0.42387807
-4.55110168 7.77240419 0.34188354 -0.94783795 0.96382838 0.16169666
-4.20353794 7.79505301 0.28417104 -0.87545240 0.96663702 0.13440105
-4.32161522 7.74323034 0.59276509 -0.90004385 0.96021062 0.28035319
-4.57953596 7.75923014 -0.27156678 -0.95375985 0.96219474 -0.12843977
-4.20792866 7.74322653 -0.32081220 -0.87636685 0.96021014 -0.15173079
-4.43125725 7.67217064 1.46355331 -0.92287850 0.95139879 0.69219971
-4.33313704 7.71244240 -0.02526794 -0.90244341 0.95639277 -0.01195068
-4.61729240 7.60804939 1.93508363 -0.96162319 0.94344735 0.91521388
-4.09043455 7.99767160 -0.05722410 -0.85189682 0.99176300 -0.02706461
-4.24559307 8.05443001 1.91304779 -0.88421100 0.99880141 0.90479183
-4.56679249 7.71939564 0.95578378 -0.95110583 0.95725501 0.45204589
-4.25834179 7.75785303 0.89137089 -0.88686615 0.96202397 0.42158127
-4.63772917 7.80710173 0.34582102 -0.96587950 0.96813112 0.16355893
-4.25243282 7.76848793 0.28417104 -0.88563550 0.96334273 0.13440105
-4.37703037 7.72808027 0.59391540 -0.91158491 0.95833194 0.28089723
-4.25553560 7.71488190 -0.32077068 -0.88628173 0.95669526 -0.15171115
-4.49029922 7.66291761 1.46721983 -0.93517488 0.95025134 0.69393378
-4.39334774 7.70593929 -0.02496252 -0.91498321 0.95558631 -0.01180623
-4.67520189 7.59554148 1.93940496 -0.97368377 0.94189626 0.91725767
-4.09246016 7.87963247 -0.05815752 -0.85231870 0.97712541 -0.02750608
-4.25348949 7.94836998 1.89380622 -0.88585556 0.98564929 0.89569139
-4.63073254 7.74373150 0.96232581 -0.96442235 0.96027279 0.45513999
-4.29005194 7.72900438 0.89021468 -0.89347029 0.95844656 0.42103443
-4.29766464 7.76411295 0.28502813 -0.89505577 0.96280020 0.13480642
-4.42918348 7.73508024 0.59654468 -0.92244661 0.95919997 0.28214076
-4.19959545 8.03361225 0.55835217 -0.87463129 0.99621987 0.26407731
-4.30348396 7.71572495 -0.32126880 -0.89626771 0.95679981 -0.15194675
-4.52936316 7.64677000 1.46821976 -0.94331056 0.94824892 0.69440675
-4.44552755 7.71290970 -0.02455528 -0.92585051 0.95645070 -0.01161362
-4.75513172 7.64482641 1.95798683 -0.99033040 0.94800794 0.92604613
-4.11553335 7.83373499 -0.05842677 -0.85712403 0.97143382 -0.02763343
-4.23387623 7.82344484 1.86829007 -0.88177079 0.97015774 0.88362330
-4.34435606 7.71229553 0.89160216 -0.90477997 0.95637453 0.42169064
-4.25419617 8.06409550 1.19216442 -0.88600278 1.00000000 0.56384408
-4.35318375 7.74916458 0.28569475 -0.90661848 0.96094650 0.13512170
-4.50263119 7.75024223 0.60065299 -0.93774325 0.96108019 0.28408381
-4.12145424 8.04611397 0.25095376 -0.85835719 0.99777019 0.11869067
-4.20116854 7.91558456 0.55038375 -0.87495893 0.98158365 0.26030856
-4.37640190 7.73209333 -0.32230648 -0.91145402 0.95882958 -0.15243752
-4.60868454 7.67063379 1.47855282 -0.95983046 0.95120817 0.69929385
-4.51099586 7.71421242 -0.02412259 -0.93948531 0.95661223 -0.01140898
-3.98740244 7.73680353 -0.35334507 -0.83043879 0.95941371 -0.16711749
-4.14482164 7.77071142 -0.05880373 -0.86322379 0.96361846 -0.02781171
-4.25552750 7.74704027 1.85615957 -0.88628000 0.96068311 0.87788612
-4.39861917 7.69520855 0.89298964 -0.91608113 0.95425564 0.42234686
-4.23534775 7.90826607 1.17077792 -0.88207728 0.98067611 0.55372912
-4.41558266 7.74598932 0.28702798 -0.91961402 0.96055275 0.13575228
-4.58047581 7.77166271 0.60541856 -0.95395559 0.96373641 0.28633773
-4.16914940 8.01474762 0.25069588 -0.86829042 0.99388057 0.11856870
-4.23277235 7.85571814 0.54747224 -0.88154089 0.97415984 0.25893155
-4.44175911 7.73395920 -0.32301211 -0.92506564 0.95906097 -0.15277126
-4.68337154 7.68536901 1.48721933 -0.97538525 0.95303547 0.70339274
-4.58377028 7.72705126 -0.02351174 -0.95464170 0.95820433 -0.01112007
-4.07690954 7.78944540 -0.35552278 -0.84908003 0.96594161 -0.16814746
-4.22891283 7.96095896 1.42496443 -0.88073713 0.98721039 0.67394876
-4.19834614 7.75329781 -0.05871398 -0.87437111 0.96145910 -0.02776926
-4.28977489 7.69455910 1.84988511 -0.89341259 0.95417511 0.87491852
-4.46772957 7.70355558 0.89784580 -0.93047440 0.95529073 0.42464364
-4.19668102 7.99176931 0.87648559 -0.87402433 0.99103111 0.41454113
-4.27166414 7.85718727 1.16673183 -0.88964075 0.97434205 0.55181551
-4.48608255 7.75618696 0.28912306 -0.93429673 0.96181732 0.13674316
-4.16413021 7.88427496 0.24562401 -0.86724514 0.97770107 0.11616991
-4.27147770 7.80974722 0.54578662 -0.88960189 0.96845919 0.25813431
-4.52034807 7.75779676 -0.32425734 -0.94143307 0.96201700 -0.15336020
-4.12671375 7.76543951 -0.35557228 -0.85945255 0.96296471 -0.16817087
-4.23367882 7.85092211 1.40962708 -0.88172972 0.97356510 0.66669482
-4.24601078 7.72501564 -0.05873193 -0.88429803 0.95795190 -0.02777775
-4.32546520 7.64535379 1.84444726 -0.90084565 0.94807333 0.87234664
-4.53611422 7.70962191 0.90247077 -0.94471657 0.95604300 0.42683104
-4.22051954 7.91619682 0.87022692 -0.87898910 0.98165959 0.41158104
-4.30174589 7.79558229 1.16095173 -0.89590573 0.96670264 0.54908174
-4.56796312 7.78478146 0.29226571 -0.95134962 0.96536326 0.13822950
-4.20789623 7.84740257 0.24510823 -0.87636006 0.97312868 0.11592598
-4.30782890 7.76011801 0.54379451 -0.89717263 0.96230483 0.25719213
-4.16398287 7.71826792 -0.35497835 -0.86721444 0.95711511 -0.16788997
-4.25531721 7.77400637 1.40036070 -0.88623625 0.96402705 0.66231221
-4.30424786 7.71562767 -0.05855243 -0.89642680 0.95678777 -0.02769286
-4.37243891 7.61633158 1.84402895 -0.91062868 0.94447440 0.87214881
-4.03408432 7.84992647 -0.11759207 -0.84016103 0.97344166 -0.05561615
-4.61793613 7.73733759 0.91010195 -0.96175730 0.95947993 0.43044028
-4.24357510 7.84064245 0.86396819 -0.88379073 0.97229040 0.40862092
-4.35161257 7.77012444 1.16124082 -0.90629125 0.96354568 0.54921848
-4.24177074 7.79276419 0.24373280 -0.88341498 0.96635318 0.11527545
-4.36829519 7.75371981 0.54563338 -0.90976566 0.96151143 0.25806183
-4.21625328 7.69895840 -0.35517633 -0.87810057 0.95472062 -0.16798359
-4.29733896 7.73505068 1.39812410 -0.89498794 0.95919633 0.66125441
-4.36649132 7.71276426 -0.05830112 -0.90938997 0.95643264 -0.02757400
-4.42613697 7.59883499 1.84653866 -0.92181212 0.94230467 0.87333578
-4.07227230 7.80312252 -0.11764715 -0.84811425 0.96763766 -0.05564220
-4.27472639 7.81011057 0.86262703 -0.89027852 0.96850425 0.40798661
-4.38720083 7.74781179 1.16095173 -0.91370302 0.96077877 0.54908174
-4.28134871 7.77793360 0.24399069 -0.89165771 0.96451408 0.11539742
-4.41469431 7.75035334 0.54716575 -0.91942900 0.96109396 0.25878659
-4.15333128 7.92680264 0.49389786 -0.86499608 0.98297477 0.23359309
-4.26124096 7.69472599 -0.35562176 -0.88746995 0.95419580 -0.16819426
-4.32791615 7.70439959 1.39620686 -0.90135610 0.95539540 0.66034764
-4.41076803 7.70596981 -0.05815752 -0.91861129 0.95559007 -0.02750608
-4.47783566 7.60482121 1.85323143 -0.93257916 0.94304705 0.87650120
-4.11736441 7.79978323 -0.11760584 -0.85750538 0.96722358 -0.05562266
-4.32371426 7.78309774 0.86262703 -0.90048099 0.96515447 0.40798661
-4.44569349 7.73723030 1.16384184 -0.92588508 0.95946658 0.55044866
-4.18042183 7.90561342 1.12147713 -0.87063807 0.98034722 0.53041190
-4.33698368 7.76307487 0.24459244 -0.90324455 0.96267152 0.11568203
-4.12328005 8.02403069 0.19229263 -0.85873741 0.99503171 0.09094640
-4.48534298 7.76039505 0.55053699 -0.93414271 0.96233916 0.26038104
-4.19279146 7.88115263 0.49234781 -0.87321424 0.97731388 0.23285998
-4.32720900 7.69913292 -0.35651264 -0.90120882 0.95474225 -0.16861561
-4.37427521 7.67362881 1.39556777 -0.91101110 0.95157963 0.66004539
-3.98882246 7.70251465 -0.40870333 -0.83073455 0.95516163 -0.19329964
-4.47019005 7.69710255 -0.05796006 -0.93098688 0.95449048 -0.02741269
-4.54264498 7.60504055 1.86034250 -0.94607675 0.94307423 0.87986445
-4.15782452 7.75787449 -0.11764715 -0.86593187 0.96202660 -0.05564220
-4.23342896 8.00557423 1.82102036 -0.88167769 0.99274296 0.86126673
-4.36959124 7.75059032 0.86195648 -0.91003555 0.96112335 0.40766948
-4.51022959 7.73646355 1.16846597 -0.93932569 0.95937151 0.55263567
-4.22441483 7.86870956 1.11980200 -0.87980032 0.97577089 0.52961963
-4.39556885 7.75303125 0.24545208 -0.91544580 0.96142602 0.11608860
-4.13402700 7.92168331 0.18914670 -0.86097562 0.98233998 0.08945850
-4.56135464 7.77844286 0.55467445 -0.94997329 0.96457720 0.26233789
-4.21390533 7.80192709 0.48812038 -0.87761158 0.96748942 0.23086059
-4.40135622 7.71688890 -0.35779947 -0.91665113 0.95694411 -0.16922423
-4.42736578 7.65452671 1.39716542 -0.92206806 0.94921082 0.66080099
-4.10382938 7.80484772 -0.41319662 -0.85468650 0.96785158 -0.19542478
-4.54190445 7.70844078 -0.05754721 -0.94592249 0.95589650 -0.02721743
-4.60051155 7.59305239 1.86452544 -0.95812833 0.94158763 0.88184279
-4.21695566 7.75094652 -0.11759666 -0.87824684 0.96116751 -0.05561832
-4.23473167 7.88721514 1.79974651 -0.88194895 0.97806567 0.85120505
-4.42513895 7.73504257 0.86352116 -0.92160428 0.95919532 0.40840951
-4.17990398 7.93481922 0.80859172 -0.87053025 0.98396891 0.38243017
-4.56481743 7.71817875 1.17019999 -0.95069450 0.95710409 0.55345583
-4.24829054 7.79500198 1.11226416 -0.88477284 0.96663064 0.52605456
-4.46120119 7.75466537 0.24691346 -0.92911476 0.96162868 0.11677977
-4.15110636 7.83366632 0.18658605 -0.86453271 0.97142529 0.08824743
-4.64083910 7.80097485 0.55927157 -0.96652716 0.96737134 0.26451215
-4.26188803 7.77354527 0.48797947 -0.88760471 0.96396989 0.23079394
-4.47388601 7.73055935 -0.35898730 -0.93175662 0.95863938 -0.16978602
-4.48941660 7.65036440 1.40163887 -0.93499106 0.94869465 0.66291672
-4.15185022 7.77714300 -0.41313422 -0.86468762 0.96441603 -0.19539526
-4.61908722 7.72775221 -0.05704460 -0.96199703 0.95829123 -0.02697971
-4.67279530 7.60393143 1.87456453 -0.97318256 0.94293666 0.88659084
-4.26942348 7.73130989 -0.11757831 -0.88917410 0.95873243 -0.05560964
-4.24685478 7.79155207 1.78369093 -0.88447380 0.96620286 0.84361142
-4.48967886 7.73455143 0.86709756 -0.93504572 0.95913440 0.41010100
-4.20352411 7.85923243 0.80271000 -0.87544954 0.97459567 0.37964836
-4.65410089 7.75713348 1.18176019 -0.96928918 0.96193475 0.55892330
-4.29527473 7.76468515 1.11170578 -0.89455801 0.96287119 0.52579051
-4.53916121 7.77646065 0.24940643 -0.94535118 0.96433139 0.11795884
-4.19552994 7.79861832 0.18622024 -0.87378460 0.96707910 0.08807441
-4.30774784 7.74137688 0.48755673 -0.89715570 0.95998079 0.23059401
-4.55590630 7.75911760 -0.36062059 -0.94883859 0.96218079 -0.17055850
-4.55564451 7.65250063 1.40739036 -0.94878405 0.94895959 0.66563696
-4.19399405 7.73858452 -0.41269735 -0.87346470 0.95963454 -0.19518864
-4.20619154 7.99520254 1.34574187 -0.87600505 0.99145681 0.63647979
-4.76512241 7.64569235 1.89255130 -0.99241114 0.94811529 0.89509785
-4.33544445 7.73577642 -0.11749569 -0.90292400 0.95928633 -0.05557056
-4.28533602 7.74583197 1.77927566 -0.89248812 0.96053326 0.84152323
-4.01283884 7.90547514 -0.16732520 -0.83573633 0.98033005 -0.07913784
-4.55944824 7.74210548 0.87179160 -0.94957626 0.96007115 0.41232109
-4.24337149 7.81516504 0.80060935 -0.88374835 0.96913099 0.37865484
-4.34494209 7.73927307 1.11198497 -0.90490198 0.95971990 0.52592254
-4.64516401 7.84393978 0.25422040 -0.96742791 0.97269928 0.12023565
-4.23299980 7.75102758 0.18534231 -0.88158828 0.96117753 0.08765919
-4.37486649 7.74720716 0.49023408 -0.91113424 0.96070379 0.23186028
-4.62412500 7.65748024 1.41378093 -0.96304619 0.94957709 0.66865945
-4.24925041 7.72435665 -0.41313422 -0.88497275 0.95787019 -0.19539526
-4.21924114 7.89877701 1.33366454 -0.87872285 0.97949946 0.63076770
-4.39381123 7.72579098 -0.11744979 -0.91507977 0.95804805 -0.05554885
-4.32245588 7.69822645 1.77445889 -0.90021890 0.95462990 0.83924508
-3.94726253 7.68745327 -0.16658038 -0.82207906 0.95329392 -0.07878558
-4.62139320 7.76317072 0.87737972 -0.96247727 0.96268338 0.41496402
-4.26585293 7.76889801 0.79745841 -0.88843048 0.96339363 0.37716457
-4.37746954 7.71181393 1.11086822 -0.91167635 0.95631480 0.52539438
-4.27813864 7.74675989 0.18600076 -0.89098912 0.96064836 0.08797061
-4.41625166 7.73517895 0.49093866 -0.91975331 0.95921224 0.23219351
-4.16297340 8.00213814 0.45072824 -0.86700422 0.99231690 0.21317567
-4.69422626 7.69114017 1.42432547 -0.97764587 0.95375115 0.67364657
-4.29915142 7.72873497 -0.41400790 -0.89536542 0.95841312 -0.19580847
-4.22460032 7.81959200 1.32339883 -0.87983894 0.96968001 0.62591249
-4.44407034 7.72930527 -0.11738554 -0.92554700 0.95848387 -0.05551846
-4.34134388 7.64706182 1.76723385 -0.90415263 0.94828510 0.83582795
-4.06793785 7.80065393 -0.16709909 -0.84721154 0.96733153 -0.07903090
-4.31651020 7.74542093 0.79787850 -0.89898062 0.96048230 0.37736326
-4.43469763 7.69962311 1.11338079 -0.92359501 0.95480305 0.52658272
-4.19294548 7.98128605 1.08087766 -0.87324637 0.98973107 0.51121008
-4.33062077 7.72670984 0.18629341 -0.90191936 0.95816201 0.08810902
-4.49365187 7.75740671 0.49502516 -0.93587315 0.96196860 0.23412625
-4.18882990 7.92999649 0.44734073 -0.87238920 0.98337084 0.21157351
-4.34958458 7.70505667 -0.41413271 -0.90586889 0.95547688 -0.19586751
-4.25566101 7.75991583 1.31766212 -0.88630784 0.96227974 0.62319922
-4.49756622 7.70987940 -0.11736259 -0.93668836 0.95607489 -0.05550761
-4.39222813 7.62473392 1.76843810 -0.91475004 0.94551635 0.83639747
-4.11875010 7.77847099 -0.16711240 -0.85779399 0.96458071 -0.07903720
-4.36314011 7.71467972 0.79745841 -0.90869200 0.95667017 0.37716457
-4.50488424 7.70927477 1.11952281 -0.93821245 0.95599991 0.52948761
-4.21397257 7.90063858 1.07256365 -0.87762558 0.97973031 0.50727791
-4.40073395 7.73761845 0.18790296 -0.91652155 0.95951474 0.08887026
-4.56647062 7.77035427 0.49840710 -0.95103878 0.96357417 0.23572578
-4.09859228 7.92029715 0.14539535 -0.85359579 0.98216808 0.06876594
-4.20636749 7.84379482 0.44291091 -0.87604171 0.97268128 0.20947839
-4.43947506 7.75052404 -0.41675380 -0.92458999 0.96111512 -0.19710717
-4.29954576 7.72437525 1.31615245 -0.89544749 0.95787251 0.62248522
-4.56722784 7.71766138 -0.11726621 -0.95119649 0.95703995 -0.05546203
-4.45285034 7.61900663 1.77365613 -0.92737561 0.94480610 0.83886540
-4.16754198 7.75243902 -0.16711240 -0.86795568 0.96135259 -0.07903720
-4.42730284 7.71475029 0.80081940 -0.92205495 0.95667893 0.37875420
-4.56128168 7.69446468 1.12175632 -0.94995809 0.95416337 0.53054398
-4.19289923 8.01227093 0.77190280 -0.87323672 0.99357343 0.36507785
-4.23604822 7.82352543 1.06478608 -0.88222319 0.97016776 0.50359941
-4.46518421 7.73754883 0.18907353 -0.92994434 0.95950609 0.08942389
-4.65489388 7.80842972 0.50390273 -0.96945429 0.96829581 0.23832498
-4.14173889 7.88201666 0.14495082 -0.86258179 0.97742105 0.06855570
-4.25173521 7.81020832 0.44238976 -0.88549024 0.96851635 0.20923191
-4.50909615 7.75882053 -0.41806433 -0.93908966 0.96214396 -0.19772699
-4.34508896 7.69203711 1.31524670 -0.90493262 0.95386237 0.62205684
-4.51357317 7.61281776 1.77887428 -0.94002205 0.94403863 0.84133339
-4.22098017 7.73486757 -0.16714564 -0.87908500 0.95917362 -0.07905292
-4.48964453 7.71087599 0.80376029 -0.93503857 0.95619851 0.38014510
-4.65223885 7.73703337 1.13348198 -0.96890134 0.95944220 0.53608972
-4.19721317 7.89976454 0.76208586 -0.87413514 0.97962189 0.36043483
-4.27553558 7.77940798 1.06210411 -0.89044702 0.96469688 0.50233096
-4.54992485 7.77151585 0.19170734 -0.94759285 0.96371824 0.09066958
-4.17228127 7.82060719 0.14368071 -0.86894268 0.96980590 0.06795499
-4.29587793 7.77461672 0.44173831 -0.89468366 0.96410275 0.20892380
-4.39529181 7.66801977 1.31585050 -0.91538811 0.95088404 0.62234241
-4.56634665 7.59271479 1.78088117 -0.95101297 0.94154572 0.84228253
-4.27825403 7.72391939 -0.16720550 -0.89101321 0.95781595 -0.07908123
-3.91747332 7.69194937 -0.20657706 -0.81587499 0.95385146 -0.09770234
-4.56722641 7.73224354 0.80985212 -0.95119619 0.95884824 0.38302630
-4.24202204 7.86449051 0.76108414 -0.88346732 0.97524768 0.35996106
-4.33014679 7.76276255 1.06371331 -0.90182066 0.96263278 0.50309205
-4.20030451 7.75561571 0.14228359 -0.87477899 0.96174651 0.06729420
-4.34856272 7.75442553 0.44225946 -0.90565604 0.96159893 0.20917028
-4.14468050 8.02909565 0.40023372 -0.86319441 0.99565977 0.18929386
-4.46120453 7.67105627 1.32128537 -0.92911547 0.95126057 0.62491292
-4.64445686 7.61412382 1.79292297 -0.96728063 0.94420058 0.84797782
-4.33423042 7.73852682 -0.16733851 -0.90267116 0.95962739 -0.07914414
-4.21865177 8.02000332 1.73569465 -0.87860006 0.99453229 0.82091123
-4.00565100 7.77486229 -0.20748468 -0.83423936 0.96413320 -0.09813160
-4.65236712 7.79271650 0.81993508 -0.96892810 0.96634728 0.38779512
-4.27042341 7.82871056 0.75928104 -0.88938230 0.97081077 0.35910827
-4.35592651 7.72330618 1.06076324 -0.90718967 0.95773995 0.50169677
-4.24355507 7.74799347 0.14272813 -0.88378656 0.96080130 0.06750446
-4.39592791 7.75291967 0.44369265 -0.91552061 0.96141219 0.20984812
-4.17142868 7.98821354 0.39880639 -0.86876512 0.99059016 0.18861879
-4.51427126 7.67896175 1.32641816 -0.94016743 0.95224094 0.62734050
-4.70487070 7.63223791 1.80255628 -0.97986275 0.94644690 0.85253394
-4.39963531 7.74066210 -0.16745155 -0.91629273 0.95989215 -0.07919760
-4.21417236 7.89130592 1.71307564 -0.87766719 0.97857296 0.81021333
-4.07565117 7.79034758 -0.20785092 -0.84881794 0.96605349 -0.09830482
-4.31178522 7.78781462 0.75767827 -0.89799654 0.96573937 0.35835025
-4.42018127 7.72327137 1.06505430 -0.92057174 0.95773560 0.50372630
-4.17380667 7.91581535 1.00856864 -0.86926037 0.98161232 0.47701091
-4.28630161 7.71070766 0.14234710 -0.89268923 0.95617765 0.06732424
-4.06050205 7.92506075 0.08463623 -0.84566295 0.98275882 0.04002941
-4.46453810 7.75969839 0.44629842 -0.92980975 0.96225280 0.21108055
-4.16286850 7.85059023 0.39131296 -0.86698234 0.97352397 0.18507472
-4.58260536 7.68445349 1.33245683 -0.95439911 0.95292193 0.63019651
-4.46222830 7.73708868 -0.16754465 -0.92932868 0.95944905 -0.07924163
-4.23360920 7.80951929 1.70080769 -0.88171518 0.96843088 0.80441111
-4.12171650 7.75928068 -0.20780315 -0.85841179 0.96220100 -0.09828223
-4.36650419 7.77096462 0.75888038 -0.90939265 0.96364987 0.35891879
-4.47261715 7.70219278 1.06612706 -0.93149233 0.95512170 0.50423366
-4.19828939 7.84215641 1.00170028 -0.87435931 0.97247809 0.47376248
-4.34945774 7.70970583 0.14329968 -0.90584248 0.95605338 0.06777477
-4.11481047 7.90827036 0.08488605 -0.85697353 0.98067665 0.04014756
-4.52936602 7.75903463 0.44838303 -0.94331115 0.96217048 0.21206649
-4.19986248 7.80139875 0.38976669 -0.87468690 0.96742392 0.18434340
-4.66138077 7.70632792 1.34151483 -0.97080529 0.95563453 0.63448060
-4.52799129 7.73820543 -0.16765770 -0.94302487 0.95958751 -0.07929511
-4.27309179 7.76558924 1.69697392 -0.88993806 0.96298331 0.80259794
-4.17700386 7.74556780 -0.20791461 -0.86992627 0.96050048 -0.09833494
-4.41722345 7.74682856 0.75928104 -0.91995573 0.96065682 0.35910827
-4.16483259 7.93519974 0.69476396 -0.86739141 0.98401612 0.32859439
-4.54718065 7.71827698 1.07310009 -0.94702137 0.95711625 0.50753158
-4.23710394 7.79642630 0.99890196 -0.88244301 0.96680731 0.47243899
-4.41276979 7.70821381 0.14425226 -0.91902816 0.95586836 0.06822530
-4.13744926 7.83093214 0.08343711 -0.86168838 0.97108626 0.03946227
-4.61579847 7.79387426 0.45320374 -0.96131206 0.96649081 0.21434647
-4.24975061 7.77661037 0.38988563 -0.88507688 0.96434999 0.18439965
-4.59496832 7.74051714 -0.16777740 -0.95697385 0.95987421 -0.07935172
-4.31026745 7.71804857 1.69237351 -0.89768046 0.95708793 0.80042213
-4.23419476 7.73497868 -0.20805793 -0.88183713 0.95918739 -0.09840272
-4.47981691 7.74300432 0.76208586 -0.93299180 0.96018261 0.36043483
-4.17730665 7.83849239 0.68735802 -0.86998934 0.97202379 0.32509169
-4.61701870 7.72523212 1.07873213 -0.96156621 0.95797873 0.51019531
-4.27264738 7.74530172 0.99534059 -0.88984549 0.96046752 0.47075459
-4.48631430 7.72349167 0.14583990 -0.93434501 0.95776290 0.06897619
-4.17716026 7.78714037 0.08293747 -0.86995882 0.96565574 0.03922597
-4.29370642 7.74101448 0.38929090 -0.89423138 0.95993584 0.18411836
-4.34604311 7.66864300 1.68738961 -0.90513134 0.95096135 0.79806495
-4.29141665 7.72397614 -0.20820123 -0.89375448 0.95782298 -0.09847050
-4.55062628 7.75240850 0.76649350 -0.94773895 0.96134877 0.36251947
-4.21326447 7.78753948 0.68476593 -0.87747806 0.96570528 0.32386574
-4.31736755 7.71137047 0.99432302 -0.89915919 0.95625979 0.47027332
-4.57652473 7.76566601 0.14844361 -0.95313269 0.96299279 0.07020764
-4.22219706 7.75370884 0.08273762 -0.87933844 0.96151006 0.03913144
-4.35006189 7.72781992 0.39024246 -0.90596831 0.95829964 0.18456841
-4.38409185 7.65147924 1.68815637 -0.91305554 0.94883293 0.79842758
-4.35605717 7.75429773 -0.20866300 -0.90721691 0.96158308 -0.09868890
-4.62176418 7.78898621 0.77330524 -0.96255451 0.96588469 0.36574113
-4.24134874 7.75185585 0.68309963 -0.88332707 0.96128029 0.32307765
-4.36339140 7.70822573 0.99686688 -0.90874439 0.95586985 0.47147647
-4.26541090 7.74600124 0.08308736 -0.88833839 0.96055424 0.03929686
-4.40216684 7.73503304 0.39214554 -0.91681993 0.95919412 0.18546849
-4.44396591 7.64411879 1.69275689 -0.92552525 0.94792014 0.80060345
-4.42343569 7.75983000 -0.20896554 -0.92124951 0.96226913 -0.09883199
-4.29863644 7.74074221 0.68476593 -0.89525813 0.95990211 0.32386574
-4.41961002 7.69443750 0.99890196 -0.92045277 0.95416003 0.47243899
-4.31885290 7.72778606 0.08333718 -0.89946854 0.95829546 0.03941501
-4.47454643 7.74876928 0.39500019 -0.93189412 0.96089751 0.18681861
-4.50191832 7.63293076 1.69659054 -0.93759477 0.94653279 0.80241656
-4.48008347 7.74575138 -0.20909293 -0.93304729 0.96052325 -0.09889224
-4.34524059 7.71010637 0.68439567 -0.90496415 0.95610309 0.32369062
-4.48080158 7.68882751 1.00220895 -0.93319684 0.95346433 0.47400305
-4.38500500 7.73184252 0.08423652 -0.91324574 0.95879847 0.03984036
-4.54928207 7.76534891 0.39809275 -0.94745898 0.96295351 0.18828127
-4.55079985 7.60617590 1.69697392 -0.94777513 0.94321501 0.80259794
-4.54781961 7.75026608 -0.20939547 -0.94715440 0.96108311 -0.09903532
-4.20859194 7.96534395 1.64249289 -0.87650496 0.98775417 0.77683067
-4.40541410 7.70342398 0.68661743 -0.91749626 0.95527440 0.32474142
-4.54813099 7.69301081 1.00704229 -0.94721925 0.95398307 0.47628900
-4.45535088 7.74231291 0.08533572 -0.92789638 0.96009690 0.04036023
-4.62098932 7.61429834 1.70540822 -0.96239316 0.94422227 0.80658698
-4.21505547 7.85720921 1.62529421 -0.87785107 0.97434479 0.76869643
-4.46965647 7.70318794 0.68957978 -0.93087572 0.95524514 0.32614249
-4.63093519 7.72220469 1.01569152 -0.96446455 0.95760334 0.48037973
-4.52499628 7.75047350 0.08638495 -0.94240111 0.96110886 0.04085648
-4.70178747 7.63853073 1.71767616 -0.97922063 0.94722724 0.81238919
-4.23999310 7.78561783 1.61578000 -0.88304472 0.96546698 0.76419657
-4.55419588 7.73681641 0.69624513 -0.94848239 0.95941526 0.32929492
-4.17731667 8.00503826 2.11435127 -0.86999142 0.99267650 1.00000000
-4.27285671 7.75865316 1.61431634 -0.88988912 0.96212316 0.76350433
-4.63117981 7.78381681 0.70365107 -0.96451551 0.96524364 0.33279762
-4.20142746 7.95942354 2.10740590 -0.87501287 0.98702002 0.99671513
-4.30910110 7.70931196 1.60955918 -0.89743757 0.95600456 0.76125437
-4.22389936 7.88135862 2.09351492 -0.87969297 0.97733945 0.99014527
-4.35938692 7.68551016 1.61029112 -0.90791035 0.95305300 0.76160055
-4.22055674 7.75712490 2.06712246 -0.87899679 0.96193367 0.97766274
-4.41247463 7.66649961 1.61212075 -0.91896671 0.95069551 0.76246589
-4.24392223 7.68440866 2.05462074 -0.88386303 0.95291638 0.97174996
-4.46648264 7.64882565 1.61431634 -0.93021470 0.94850385 0.76350433
-4.27980471 7.63549900 2.04860139 -0.89133614 0.94685125 0.96890306
-4.53441858 7.65449047 1.62163484 -0.94436347 0.94920635 0.76696569
-4.32482100 7.60337734 2.04721212 -0.90071148 0.94286799 0.96824598
-4.57748270 7.64486265 1.62419641 -0.95333225 0.94801241 0.76817721
-4.36736488 7.59473515 2.05045342 -0.90957189 0.94179630 0.96977895
-4.65898180 7.67148638 1.63627207 -0.97030568 0.95131391 0.77388847
-4.43355322 7.59911823 2.05925083 -0.92335665 0.94233984 0.97393978
-4.74099445 7.69738579 1.64834774 -0.98738611 0.95452565 0.77959973
-4.48910904 7.58452463 2.06295514 -0.93492705 0.94053012 0.97569180
-4.54964495 7.57788420 2.06897449 -0.94753456 0.93970668 0.97853869
-4.60825729 7.56745386 2.07406783 -0.95974153 0.93841320 0.98094761
-4.67710400 7.57316256 2.08379149 -0.97407991 0.93912113 0.98554647
-4.75649309 7.59481668 2.09814525 -0.99061394 0.94180638 0.99233520
-4.80156088 7.58713627 2.10231256 -1.00000000 0.94085395 0.99430621
