2.19431257 6.27334595 1.47481477 0.95091093 0.97601438 0.60761833
2.11537004 6.17065382 1.44691265 0.91670096 0.96003741 0.59612274
2.14057326 6.42533731 2.25881147 0.92762285 0.99966133 0.93062216
2.11653852 6.30412626 1.47570050 0.91720736 0.98080319 0.60798323
2.03031945 6.22234344 2.18180871 0.87984413 0.96807933 0.89889729
2.08412838 6.33955574 1.48101521 0.90316236 0.98631537 0.61017293
2.02276802 6.30044556 2.20619297 0.87657166 0.98023051 0.90894353
2.20874286 6.30813169 1.13065815 0.95716435 0.98142636 0.46582708
2.05542040 6.35302162 1.48190105 0.89072168 0.98841035 0.61053789
2.12585330 6.22790861 1.83455133 0.92124391 0.96894515 0.75582850
1.97358501 6.28227901 2.19528413 0.85525811 0.97740418 0.90444911
2.18427444 6.36665916 1.13889849 0.94656086 0.99053210 0.46922207
2.10783434 6.30506945 1.85367954 0.91343540 0.98094994 0.76370925
1.94894433 6.34349060 2.21260977 0.84457999 0.98692751 0.91158724
2.11872578 6.30360651 1.12482131 0.91815519 0.98072231 0.46342230
2.06402659 6.30537748 1.84985387 0.89445120 0.98099786 0.76213312
1.90635192 6.34653187 2.20940137 0.82612246 0.98740071 0.91026539
2.08884168 6.34676886 1.13031483 0.90520483 0.98743755 0.46568561
2.02843809 6.33105898 1.85367954 0.87902880 0.98499340 0.76370925
1.88650024 6.42751408 2.23378563 0.81751966 1.00000000 0.92031157
2.04712749 6.35413647 1.12928474 0.88712788 0.98858380 0.46526122
2.24017096 6.31596184 -0.01490685 0.97078377 0.98264456 -0.00614157
1.99716723 6.37124205 1.86187744 0.86547750 0.99124515 0.76708674
2.20957160 6.31110287 0.44705215 0.95752347 0.98188859 0.18418387
2.18482184 6.28453398 -0.01578744 0.94679809 0.97775501 -0.00650437
2.16399527 6.24877357 1.42905259 0.93777287 0.97219133 0.58876449
2.17916298 6.31955957 0.44687772 0.94434583 0.98320431 0.18411200
2.23570395 6.26943588 -0.23663729 0.96884799 0.97540599 -0.09749371
2.16352797 6.31937981 -0.01531045 0.93757033 0.98317635 -0.00630785
2.15106058 6.30690527 1.44028807 0.93216759 0.98123556 0.59339345
2.24040389 6.30372000 0.67762691 0.97088474 0.98073995 0.27917984
2.17578745 6.15509748 0.20981821 0.94288301 0.95761710 0.08644435
2.14194083 6.34068489 0.44757545 0.92821550 0.98649102 0.18439947
2.04837823 6.16621590 2.12064576 0.88766992 0.95934695 0.87369835
2.17141294 6.21154737 -0.23550959 0.94098735 0.96639967 -0.09702910
2.10613871 6.27970982 -0.01633780 0.91270059 0.97700447 -0.00673111
2.12200546 6.35174990 1.44763434 0.91957647 0.98821253 0.59642011
2.15349436 6.18066931 0.65993923 0.93322223 0.96159559 0.27189258
2.18242383 6.30088758 0.21726751 0.94575894 0.98029929 0.08951343
2.04575181 6.28896666 2.15906715 0.88653177 0.97844464 0.88952786
2.17151594 6.34059334 -0.23731986 0.94103193 0.98647678 -0.09777492
2.06107807 6.27570343 -0.01666802 0.89317340 0.97638112 -0.00686716
2.08021641 6.35939503 1.44633794 0.90146708 0.98940194 0.59588599
2.15720081 6.32009029 0.67617315 0.93482846 0.98328686 0.27858090
2.14660740 6.32583475 0.21790601 0.93023777 0.98418063 0.08977649
2.18108582 6.33787918 1.81585157 0.94517910 0.98605448 0.74812424
1.99922013 6.28001213 2.15150881 0.86636710 0.97705150 0.88641381
2.09444761 6.24213886 -0.23556894 0.90763420 0.97115910 -0.09705355
2.17089915 6.30577993 1.09322989 0.94076467 0.98106045 0.45040676
2.01251435 6.25994587 -0.01721838 0.87212819 0.97392952 -0.00709391
2.23669910 6.25463152 -0.05331638 0.96927923 0.97310275 -0.02196615
2.04322386 6.38162994 1.44849861 0.88543624 0.99286127 0.59677619
2.11744809 6.33351946 0.67617315 0.91760153 0.98537624 0.27858090
2.12817144 6.31313372 1.80467331 0.92224848 0.98220456 0.74351889
2.22332215 6.28541517 0.41134390 0.96348232 0.97789210 0.16947220
1.95744228 6.28520727 2.14898944 0.84826261 0.97785974 0.88537586
1.92904413 5.86721182 -0.22951488 0.83595616 0.91282755 -0.09455930
2.13441586 6.32862902 1.09489655 0.92495453 0.98461533 0.45109341
2.20736623 6.29683971 -0.05293459 0.95656776 0.97966951 -0.02180886
2.08968306 6.33003855 1.80573797 0.90556949 0.98483467 0.74395752
2.18378592 6.29926062 0.41134390 0.94634920 0.98004615 0.16947220
1.93132031 6.34092188 2.16410613 0.83694255 0.98652786 0.89160389
2.25474453 6.27436781 -0.27627444 0.97709930 0.97617334 -0.11382407
2.09585834 6.34565639 1.09556317 0.90824556 0.98726451 0.45136806
2.16710329 6.30869532 -0.05296005 0.93911970 0.98151404 -0.02181935
2.22976446 6.25722408 0.63445455 0.96627408 0.97350609 0.26139298
2.21602607 6.19647312 0.17570238 0.96032053 0.96405441 0.07238875
2.05562115 6.32699394 1.80201185 0.89080864 0.98436093 0.74242234
2.15342760 6.30759668 0.41117957 0.93319333 0.98134309 0.16940449
1.90306842 6.35540295 2.16599560 0.82469952 0.98878086 0.89238232
1.92654443 6.08654785 -0.23260127 0.83487290 0.94695210 -0.09583088
2.22717166 6.29057169 -0.27639896 0.96515048 0.97869432 -0.11387537
2.05731726 6.32923222 1.09089661 0.89154369 0.98470920 0.44944546
2.13411736 6.30937529 -0.05308731 0.92482519 0.98161983 -0.02187178
2.19767427 6.29171848 0.63699830 0.95236772 0.97887278 0.26244098
2.20238400 6.28183603 0.17932117 0.95440871 0.97733521 0.07387967
2.02644324 6.37282228 1.81159317 0.87816435 0.99149096 0.74636984
1.88299525 6.08132315 -0.23233418 0.81600076 0.94613922 -0.09572084
2.15189552 6.20253944 -0.27415755 0.93252939 0.96499819 -0.11295192
2.15615201 6.29976988 0.63630450 0.93437397 0.98012543 0.26215515
2.16549015 6.30309916 0.17970210 0.93842065 0.98064339 0.07403661
2.04469657 6.01736355 -0.26979923 0.88607448 0.93618834 -0.11115631
2.02539706 6.24637508 -0.05428356 0.87771100 0.97181821 -0.02236463
2.11652708 6.31319332 0.63630450 0.91720241 0.98221385 0.26215515
1.84459794 6.23502302 -0.23435219 0.79936123 0.97005200 -0.09655225
1.94819951 5.85573101 -0.26598054 0.84425724 0.91104132 -0.10958302
1.99160719 6.27611637 -0.05405449 0.86306804 0.97644538 -0.02227026
1.79549956 6.21187782 -0.23381801 0.77808428 0.96645105 -0.09633217
1.91449642 5.87735224 -0.26618809 0.82965189 0.91440517 -0.10966853
2.25262165 6.33449650 -0.07750797 0.97617930 0.98552823 -0.03193300
2.12362385 6.21135330 1.36968088 0.92027777 0.96636945 0.56430358
2.21919274 6.32397127 0.37676477 0.96169281 0.98389071 0.15522572
1.95546031 6.13095760 -0.27145955 0.84740371 0.95386142 -0.11184035
2.19581127 6.29937267 -0.07797468 0.95156038 0.98006362 -0.03212528
2.11470580 6.31553984 1.39017737 0.91641313 0.98257893 0.57274806
2.19479251 6.29794121 0.83466339 0.95111895 0.97984093 0.34387830
2.19065857 6.33813238 0.37707123 0.94932747 0.98609388 0.15535198
2.05107760 6.19541693 2.07871819 0.88883972 0.96389008 0.85642439
1.91445422 6.10198498 -0.27062941 0.82963359 0.94935381 -0.11149833
2.26870513 6.31748199 -0.30404973 0.98314911 0.98288107 -0.12526739
2.16996360 6.32101107 -0.07786697 0.94035923 0.98343015 -0.03208091
2.08552766 6.32729435 1.39059567 0.90376872 0.98440772 0.57292038
2.15834737 6.32098103 0.83610845 0.93532532 0.98342544 0.34447366
2.25852728 6.36347103 0.15252504 0.97873855 0.99003613 0.06283976
2.14698887 6.34042692 0.37615180 0.93040311 0.98645091 0.15497318
2.03593063 6.28246546 2.10398722 0.88227570 0.97743315 0.86683512
2.21448612 6.29007721 -0.30296087 0.95965320 0.97861743 -0.12481878
2.18095660 6.31691456 1.04760087 0.94512308 0.98279279 0.43160775
2.10114694 6.24723387 -0.07869269 0.91053736 0.97195178 -0.03242110
2.05049014 6.35517788 1.39394200 0.88858509 0.98874587 0.57429904
2.22487950 6.34648466 0.61764342 0.96415716 0.98739338 0.25446686
2.11361313 6.31938744 0.83379638 0.91593963 0.98317754 0.34352109
2.19116616 6.29819012 0.14891455 0.94954741 0.97987962 0.06135225
2.15444732 6.29617882 1.74853504 0.93363523 0.97956669 0.72039008
1.99527776 6.29150295 2.10275459 0.86465871 0.97883922 0.86632729
1.80510902 6.01840973 -0.26830497 0.78224862 0.93635106 -0.11054068
2.16199446 6.26602602 -0.30197102 0.93690580 0.97487551 -0.12441096
2.13182020 6.30241060 1.04280794 0.92382973 0.98053628 0.42963308
2.16191888 6.29260111 0.60959655 0.93687302 0.97901011 0.25115156
2.08179808 6.35701656 0.83755344 0.90215248 0.98903191 0.34506899
2.16049552 6.33833838 0.15011804 0.93625623 0.98612595 0.06184809
2.12032008 6.32609320 1.75319421 0.91884613 0.98422080 0.72230965
1.95403337 6.29845858 2.10090566 0.84678531 0.97992140 0.86556554
1.96841550 5.81874323 -0.28994414 0.85301787 0.90528673 -0.11945593
2.09648490 6.32881308 1.04504466 0.90851706 0.98464400 0.43055463
2.02004695 6.26552248 -0.07876449 0.87539250 0.97479719 -0.03245068
2.22944522 6.21400404 -0.12269579 0.96613574 0.96678185 -0.05055022
2.13427448 6.34188652 0.61384350 0.92489326 0.98667794 0.25290129
2.07157826 6.31173038 1.74542904 0.89772373 0.98198622 0.71911043
1.92371511 6.34159279 2.11138320 0.83364683 0.98663229 0.86988223
2.23856616 6.30289888 0.33424258 0.97008836 0.98061222 0.13770673
1.79445624 6.26532221 -0.27316138 0.77763218 0.97476602 -0.11254150
1.92559159 5.81199646 -0.28944919 0.83446002 0.90423709 -0.11925202
2.06090188 6.35502005 1.04728138 0.89309704 0.98872131 0.43147615
2.00685573 6.36209154 -0.07797468 0.86967605 0.98982149 -0.03212528
2.21244693 6.29008293 -0.12254433 0.95876950 0.97861832 -0.05048782
2.20629191 6.28754234 0.80013770 0.95610219 0.97822303 0.32965383
2.03597665 6.33750916 1.74905276 0.88229567 0.98599690 0.72060341
2.18436456 6.27543306 0.33114249 0.94659996 0.97633904 0.13642950
1.91040528 5.89061642 -0.29118147 0.82787901 0.91646886 -0.11996571
2.28511095 6.33551455 -0.34816894 0.99025863 0.98568660 -0.14344434
2.17682672 6.31519270 -0.12251679 0.94333339 0.98252493 -0.05047647
2.17011189 6.27917147 0.79734588 0.94042349 0.97692066 0.32850361
2.23585176 6.23213005 0.10442594 0.96891207 0.96960193 0.04302311
2.15933728 6.29885340 0.33212888 0.93575430 0.97998285 0.13683590
2.23227811 6.28223801 -0.34604710 0.96736342 0.97739780 -0.14257015
2.15417767 6.34619188 -0.12246630 0.93351835 0.98734778 -0.05045567
2.14289331 6.20204544 1.31004918 0.92862827 0.96492136 0.53973550
2.23400664 6.30293846 0.56764990 0.96811247 0.98061836 0.23386970
2.13574290 6.30767393 0.79957932 0.92552960 0.98135513 0.32942379
2.20133233 6.25923920 0.10493807 0.95395297 0.97381961 0.04323410
2.12804937 6.33685732 0.33396074 0.92219561 0.98589551 0.13759062
1.91391182 6.13288164 -0.29692268 0.82939857 0.95416075 -0.12233107
2.20271015 6.32442665 -0.34698319 0.95455003 0.98396152 -0.14295582
2.05568433 6.18517494 -0.12288855 0.89083606 0.96229661 -0.05062964
2.13875008 6.31735229 1.33212566 0.92683280 0.98286092 0.54883093
2.18053460 6.27743769 0.56323856 0.94494021 0.97665095 0.23205225
2.09795594 6.32660198 0.80041689 0.90915453 0.98429996 0.32976887
2.16261840 6.27483416 0.10501123 0.93717617 0.97624588 0.04326425
2.10633230 6.29892826 2.05167103 0.91278446 0.97999448 0.84528100
1.83317792 6.00505304 -0.29330969 0.79441231 0.93427300 -0.12084253
2.07760072 6.09056139 -0.33880794 0.90033358 0.94757652 -0.13958764
2.01740623 6.19986916 -0.12288396 0.87424815 0.96458274 -0.05062775
2.10399342 6.34552813 1.33533680 0.91177088 0.98724455 0.55015391
2.13587689 6.27596712 0.56155807 0.92558771 0.97642213 0.23135988
2.13411760 6.32045698 0.10625497 0.92482531 0.98334396 0.04377666
2.06012177 6.29211187 2.04507661 0.89275903 0.97893399 0.84256417
1.83443248 6.14877701 -0.29672471 0.79495597 0.95663375 -0.12224951
1.95871782 5.86485291 -0.33094472 0.84881532 0.91246051 -0.13634802
2.19511557 6.30842447 0.98614007 0.95125890 0.98147190 0.40628615
2.06957746 6.37537861 1.33894932 0.89685667 0.99188870 0.55164230
2.11417460 6.34204102 0.56743979 0.91618294 0.98670202 0.23378314
2.19324803 6.32727146 1.69781876 0.95044959 0.98440415 0.69949520
2.02642560 6.32308388 2.05107164 0.87815666 0.98375261 0.84503406
2.14835477 6.30152941 0.98281878 0.93099499 0.98039913 0.40491778
1.93212891 6.20183897 -0.12293904 0.83729297 0.96488923 -0.05065044
2.23377252 6.22075176 -0.15982385 0.96801102 0.96783167 -0.06584685
2.11073136 6.21638441 1.66375613 0.91469079 0.96715218 0.68546152
1.98492730 6.33023500 2.04927301 0.86017329 0.98486519 0.84429306
2.23531389 6.33006668 0.30011430 0.96867895 0.98483902 0.12364601
1.73753214 6.10205412 -0.29494295 0.75296396 0.94936454 -0.12151542
2.11503839 6.33363676 0.98583812 0.91655725 0.98539448 0.40616173
2.22559237 6.29160976 -0.16003665 0.96446609 0.97885585 -0.06593452
2.20925403 6.30507278 0.76494664 0.95738584 0.98095042 0.31515524
2.11425138 6.32348776 1.69030488 0.91621619 0.98381549 0.69639951
1.96359313 6.36684179 2.05826545 0.85092807 0.99056053 0.84799790
2.18401122 6.27826071 0.29581475 0.94644684 0.97677898 0.12187461
1.71780694 6.14293671 -0.29578435 0.74441600 0.95572513 -0.12186208
1.91775882 6.08829498 -0.33718535 0.83106565 0.94722390 -0.13891914
2.08828378 6.35291529 0.98734778 0.90496308 0.98839384 0.40678370
2.18731618 6.30925274 -0.16004995 0.94787902 0.98160076 -0.06594000
2.07942152 6.29794455 2.42720580 0.90112263 0.97984141 1.00000000
2.16576719 6.30757046 0.76333749 0.93854070 0.98133904 0.31449229
2.07569432 6.34032345 1.69130671 0.89950740 0.98643476 0.69681221
2.25344181 6.30655670 0.07484091 0.97653472 0.98118132 0.03083418
2.15409207 6.32022429 0.29776910 0.93348128 0.98330772 0.12267979
1.84794939 5.99907255 -0.33387780 0.80081356 0.93334258 -0.13755645
2.08133554 6.12572050 -0.15935834 0.90195203 0.95304662 -0.06565506
2.02700329 6.27167654 2.41188812 0.87840706 0.97575462 0.99368918
2.22463989 6.31662846 0.53569543 0.96405333 0.98274827 0.22070459
2.13360643 6.34361935 0.76655579 0.92460376 0.98694754 0.31581822
2.03820205 6.36060858 1.69331050 0.88326007 0.98959076 0.69763780
2.20591164 6.29792738 0.07407885 0.95593745 0.97983873 0.03052022
1.99526536 5.99430370 -0.15885292 0.86465335 0.93260062 -0.06544683
1.98070681 6.26285839 2.40353298 0.85834432 0.97438270 0.99024689
2.18619466 6.33424759 0.53609616 0.94739300 0.98548949 0.22086968
2.09247780 6.35313129 0.76601940 0.90678060 0.98842746 0.31559721
2.16694045 6.31355572 0.07414235 0.93904918 0.98227024 0.03054638
2.30759001 6.35622120 -0.19168885 1.00000000 0.98890817 -0.07897511
1.94075763 6.27339029 2.40283680 0.84103227 0.97602123 0.98996007
2.14508939 6.34408474 0.53569543 0.92957991 0.98701996 0.22070459
2.13038516 6.33652973 0.07445988 0.92320782 0.98584455 0.03067720
2.24018240 6.28038216 0.25916663 0.97078872 0.97710907 0.10677572
1.92218959 6.02653217 -0.15887953 0.83298576 0.93761480 -0.06545779
2.20440793 6.33373165 1.27564681 0.95528579 0.98540920 0.52556187
2.22432303 6.25013971 -0.19066978 0.96391606 0.97240388 -0.07855526
2.21444106 6.28689432 0.71576977 0.95963365 0.97812223 0.29489455
2.05336952 6.23575258 0.07064956 0.88983291 0.97016555 0.02910736
2.19004321 6.26421261 0.25726351 0.94906080 0.97459334 0.10599163
2.15119553 6.27527428 1.26146197 0.93222606 0.97631437 0.51971775
2.21887326 6.32842207 -0.19124301 0.96155435 0.98458314 -0.07879142
2.17560697 6.27104950 0.71220839 0.94280481 0.97565705 0.29342729
2.25588632 6.26358652 0.02847723 0.97759408 0.97449595 0.01173251
2.12541819 6.27208900 1.97575319 0.92105538 0.97581881 0.81400317
2.17230368 6.30840588 0.25940451 0.94137335 0.98146904 0.10687372
1.70949447 6.19980240 -0.33868313 0.74081379 0.96457237 -0.13953622
1.92664313 6.28079414 -0.15969084 0.83491570 0.97717315 -0.06579205
2.12286925 6.32219553 1.26836276 0.91995078 0.98361444 0.52256083
2.17316675 6.32523394 -0.19109969 0.94174737 0.98408711 -0.07873238
2.13680625 6.28647137 0.71246272 0.92599040 0.97805643 0.29353207
2.20977259 6.25880384 0.02797759 0.95761055 0.97375184 0.01152667
2.07700944 6.25804710 1.96703708 0.90007734 0.97363412 0.81041217
2.13841939 6.33893776 0.26047501 0.92668951 0.98621917 0.10731476
2.08249664 6.33354235 1.26797938 0.90245521 0.98537976 0.52240294
2.00657272 5.96574068 -0.18796282 0.86955339 0.92815679 -0.07744000
2.18947506 6.27262926 0.47925124 0.94881457 0.97590286 0.19744977
2.09853005 6.30353355 0.71297151 0.90940332 0.98071098 0.29374167
2.17040396 6.27256489 0.02797759 0.94055009 0.97589284 0.01152667
2.06049371 6.34202671 1.98969901 0.89292020 0.98669976 0.81974876
2.00822043 6.09587717 -0.18895006 0.87026745 0.94840354 -0.07784674
2.13181400 6.23355865 0.47406706 0.92382699 0.96982419 0.19531392
2.14494276 6.29442024 1.62034714 0.92951638 0.97929311 0.66757715
2.13936996 6.31066799 0.02862712 0.92710143 0.98182094 0.01179427
2.03783488 6.40961313 2.00713134 0.88310093 0.99721497 0.82693082
2.09439278 6.27460194 1.61165321 0.90761042 0.97620976 0.66399527
2.09776950 6.31829882 0.02847723 0.90907377 0.98300815 0.01173251
1.98513961 6.38205099 1.99434757 0.86026531 0.99292678 0.82166398
2.07045555 6.33564997 1.62421107 0.89723718 0.98570770 0.66916907
2.04822731 6.36937857 1.63049006 0.88760453 0.99095523 0.67175603
1.91980207 6.32312679 -0.19046277 0.83195108 0.98375928 -0.07846997
2.00165319 6.22967625 2.32129502 0.86742151 0.96922016 0.95636517
2.17660236 6.29133415 1.20484126 0.94323617 0.97881299 0.49639022
1.96414793 6.24752045 2.32332826 0.85116851 0.97199637 0.95720285
2.13894057 6.31046629 1.20593905 0.92691535 0.98178959 0.49684253
1.92923486 6.27414036 2.32875061 0.83603883 0.97613794 0.95943683
2.07269192 6.16366196 1.87080193 0.89820629 0.95894957 0.77076364
2.10487533 6.34055901 1.20923245 0.91215307 0.98647141 0.49819940
1.88870311 6.28253078 2.32739496 0.81847429 0.97744334 0.95887828
2.07876778 6.31132412 1.91242492 0.90083933 0.98192304 0.78791213
2.06622195 6.35739517 1.20996428 0.89540255 0.98909080 0.49850091
1.85706377 6.32137871 2.33756161 0.80476332 0.98348737 0.96306694
2.16234279 6.27410460 1.54482687 0.93705672 0.97613239 0.63646305
2.02955914 6.29506302 1.90342534 0.87951463 0.97939312 0.78420436
2.15168095 6.33944035 1.55871773 0.93243641 0.98629737 0.64218605
2.01159072 6.34111023 1.91467476 0.87172794 0.98655719 0.78883904
2.10623264 6.33623457 1.55455041 0.91274130 0.98579866 0.64046913
2.07184935 6.36597776 1.55871773 0.89784116 0.99042612 0.64218605
2.03298616 6.24222708 2.25863123 0.88099974 0.97117281 0.93054789
1.99777782 6.26745701 2.26324964 0.86574209 0.97509813 0.93245065
1.95665610 6.27448368 2.26127028 0.84792191 0.97619134 0.93163514
1.93657243 6.31429100 2.27248669 0.83921862 0.98238462 0.93625629
1.89193022 6.31007290 2.26654863 0.81987280 0.98172837 0.93380982
