-9.21382332 -10.41847992 0.11732737 -0.99588645 -0.97860992 0.05620229
-9.11404037 -10.43695450 0.11637340 -0.98510128 -0.98034525 0.05574532
-9.09031487 -10.49590683 1.07728338 -0.98253685 -0.98588264 0.51604152
-9.16015530 -10.35526085 -0.34302831 -0.99008566 -0.97267175 -0.16431782
-9.06914139 -10.51827431 0.11696047 -0.98024833 -0.98798364 0.05602654
-9.20769691 -10.46863937 0.60484356 -0.99522424 -0.98332143 0.28973287
-9.04616356 -10.57858944 1.08024883 -0.97776473 -0.99364907 0.51746207
-9.08703041 -10.40356255 -0.34285027 -0.98218185 -0.97720873 -0.16423254
-9.13593960 -10.48182964 1.55813408 -0.98746830 -0.98456037 0.74637920
-9.12082100 -10.50212860 0.60314089 -0.98583418 -0.98646706 0.28891724
-9.05406475 -10.48715019 1.55207658 -0.97861874 -0.98506016 0.74347752
-9.08943272 -10.56621647 0.60463071 -0.98244154 -0.99248683 0.28963089
-9.19628716 -10.40953636 0.03892275 -0.99399102 -0.97776985 0.01864482
-9.17119503 -10.45367146 1.00819337 -0.99127889 -0.98191547 0.48294595
-9.10568142 -10.43851566 0.03843916 -0.98419780 -0.98049188 0.01841317
-9.09748840 -10.50206184 1.00720739 -0.98331225 -0.98646080 0.48247364
-9.18023109 -10.35926342 -0.42520404 -0.99225557 -0.97304767 -0.20368174
-9.22178268 -10.47037792 0.52710652 -0.99674672 -0.98348469 0.25249517
-9.06506538 -10.59834862 1.01147997 -0.97980773 -0.99550503 0.48452032
-9.08990002 -10.38818455 -0.42441541 -0.98249203 -0.97576427 -0.20330396
-9.09327698 -10.48092365 1.47642791 -0.98285705 -0.98447526 0.70724022
-9.12823772 -10.49649715 0.52510667 -0.98663580 -0.98593807 0.25153720
-9.03230762 -10.45415974 -0.42466444 -0.97626710 -0.98196131 -0.20342325
-9.03211308 -10.51011562 1.47434676 -0.97624606 -0.98721731 0.70624328
-9.20566177 -10.39172554 -0.01324581 -0.99500430 -0.97609687 -0.00634502
-9.19631290 -10.46918774 0.93256009 -0.99399382 -0.98337293 0.44671601
-9.11389732 -10.41921616 -0.01360482 -0.98508579 -0.97867906 -0.00651699
-9.15939617 -10.50627327 1.89618433 -0.99000359 -0.98685634 0.90831244
-9.11730766 -10.51167965 0.93102771 -0.98545444 -0.98736417 0.44598198
-9.17481422 -10.32485104 -0.47980049 -0.99167007 -0.96981531 -0.22983459
-9.05453587 -10.51856327 1.88751411 -0.97866964 -0.98801076 0.90415919
-9.22726250 -10.46193600 0.46216723 -0.99733901 -0.98269176 0.22138788
-9.07309437 -10.59453773 0.93363279 -0.98067558 -0.99514705 0.44722986
-9.10844421 -10.38078976 -0.47975102 -0.98449641 -0.97506970 -0.22981089
-9.19304085 -10.50509262 1.43127513 -0.99364012 -0.98674548 0.68561107
-9.11156368 -10.46237278 0.45890060 -0.98483360 -0.98273277 0.21982309
-9.03911972 -10.43327522 -0.47960252 -0.97700340 -0.97999966 -0.22973976
-9.07585621 -10.47010422 1.41965187 -0.98097408 -0.98345900 0.68004328
-9.04085445 -10.56320667 1.42501640 -0.97719091 -0.99220413 0.68261302
-9.19789982 -10.38925171 -0.10600315 -0.99416530 -0.97586453 -0.05077775
-9.18981266 -10.44814110 0.84463215 -0.99329120 -0.98139602 0.40459666
-9.11002636 -10.42127323 -0.10608118 -0.98466742 -0.97887230 -0.05081513
-9.13398457 -10.46424961 1.81887579 -0.98725694 -0.98290908 0.87128001
-9.10563850 -10.48461437 0.84265935 -0.98419315 -0.98482192 0.40365165
-9.18667030 -10.34272861 -0.56977481 -0.99295157 -0.97149462 -0.27293420
-9.06805611 -10.52143383 1.81887579 -0.98013103 -0.98828042 0.87128001
-9.24252224 -10.47302818 0.37336680 -0.99898839 -0.98373365 0.17885061
-9.08641434 -10.59607124 0.84773225 -0.98211527 -0.99529111 0.40608168
-9.09377766 -10.36872578 -0.56846422 -0.98291117 -0.97393650 -0.27230638
-9.13444901 -10.48273563 0.37102562 -0.98730719 -0.98464549 0.17772913
-9.06253242 -10.46489811 -0.57008684 -0.97953397 -0.98297000 -0.27308366
-9.09568977 -10.52008247 1.33017731 -0.98311782 -0.98815346 0.63718307
-9.09060192 -10.56564617 0.37226936 -0.98256791 -0.99243325 0.17832491
-9.05638218 -10.57489872 1.33185780 -0.97886920 -0.99330235 0.63798809
-9.09865570 -10.47912312 2.08547688 -0.98343843 -0.98430616 0.99898756
-9.25188160 -10.49080467 0.77501726 -1.00000000 -0.98540342 0.37124968
-9.04165649 -10.54657745 2.08759046 -0.97727758 -0.99064213 1.00000000
-9.11294079 -10.35459328 -0.18371113 -0.98498243 -0.97260904 -0.08800152
-9.21009159 -10.52838898 1.75377309 -0.99548310 -0.98893368 0.84009445
-9.13868046 -10.49447727 0.77032685 -0.98776454 -0.98574835 0.36900285
-9.10401535 -10.47664356 -0.18399709 -0.98401773 -0.98407322 -0.08813850
-9.09202385 -10.52597904 1.74304545 -0.98272157 -0.98870736 0.83495563
-9.07645893 -10.55623531 0.77071774 -0.98103923 -0.99154931 0.36919010
-9.14249802 -10.45347595 0.30326965 -0.98817718 -0.98189712 0.14527258
-9.11893559 -10.52298260 1.26335037 -0.98563039 -0.98842585 0.60517156
-9.09620190 -10.53343582 0.30422226 -0.98317319 -0.98940778 0.14572890
-9.07054043 -10.56734943 1.26355076 -0.98039955 -0.99259329 0.60526752
-9.22293472 -10.45685387 0.69259709 -0.99687123 -0.98221439 0.33176866
-9.06519222 -10.29311752 -0.24705388 -0.97982144 -0.96683460 -0.11834403
-9.18588352 -10.49843979 1.64987707 -0.99286652 -0.98612058 0.79032600
-9.07562256 -10.42137146 0.68522257 -0.98094887 -0.97888154 0.32823610
-9.08841801 -10.45085430 -0.24812073 -0.98233187 -0.98165083 -0.11885507
-9.05478573 -10.48098660 1.63715780 -0.97869664 -0.98448122 0.78423321
-9.22677708 -10.42960167 0.21009465 -0.99728656 -0.97965461 0.10063978
-9.07646275 -10.55529404 0.69128871 -0.98103964 -0.99146092 0.33114192
-9.08160686 -10.64620304 1.65547359 -0.98159564 -1.00000000 0.79300690
-9.11099720 -10.43022251 0.20819603 -0.98477232 -0.97971290 0.09973031
-9.10597992 -10.49992752 1.15374684 -0.98423004 -0.98626029 0.55266917
-9.08844948 -10.53716183 0.20984483 -0.98233527 -0.98975772 0.10052011
-9.07979584 -10.56987858 1.15707946 -0.98139989 -0.99283081 0.55426556
