-8.62451363 5.18801880 1.71984148 -0.97228688 0.98568887 0.78390795
-8.52968407 5.05860949 1.69409049 -0.96159625 0.96110195 0.77217054
-8.65211201 5.07598495 1.71400452 -0.97539818 0.96440315 0.78124744
-8.71286488 5.03823090 1.71984148 -0.98224717 0.95723015 0.78390795
-8.55448627 5.22194433 2.18356180 -0.96439230 0.99213445 0.99527276
-8.59047031 5.17011309 2.18442607 -0.96844900 0.98228687 0.99566674
-8.64123631 5.12703371 2.18917942 -0.97417212 0.97410208 0.99783331
-8.69179916 5.08352041 2.19393301 -0.97987235 0.96583486 1.00000000
-8.67181492 4.95995855 0.73626429 -0.97761941 0.94235891 0.33559105
-8.61781693 5.16498661 1.66421449 -0.97153193 0.98131287 0.75855303
-8.63105202 5.04521418 1.08129358 -0.97302395 0.95855689 0.49285623
-8.73061085 4.92097092 0.73905522 -0.98424774 0.93495154 0.33686316
-8.63822842 5.10369158 1.66188121 -0.97383302 0.96966726 0.75748950
-8.69687939 4.87682199 0.04508287 -0.98044503 0.92656356 0.02054888
-8.57302666 4.93953037 1.06869423 -0.96648246 0.93847769 0.48711342
-8.77718830 5.03586769 0.40115863 -0.98949867 0.95678115 0.18284908
-8.67352867 5.05130768 1.66254795 -0.97781259 0.95971465 0.75779337
-8.73260593 4.82497263 0.04519294 -0.98447269 0.91671252 0.02059905
-8.72315121 4.95296192 1.08541262 -0.98340678 0.94102961 0.49473372
-8.61720276 4.87287521 0.38945258 -0.97146267 0.92581367 0.17751344
-8.74097061 5.01739931 1.66954768 -0.98541570 0.95327228 0.76098388
-8.77857399 4.77858162 0.04552316 -0.98965490 0.90789855 0.02074957
-8.72275352 4.86028337 0.39402857 -0.98336196 0.92342132 0.17959918
-8.63117981 4.77046967 -0.28420907 -0.97303838 0.90635729 -0.12954319
-8.79809475 4.84793329 0.39722115 -0.99185556 0.92107487 0.18105437
-8.78155708 5.08435297 0.69826543 -0.98999119 0.96599305 0.31827107
-8.77829361 4.79758263 -0.28631613 -0.98962331 0.91150856 -0.13050358
-8.61830235 5.26334333 2.12554240 -0.97158664 1.00000000 0.96882737
-8.67326164 4.94877815 0.68495464 -0.97778249 0.94023472 0.31220400
-8.82589149 4.75177670 -0.28661290 -0.99498928 0.90280575 -0.13063885
-8.60926437 5.18395233 2.11508489 -0.97056776 0.98491627 0.96406084
-8.64352703 5.01296663 1.02433836 -0.97443038 0.95243013 0.46689591
-8.71459675 4.90006781 0.68594062 -0.98244244 0.93098009 0.31265339
-8.69398212 4.85607719 -0.01111647 -0.98011839 0.92262214 -0.00506691
-8.64166641 5.12975693 2.11508489 -0.97422057 0.97461945 0.96406084
-8.67657661 4.95954895 1.02456963 -0.97815621 0.94228113 0.46700132
-8.72957230 4.80425930 -0.01104011 -0.98413068 0.91277713 -0.00503211
-8.68724632 5.08323336 2.11843133 -0.97935909 0.96578032 0.96558613
-8.76634884 4.93820429 1.03243208 -0.98827672 0.93822575 0.47058505
-8.68181515 4.90366220 0.33731019 -0.97874677 0.93166298 0.15374681
-8.79119587 4.76653719 -0.01058197 -0.99107784 0.90561014 -0.00482329
-8.71458435 5.15040731 1.33897972 -0.98244101 0.97854292 0.61031020
-8.71419811 4.84999180 0.33740544 -0.98239750 0.92146599 0.15379022
-8.63144588 4.76735258 -0.34256223 -0.97306836 0.90576506 -0.15614070
-8.63865471 5.14540052 1.59335625 -0.97388107 0.97759163 0.72625566
-8.64126396 5.05254412 1.32250643 -0.97417521 0.95994955 0.60280162
-8.77891254 4.83207798 0.33969098 -0.98969311 0.91806245 0.15483198
-8.73444843 4.77088213 -0.34447157 -0.98468041 0.90643567 -0.15701099
-8.61852741 5.07866430 1.58504844 -0.97161204 0.96491224 0.72246891
-8.68828869 5.00701237 1.32510746 -0.97947657 0.95129883 0.60398722
-8.73426437 5.00393391 0.63527781 -0.98465967 0.95071393 0.28956118
-8.82405472 4.74824476 -0.34588283 -0.99478221 0.90213472 -0.15765424
-8.65710449 5.02836514 1.58632660 -0.97596103 0.95535570 0.72305155
-8.72207165 4.92453432 0.63144684 -0.98328513 0.93562853 0.28781500
-8.72969723 4.99732924 1.59399521 -0.98414475 0.94945908 0.72654688
-8.68761921 4.88116789 -0.04841049 -0.97940111 0.92738920 -0.02206562
-8.65869904 5.01165915 0.98645997 -0.97614080 0.95218170 0.44963086
-8.78598785 4.88798809 0.63435835 -0.99049073 0.92868501 0.28914207
-8.61476898 4.76954603 -0.04946956 -0.97118831 0.90618181 -0.02254835
-8.50732994 5.16669416 2.00485754 -0.95907617 0.98163730 0.91381896
-8.68310356 4.95323086 0.98556590 -0.97889203 0.94108069 0.44922334
-8.63827801 4.90036345 0.28929371 -0.97383863 0.93103623 0.13186078
-8.75530148 4.77542973 -0.04833869 -0.98703128 0.90729970 -0.02203289
-8.61349869 5.15757704 2.02251887 -0.97104508 0.97990513 0.92186904
-8.76088428 4.92477655 0.99160105 -0.98766065 0.93567461 0.45197418
-8.55049896 5.04737616 1.26051021 -0.96394283 0.95896769 0.57454360
-8.71953487 4.87416220 0.29178667 -0.98299915 0.92605817 0.13299708
-8.64741993 5.10435486 2.02292013 -0.97486925 0.96979326 0.92205191
-8.65959549 5.05713606 1.27446938 -0.97624183 0.96082199 0.58090621
-8.76341534 4.84457636 0.29281822 -0.98794597 0.92043710 0.13346726
-8.60231781 4.72703600 -0.38086337 -0.96978462 0.89810520 -0.17359845
-8.71024704 5.08635139 2.03215218 -0.98195207 0.96637273 0.92625988
-8.70148563 5.00857544 1.27614439 -0.98096436 0.95159578 0.58166969
-8.60006618 4.92128849 0.56167734 -0.96953076 0.93501186 0.25601390
-8.75506592 4.73926735 -0.38432789 -0.98700470 0.90042907 -0.17517759
-8.67074013 4.88977718 0.56491840 -0.97749823 0.92902493 0.25749117
-8.85884953 4.72352409 -0.38640660 -0.99870479 0.89743793 -0.17612506
-8.51044369 5.06578588 1.47859228 -0.95942718 0.96246541 0.67394596
-8.71112823 4.87779522 -0.11493465 -0.98205137 0.92674845 -0.05238749
-8.64071083 4.99148989 0.91530353 -0.97411287 0.94834965 0.41719759
-8.73264599 4.85270834 0.56745481 -0.98447722 0.92198211 0.25864729
-8.62385559 5.06040812 1.49308503 -0.97221267 0.96144366 0.68055177
-8.72586155 4.81423807 -0.11497596 -0.98371238 0.91467303 -0.05240632
-8.67362881 4.93808842 0.91551363 -0.97782391 0.93820375 0.41729334
-8.61604404 4.87757492 0.22448359 -0.97133207 0.92670661 0.10232016
-8.66744709 5.01307678 1.49519849 -0.97712702 0.95245105 0.68151510
-8.80157375 4.78424406 -0.11485663 -0.99224782 0.90897435 -0.05235193
-8.77552128 4.92353773 0.92412615 -0.98931074 0.93543923 0.42121893
-8.70231056 4.85461521 0.22682476 -0.98105735 0.92234439 0.10338727
-8.75262165 4.84767485 -0.45026612 -0.98672915 0.92102575 -0.20523240
-8.74166393 4.98308325 1.50274682 -0.98549384 0.94675249 0.68495566
-8.70847797 5.11149883 1.22731090 -0.98175263 0.97115058 0.55941129
-8.74781513 4.82614994 0.22777586 -0.98618728 0.91693616 0.10382079
-8.70356464 4.76685762 -0.44770747 -0.98119873 0.90567106 -0.20406616
-8.66656876 5.01415253 1.21577859 -0.97702795 0.95265543 0.55415481
-8.79836464 4.74733257 -0.45001650 -0.99188602 0.90196139 -0.20511861
-8.73927116 4.98307800 1.22221518 -0.98522407 0.94675148 0.55708867
-8.69309711 4.93084097 0.51430923 -0.98001868 0.93682677 0.23442340
-8.87033844 4.71455956 -0.45151427 -1.00000000 0.89573473 -0.20580131
-8.57232285 5.15338087 1.91933036 -0.96640313 0.97910786 0.87483543
-8.68401241 5.04279566 0.87247628 -0.97899449 0.95809740 0.39767680
-8.74658012 4.88873577 0.51600295 -0.98604810 0.92882705 0.23519540
-8.69180012 4.84638023 -0.17093623 -0.97987241 0.92077982 -0.07791315
-8.61467743 5.10540199 1.92163062 -0.97117800 0.96999222 0.87588394
-8.68786049 4.97237396 0.86927074 -0.97942829 0.94471776 0.39621571
-8.74434853 4.82172394 -0.17104928 -0.98579651 0.91609526 -0.07796468
-8.68102360 5.08948374 1.93121493 -0.97865754 0.96696782 0.88025248
-8.73893547 4.94700670 0.87247628 -0.98518628 0.93989813 0.39767680
-8.67892075 4.89344263 0.17860866 -0.97842050 0.92972136 0.08141026
-8.79734325 4.77905130 -0.17113572 -0.99177086 0.90798777 -0.07800408
-8.69619370 5.09245253 1.15331459 -0.98036772 0.96753192 0.52568358
-8.69724941 4.83204460 0.17816412 -0.98048675 0.91805613 0.08120764
-8.63706493 4.98497057 1.13983214 -0.97370183 0.94711101 0.51953828
-8.76605797 4.79834032 0.17956124 -0.98824394 0.91165257 0.08184445
-8.59644318 4.93484735 0.45244995 -0.96912235 0.93758798 0.20622778
-8.74399757 4.97391462 1.15102518 -0.98575693 0.94501048 0.52464008
-8.66025734 4.89948273 0.45470989 -0.97631645 0.93086892 0.20725787
-8.61471558 4.99378061 0.78733814 -0.97118229 0.94878489 0.35887063
-8.72396469 4.86351061 0.45696983 -0.98349851 0.92403448 0.20828795
-8.60342979 4.78804064 -0.21624245 -0.96990997 0.90969568 -0.09856384
-8.64074135 4.93658066 0.78678268 -0.97411633 0.93791729 0.35861745
-8.82852936 5.01269245 0.11581347 -0.99528664 0.95237803 0.05278806
-8.74665451 4.81423140 -0.21734115 -0.98605645 0.91467172 -0.09906463
-8.60231876 5.24745655 1.84119248 -0.96978474 0.99698162 0.83921999
-8.68642044 4.90858936 0.78918964 -0.97926593 0.93259913 0.35971457
-8.62916183 4.84527683 0.10941814 -0.97281086 0.92057014 0.04987305
-8.81185341 4.77831793 -0.21765962 -0.99340665 0.90784842 -0.09920979
-8.60650921 5.17601824 1.83497179 -0.97025716 0.98340881 0.83638459
-8.73282909 4.83176661 0.11151661 -0.98449785 0.91800332 0.05082954
-8.60338593 5.10071039 1.82728720 -0.96990502 0.96910083 0.83288193
-8.81562138 4.80561686 0.11301551 -0.99383146 0.91303504 0.05151274
-8.67934990 5.07243776 1.83680141 -0.97846884 0.96372920 0.83721852
