-8.75585365 -7.05536747 0.06845501 -0.98199773 -0.95023167 0.04528030
-8.68041325 -7.08489799 0.06772120 -0.97353685 -0.95420891 0.04479491
-8.86273098 -7.08963728 0.46671242 -0.99398440 -0.95484722 0.30871192
-8.57571125 -7.08949852 0.06629024 -0.96179420 -0.95482850 0.04384839
-8.79043770 -7.09988070 0.46405193 -0.98587644 -0.95622683 0.30695212
-8.64437389 -7.18307114 0.84563458 -0.96949494 -0.96743107 0.55935401
-8.73486900 -7.10500574 -0.30495310 -0.97964424 -0.95691705 -0.20171449
-8.51614952 -7.10800123 0.06566650 -0.95511413 -0.95732051 0.04343580
-8.76315022 -7.14333391 1.24096727 -0.98281604 -0.96207917 0.82085109
-8.69780636 -7.11568260 0.46075296 -0.97548753 -0.95835501 0.30476996
-8.58080673 -7.22181463 0.84354138 -0.96236563 -0.97264910 0.55796945
-8.62532806 -7.10622311 -0.30370668 -0.96735889 -0.95708102 -0.20089002
-8.44540024 -7.13937521 0.06504275 -0.94717938 -0.96154600 0.04302322
-8.67988014 -7.16658401 1.23490989 -0.97347707 -0.96521056 0.81684434
-8.61607361 -7.13954210 0.45819893 -0.96632093 -0.96156847 0.30308059
-8.52012157 -7.26263428 0.84179705 -0.95555961 -0.97814679 0.55681568
-8.57744217 -7.15770912 -0.30364731 -0.96198833 -0.96401525 -0.20085075
-8.42160797 -7.21054411 0.06555643 -0.94451100 -0.97113121 0.04336300
-8.91636848 -7.11003828 0.00728555 -1.00000000 -0.95759487 0.00481910
-8.58754063 -7.18141317 1.22739863 -0.96312088 -0.96720779 0.81187594
-8.55577087 -7.18067026 0.45713472 -0.95955777 -0.96710771 0.30237666
-8.52315044 -7.20369911 -0.30346927 -0.95589930 -0.97020930 -0.20073299
-8.44702911 -7.32501888 0.06728090 -0.94736207 -0.98654890 0.04450367
-8.81699085 -7.12203598 0.00639472 -0.98885447 -0.95921075 0.00422985
-8.49681091 -7.22261906 0.45617697 -0.95294523 -0.97275746 0.30174312
-8.77767086 -7.14057732 0.79456329 -0.98444462 -0.96170789 0.52557236
-8.45193481 -7.23495436 -0.30296475 -0.94791222 -0.97441882 -0.20039926
-8.67596531 -7.09895039 0.00481667 -0.97303802 -0.95610154 0.00318604
-8.51617813 -7.30559731 1.23054850 -0.95511734 -0.98393315 0.81395948
-8.53135300 -7.34507036 0.46181715 -0.95681924 -0.98924947 0.30547389
-8.82520866 -7.05961275 0.40073436 -0.98977613 -0.95080346 0.26507002
-8.83110428 -7.11097479 -0.37323642 -0.99043733 -0.95772099 -0.24688122
-8.60189056 -7.12912941 0.00433308 -0.96473026 -0.96016610 0.00286616
-8.52960396 -7.38732481 1.23830211 -0.95662308 -0.99494040 0.81908816
-8.80194473 -7.12612820 1.17950571 -0.98716700 -0.95976186 0.78019667
-8.78406143 -7.09486008 0.40025821 -0.98516130 -0.95555061 0.26475507
-8.58660126 -7.14380217 0.78256714 -0.96301550 -0.96214223 0.51763737
-8.71670055 -7.08706331 -0.37107801 -0.97760659 -0.95450056 -0.24545352
-8.51597404 -7.12604570 0.00346770 -0.95509446 -0.95975077 0.00229375
-8.67546272 -7.11467314 1.16724956 -0.97298163 -0.95821905 0.77208972
-8.69440460 -7.11330748 0.39749649 -0.97510600 -0.95803517 0.26292831
-8.55833912 -7.21170998 0.78437477 -0.95984584 -0.97128820 0.51883310
-8.61789608 -7.09729958 -0.36962524 -0.96652532 -0.95587915 -0.24449256
-8.43741608 -7.15102768 0.00290775 -0.94628394 -0.96311539 0.00192336
-8.59079647 -7.13611031 1.16123712 -0.96348602 -0.96110630 0.76811272
-8.62180996 -7.14490080 0.39578232 -0.96696430 -0.96229023 0.26179445
-8.50678349 -7.26017618 0.78371745 -0.95406371 -0.97781575 0.51839828
-8.59773731 -7.17175579 -0.37028936 -0.96426445 -0.96590710 -0.24493185
-8.42727566 -7.23379517 0.00349315 -0.94514662 -0.97426271 0.00231058
-8.56448746 -7.18867922 0.39502048 -0.96053541 -0.96818638 0.26129052
-8.53720951 -7.21275806 -0.36987430 -0.95747608 -0.97142935 -0.24465731
-8.44061184 -7.33766460 0.00448579 -0.94664234 -0.98825204 0.00296718
-8.42321110 -7.17792749 1.14944351 -0.94469076 -0.96673828 0.76031166
-8.49171162 -7.21910810 0.39330631 -0.95237333 -0.97228462 0.26015666
-8.80944633 -7.14757872 0.73350352 -0.98800832 -0.96265090 0.48518375
-8.50693798 -7.27922869 -0.37028936 -0.95408100 -0.98038179 -0.24493185
-8.72673035 -7.11071110 -0.03681458 -0.97873145 -0.95768547 -0.02435140
-8.46681690 -7.30712748 1.16308713 -0.94958133 -0.98413926 0.76933640
-8.54929066 -7.36076927 0.39978206 -0.95883101 -0.99136382 0.26444012
-8.85421848 -7.06288385 0.34929654 -0.99302965 -0.95124400 0.23104593
-8.71821308 -7.16472244 0.72890639 -0.97777623 -0.96495980 0.48214293
-8.63259602 -7.12457609 -0.03738899 -0.96817398 -0.95955282 -0.02473135
-8.66446114 -7.15205669 1.50140142 -0.97174776 -0.96325397 0.99311799
-8.80995941 -7.09573650 0.34869480 -0.98806590 -0.95566863 0.23064791
-8.63531780 -7.16489077 0.72400278 -0.96847922 -0.96498251 0.47889936
-8.72406006 -7.06354475 -0.41575614 -0.97843200 -0.95133299 -0.27500632
-8.57284737 -7.14336538 -0.03769415 -0.96147299 -0.96208340 -0.02493320
-8.79011440 -7.13621855 1.13465714 -0.98584020 -0.96112084 0.75053108
-8.58145332 -7.17455244 1.49417627 -0.96243817 -0.96628374 0.98833883
-8.72191429 -7.11550522 0.34628782 -0.97819132 -0.95833117 0.22905578
-8.59927559 -7.22672081 0.72492218 -0.96443701 -0.97330987 0.47950751
-8.54211998 -7.00512934 -0.41135123 -0.95802683 -0.94346547 -0.27209267
-8.46217632 -7.14150429 -0.03846601 -0.94906086 -0.96183276 -0.02544376
-8.66846180 -7.12805223 1.12348092 -0.97219646 -0.96002102 0.74313843
-8.63397026 -7.13444901 0.34388083 -0.96832812 -0.96088254 0.22746365
-8.53702068 -7.26636076 0.72323656 -0.95745492 -0.97864866 0.47839254
-8.58086300 -7.12780142 -0.41402388 -0.96237195 -0.95998722 -0.27386051
-8.40499592 -7.18411493 -0.03860962 -0.94264787 -0.96757168 -0.02553874
-8.53411674 -7.31926203 1.50255740 -0.95712924 -0.98577356 0.99388266
-8.56143379 -7.16542244 0.34233347 -0.96019292 -0.96505409 0.22644013
-8.54049110 -7.18544531 -0.41417235 -0.95784414 -0.96775085 -0.27395871
-8.39441299 -7.26695251 -0.03819676 -0.94146097 -0.97872841 -0.02526565
-8.80710220 -7.09873772 -0.11188711 -0.98774540 -0.95607287 -0.07400893
-8.53569508 -7.41435385 1.51180565 -0.95730621 -0.99858069 1.00000000
-8.50559044 -7.21001005 0.34173173 -0.95392990 -0.97105926 0.22604211
-8.79742813 -7.13811398 0.66200793 -0.98666042 -0.96137613 0.43789223
-8.45263100 -7.20257759 -0.41278654 -0.94799030 -0.97005826 -0.27304208
-8.69561100 -7.09966469 -0.11208446 -0.97524130 -0.95619774 -0.07413947
-8.48429012 -7.24877214 1.11632812 -0.95154101 -0.97627980 0.73840714
-8.69222546 -7.10766315 1.44365418 -0.97486162 -0.95727497 0.95492047
-8.85601234 -7.06985760 0.27686706 -0.99323088 -0.95218325 0.18313667
-8.69838047 -7.14901018 0.65707594 -0.97555190 -0.96284366 0.43462989
-8.46312523 -7.30397987 -0.41461781 -0.94916725 -0.98371530 -0.27425337
-8.87244701 -7.12748098 -0.49320188 -0.99507403 -0.95994407 -0.32623366
-8.59372044 -7.10710382 -0.11225428 -0.96381396 -0.95719963 -0.07425179
-8.53268051 -7.36022043 1.12862206 -0.95696813 -0.99128991 0.74653912
-8.66322327 -7.15231943 1.44449162 -0.97160894 -0.96328938 0.95547444
-8.56449223 -7.42375231 0.34964040 -0.96053594 -0.99984652 0.23127338
-8.74468136 -7.04893732 0.27320901 -0.98074472 -0.94936562 0.18071702
-8.62308025 -7.15559816 0.65327126 -0.96710676 -0.96373093 0.43211326
-8.66618156 -7.02974081 -0.48627475 -0.97194070 -0.94678020 -0.32165164
-8.52630711 -7.11938286 -0.11235525 -0.95625335 -0.95885342 -0.07431858
-8.77138615 -7.12641668 1.05499518 -0.98373973 -0.95980072 0.69783783
-8.59224796 -7.18506002 1.43974555 -0.96364880 -0.96769893 0.95233506
-8.69866943 -7.10248089 0.27313584 -0.97558433 -0.95657700 0.18066862
-8.55500698 -7.19042444 0.65115756 -0.95947212 -0.96842140 0.43071511
-8.57234192 -7.04353333 -0.48427773 -0.96141630 -0.94863784 -0.32033068
-8.46611214 -7.15992737 -0.11240116 -0.94950229 -0.96431404 -0.07434895
-8.66491508 -7.13094473 1.04659271 -0.97179866 -0.96041059 0.69227993
-8.59217262 -7.10615635 0.27020940 -0.96364039 -0.95707202 0.17873290
-8.50053120 -7.23629236 0.65031213 -0.95336246 -0.97459900 0.43015590
-8.56177235 -7.12532616 -0.48565069 -0.96023089 -0.95965385 -0.32123885
-8.37836075 -7.17662811 -0.11252967 -0.93966067 -0.96656328 -0.07443395
-8.52988529 -7.31691027 1.44505000 -0.95665467 -0.98545682 0.95584375
-8.52126789 -7.13823128 0.26896566 -0.95568818 -0.96139193 0.17791021
-8.49540234 -7.16098213 -0.48477697 -0.95278728 -0.96445608 -0.32066092
-8.40119553 -7.28798008 -0.11232313 -0.94222164 -0.98156041 -0.07429733
-8.54265976 -7.21237850 1.04218137 -0.95808733 -0.97137827 0.68936199
-8.53914738 -7.41831684 1.45537984 -0.95769340 -0.99911445 0.96267653
-8.47472286 -7.19034004 0.26889250 -0.95046800 -0.96841007 0.17786181
-8.83508396 -7.13959265 0.60342681 -0.99088365 -0.96157527 0.39914310
-8.53399086 -7.28545332 -0.48820934 -0.95711511 -0.98122013 -0.32293129
-8.76738453 -7.09984207 -0.17535856 -0.98329097 -0.95622158 -0.11599279
-8.50323105 -7.27107048 1.04302168 -0.95366526 -0.97928298 0.68991780
-8.88382721 -7.23840761 1.41155922 -0.99635041 -0.97488391 0.93369091
-8.49314404 -7.29803896 0.27196527 -0.95253396 -0.98291516 0.17989433
-8.72682476 -7.14302206 0.59808499 -0.97874206 -0.96203715 0.39560971
-8.43200874 -7.29065514 -0.48590031 -0.94567746 -0.98192072 -0.32140395
-8.67508030 -7.09286594 -0.17510585 -0.97293872 -0.95528203 -0.11582564
-8.50656986 -7.34348440 1.04827321 -0.95403975 -0.98903584 0.69339150
-8.75944710 -7.20574188 1.39573586 -0.98240077 -0.97048444 0.92322439
-8.54484940 -7.41247797 0.27613544 -0.95833290 -0.99832803 0.18265274
-8.77702332 -7.03870106 0.21950610 -0.98437196 -0.94798702 0.14519465
-8.65466404 -7.15221357 0.59482771 -0.97064900 -0.96327513 0.39345515
-8.57805061 -7.10376596 -0.17487976 -0.96205652 -0.95675009 -0.11567608
-8.81369877 -7.13454247 1.00310159 -0.98848528 -0.96089512 0.66351229
-8.65622520 -7.21232271 1.38554454 -0.97082406 -0.97137076 0.91648322
-8.69234276 -7.06086636 0.21785496 -0.97487479 -0.95097226 0.14410250
-8.58052158 -7.18205929 0.59235227 -0.96233368 -0.96729481 0.39181775
-8.55313683 -7.17426777 -0.17496620 -0.95926237 -0.96624541 -0.11573327
-8.70262623 -7.13540697 0.99448669 -0.97602808 -0.96101153 0.65781385
-8.66013813 -7.12552547 0.21836300 -0.97126293 -0.95968068 0.14443853
-8.52762699 -7.22936344 0.59170079 -0.95640135 -0.97366583 0.39138681
-8.43179893 -7.16298342 -0.17463370 -0.94565392 -0.96472561 -0.11551332
-8.57694530 -7.33085108 1.38769007 -0.96193260 -0.98733437 0.91790241
-8.55233097 -7.12721300 0.21575929 -0.95917201 -0.95990795 0.14271629
-8.53343678 -7.32709837 0.59613061 -0.95705295 -0.98682898 0.39431697
-8.43203640 -7.25503635 -0.17483321 -0.94568056 -0.97712350 -0.11564530
-8.57882404 -7.21596003 0.99007910 -0.96214330 -0.97186059 0.65489841
-8.57709599 -7.42489195 1.39600408 -0.96194947 -1.00000000 0.92340183
-8.49670410 -7.17176294 0.21531475 -0.95293325 -0.96590805 0.14242224
-8.78124809 -7.10516262 0.53487790 -0.98484582 -0.95693821 0.35380068
-8.73752880 -7.08009577 -0.22738871 -0.97994256 -0.95356214 -0.15040869
-8.54541492 -7.28006506 0.99168187 -0.95839632 -0.98049444 0.65595859
-8.77904892 -7.16108227 1.31383252 -0.98459917 -0.96446955 0.86904854
-8.47423077 -7.24453306 0.21626733 -0.95041281 -0.97570890 0.14305234
-8.69158649 -7.12357664 0.53142852 -0.97478998 -0.95941824 0.35151908
-8.63895988 -7.06812000 -0.22671993 -0.96888769 -0.95194918 -0.14996631
-8.52155781 -7.32935572 0.99308425 -0.95572066 -0.98713297 0.65688616
-8.67926407 -7.14826250 1.30289388 -0.97340798 -0.96274298 0.86181307
-8.49439144 -7.33150530 0.21855353 -0.95267391 -0.98742247 0.14456457
-8.77359295 -7.05453682 0.14344330 -0.98398727 -0.95011979 0.09488210
-8.60862732 -7.12381506 0.52762234 -0.96548581 -0.95945030 0.34900144
-8.57124615 -7.10316086 -0.22648108 -0.96129340 -0.95666856 -0.14980833
-8.59603882 -7.17095470 1.29653418 -0.96407396 -0.96579921 0.85760641
-8.67475605 -7.06542921 0.14169458 -0.97290236 -0.95158678 0.09372539
-8.54530907 -7.16240740 0.52619499 -0.95838445 -0.96464801 0.34805730
-8.52644730 -7.15687513 -0.22648108 -0.95626909 -0.96390295 -0.14980833
-8.59003258 -7.08678627 0.14039552 -0.96340036 -0.95446324 0.09286612
-8.47574806 -7.19532919 0.52429187 -0.95058298 -0.96908200 0.34679845
-8.46757603 -7.19867325 -0.22633778 -0.94966644 -0.96953237 -0.14971355
-8.51883507 -7.28999043 1.29882371 -0.95541531 -0.98183119 0.85912085
-8.52228737 -7.12143040 0.13964607 -0.95580250 -0.95912915 0.09237038
-8.50618267 -7.31338263 0.53023905 -0.95399630 -0.98498172 0.35073227
-8.49959373 -7.31814432 -0.22714986 -0.95325732 -0.98562300 -0.15025070
-8.53832150 -7.18671608 0.89916778 -0.95760077 -0.96792197 0.59476411
-8.49388313 -7.36152267 1.30238509 -0.95261687 -0.99146527 0.86147654
-8.46055984 -7.16065931 0.13909647 -0.94887954 -0.96441257 0.09200685
-8.48844433 -7.23635435 0.89861232 -0.95200688 -0.97460735 0.59439671
-8.42604446 -7.22276592 0.13944621 -0.94500858 -0.97277725 0.09223819
