14.35859299 5.05987787 1.19450331 0.98724711 0.93068969 0.47110701
14.36473942 4.93877697 0.67135513 0.98766971 0.90841496 0.26477960
14.26367950 4.95918036 -0.36196205 0.98072118 0.91216785 -0.14275628
14.29575253 5.01566076 0.66922677 0.98292643 0.92255664 0.26394019
14.29387665 5.23990917 1.19450331 0.98279744 0.96380377 0.47110701
14.29088593 5.08640957 1.71247721 0.98259181 0.93556982 0.67539370
14.28650951 5.11349058 0.67050380 0.98229086 0.94055098 0.26444384
14.26677036 4.98085594 2.52019143 0.98093367 0.91615480 0.99395275
14.34448242 4.81747055 0.05472863 0.98627692 0.88610244 0.02158474
14.22943306 5.14015722 1.70763123 0.97836649 0.94545591 0.67348248
14.34856129 5.21223879 0.67539901 0.98655736 0.95871425 0.26637450
14.13714123 5.01062393 2.50119209 0.97202086 0.92163014 0.98645949
14.31404686 4.88244152 0.05462682 0.98418427 0.89805293 0.02154459
14.29554081 5.26596308 1.72047293 0.98291183 0.96859604 0.67854720
14.19569969 4.71865034 -0.44840685 0.97604710 0.86792594 -0.17684975
14.07383728 5.08799553 2.49552560 0.96766829 0.93586153 0.98422468
14.28875637 4.97424698 0.05470318 0.98244536 0.91493917 0.02157470
14.35283470 5.05210209 1.11615872 0.98685116 0.92925948 0.44020826
14.28511620 4.84807491 -0.45102182 0.98219508 0.89173168 -0.17788108
14.07676411 5.18923521 2.50185871 0.96786952 0.95448309 0.98672241
14.27185917 4.89240074 0.58119804 0.98128361 0.89988476 0.22922203
14.29640961 5.13345909 1.11402237 0.98297161 0.94422388 0.43936568
14.04265976 4.86471605 -0.44637299 0.96552461 0.89479256 -0.17604761
14.11960506 5.30591869 2.51552510 0.97081512 0.97594523 0.99211240
14.22611237 4.99538469 1.61633289 0.97813821 0.91882712 0.63747478
14.33139324 5.01351881 0.58576912 0.98537695 0.92216265 0.23102485
14.31256104 5.24093866 1.11829495 0.98408210 0.96399313 0.44105077
14.19654179 5.43669701 2.53552437 0.97610503 1.00000000 1.00000000
14.24309349 5.10202360 1.62234533 0.97930574 0.93844175 0.63984609
14.31466866 5.10881805 0.58653098 0.98422700 0.93969154 0.23132531
14.24130821 5.17720032 1.62512028 0.97918302 0.95226943 0.64094049
14.38439560 5.21010923 0.59129256 0.98902118 0.95832253 0.23320326
14.36767578 4.88291597 -0.00164990 0.98787159 0.89814019 -0.00065071
14.24390793 5.27964926 1.62951398 0.97936177 0.97111338 0.64267337
14.31593800 4.96585655 -0.00184735 0.98431426 0.91339588 -0.00072859
14.43725204 5.03475714 2.09357572 0.99265540 0.92606908 0.82569736
14.35555649 5.04706192 1.03109229 0.98703831 0.92833239 0.40665841
14.26640987 4.82398176 -0.51068431 0.98090893 0.88730007 -0.20141171
14.23015213 5.06277752 2.06640911 0.97841597 0.93122303 0.81498295
14.35687828 4.91404676 0.51486313 0.98712921 0.90386623 0.20305982
14.32356167 5.13716030 1.03109229 0.98483849 0.94490463 0.40665841
14.22070503 4.90828562 -0.51028836 0.97776639 0.90280652 -0.20125556
14.17960167 4.99044371 2.39888859 0.97494030 0.91791832 0.94611144
14.42713833 5.00088787 1.57857823 0.99196005 0.91983938 0.62258452
14.19992065 5.15276527 2.06669807 0.97633731 0.94777495 0.81509691
14.27858257 4.98761988 0.51271403 0.98174584 0.91739893 0.20221223
14.30456638 5.03821039 -0.51330745 0.98353243 0.92670429 -0.20244627
14.10710621 5.06470585 2.39185882 0.96995574 0.93157774 0.94333893
14.20852757 4.99994326 1.55533159 0.97692913 0.91966563 0.61341614
14.19404316 5.22648668 2.06958818 0.97593319 0.96133494 0.81623673
14.35280228 5.08970785 0.51718420 0.98684895 0.93617648 0.20397525
14.34842873 5.32497978 1.03783476 0.98654824 0.97945130 0.40931761
14.11274815 5.14198160 2.39697146 0.97034365 0.94579148 0.94535530
14.29441357 4.75899458 -0.10327230 0.98283434 0.87534666 -0.04073015
14.25348854 5.11675358 1.56449616 0.98002046 0.94115114 0.61703062
14.13935566 5.25263357 2.40719628 0.97217309 0.96614426 0.94938797
14.30590820 4.86281919 -0.10317133 0.98362470 0.89444369 -0.04069033
14.26209736 5.22129583 1.56941366 0.98061240 0.96038014 0.61897004
14.18361092 4.69667816 -0.60434806 0.97521591 0.86388451 -0.23835230
14.27696228 4.95326233 -0.10316674 0.98163444 0.91107935 -0.04068852
14.42490959 5.01637125 2.01374555 0.99180681 0.92268729 0.79421264
14.37366486 5.03895235 0.93763518 0.98828340 0.92684078 0.36979932
14.26370621 4.82269096 -0.60796762 0.98072302 0.88706267 -0.23977983
14.19890785 5.03829193 1.98471045 0.97626770 0.92671931 0.78276134
14.31097126 4.88997412 0.41565400 0.98397279 0.89943844 0.16393216
14.27594090 5.10573864 0.93270326 0.98156422 0.93912512 0.36785418
14.23501301 4.91286612 -0.60803002 0.97875017 0.90364903 -0.23980445
14.43003368 4.99282742 1.47407019 0.99215913 0.91835678 0.58136702
14.18932819 5.13546419 1.98806059 0.97560906 0.94459265 0.78408265
14.31395054 4.99159575 0.41697091 0.98417765 0.91813022 0.16445155
14.29983425 5.21576881 0.93693066 0.98320705 0.95936352 0.36952147
14.27932072 5.02866936 -0.61052632 0.98179662 0.92494935 -0.24078898
14.20170879 4.98919153 1.45117331 0.97646028 0.91768801 0.57233655
14.18914986 5.21111536 1.99169004 0.97559679 0.95850760 0.78551406
14.29969406 5.06231546 0.41733670 0.98319739 0.93113804 0.16459581
14.35558987 5.31276464 0.94298995 0.98704064 0.97720450 0.37191123
14.37153816 4.73537731 -0.18816008 0.98813719 0.87100261 -0.07420953
14.27685547 5.11642790 1.46314692 0.98162711 0.94109124 0.57705891
14.20437336 5.31815481 1.99894881 0.97664350 0.97819591 0.78837687
14.17981339 4.97318697 2.26089978 0.97495484 0.91474420 0.89168924
14.33392334 4.82302094 -0.18813348 0.98555088 0.88712335 -0.07419904
14.28554440 5.22099590 1.46776831 0.98222452 0.96032494 0.57888156
14.11103821 5.04891205 2.25486112 0.97022611 0.92867267 0.88930762
14.23149204 4.88820219 -0.18788077 0.97850806 0.89911246 -0.07409938
14.40700150 5.03333759 0.85814154 0.99057549 0.92580801 0.33844736
14.10505104 5.14692736 2.25908828 0.96981442 0.94670117 0.89097476
14.34162903 5.07517719 1.91951621 0.98608071 0.93350381 0.75704902
14.32006264 4.86777163 0.34257948 0.98459786 0.89535457 0.13511188
14.31120586 5.10089254 0.85371172 0.98398894 0.93823373 0.33670026
14.05574894 5.22926760 2.25637078 0.96642458 0.96184641 0.88990301
14.20883942 5.12871552 1.90503383 0.97695059 0.94335139 0.75133723
14.30618382 4.96357059 0.34315103 0.98364365 0.91297537 0.13533731
14.33886528 5.21261072 0.85788095 0.98589069 0.95878261 0.33834460
14.20033455 4.99932194 1.37714660 0.97636580 0.91955131 0.54314077
14.21537399 5.23231983 1.91066587 0.97739983 0.96240783 0.75355846
14.24646282 5.04331589 0.34219846 0.97953743 0.92764336 0.13496162
14.33949852 5.31513119 0.86022615 0.98593420 0.97763979 0.33926952
14.21885586 4.67557764 -0.25702181 0.97763926 0.86000335 -0.10136831
14.27401257 5.10113716 1.38756454 0.98143166 0.93827873 0.54724956
14.22581863 5.31247091 1.91576159 0.97811800 0.97715044 0.75556821
14.30869389 4.80477142 -0.25802496 0.98381621 0.88376665 -0.10176394
14.28465939 5.20645285 1.39217257 0.98216367 0.95765001 0.54906690
14.32999134 4.90097380 0.76420110 0.98528057 0.90146166 0.30139765
14.25172424 4.88553619 -0.25780204 0.97989917 0.89862210 -0.10167602
14.54407215 4.84776688 0.24521901 1.00000000 0.89167500 0.09671333
14.35926056 5.01188707 0.76800734 0.98729300 0.92186248 0.30289882
14.31140041 5.00656271 -0.25856635 0.98400229 0.92088318 -0.10197747
14.20709896 5.02225018 1.79335105 0.97683090 0.92376864 0.70728999
14.31260109 4.87104177 0.23992287 0.98408484 0.89595610 0.09462456
14.30867004 5.09533691 0.76681787 0.98381454 0.93721187 0.30242971
13.89711380 4.96043253 -0.25533396 0.95551741 0.91239822 -0.10070263
14.21073723 5.12415361 1.79818439 0.97708106 0.94251227 0.70919627
14.31572533 4.97263718 0.24082221 0.98429966 0.91464305 0.09497926
14.31579971 5.19939947 0.76931572 0.98430479 0.95635265 0.30341485
14.29622746 5.02323866 1.27039027 0.98295903 0.92395043 0.50103652
14.17639828 5.21265841 1.79793012 0.97472000 0.95879143 0.70909595
14.30116749 5.06847477 0.24127188 0.98329872 0.93227094 0.09515660
14.29866886 5.09988308 1.27298236 0.98312694 0.93804806 0.50205880
14.27196026 5.19165754 1.27353776 0.98129052 0.95492864 0.50227785
14.34553814 5.32055855 1.28409123 0.98634946 0.97863805 0.50644010
