-5.69504070 -8.80911160 -0.29352757 -0.97182560 -0.83818990 -0.12552422
-5.67280769 -8.89705658 -0.29444754 -0.96803164 -0.84655792 -0.12591764
-5.61785555 -8.93421936 -0.29447722 -0.95865434 -0.85009396 -0.12593034
-5.58682299 -9.01017857 -0.29518947 -0.95335883 -0.85732150 -0.12623492
-5.57245064 -9.08248234 -0.29599074 -0.95090628 -0.86420125 -0.12657757
-5.75576305 -8.78230190 -0.35584471 -0.98218751 -0.83563894 -0.15217355
-5.42605305 -9.23233795 0.05862183 -0.92592442 -0.87846005 0.02506906
-5.69829130 -8.81493855 -0.35576168 -0.97238028 -0.83874434 -0.15213804
-5.38092566 -9.28876686 0.05909882 -0.91822368 -0.88382930 0.02527304
-5.66651392 -8.88761520 -0.35667485 -0.96695763 -0.84565955 -0.15252855
-5.33925581 -9.35194683 0.05972257 -0.91111296 -0.88984084 0.02553978
-5.62657452 -8.94840336 -0.35729745 -0.96014220 -0.85144359 -0.15279479
-5.29407215 -9.40973377 0.06023624 -0.90340263 -0.89533931 0.02575944
-5.20356083 -10.07060623 1.94130015 -0.88795739 -0.95822155 0.83017820
-5.06316853 -9.91236115 1.90559208 -0.86400026 -0.94316447 0.81490803
-5.46777391 -9.20001984 -0.00164821 -0.93304384 -0.87538499 -0.00070484
-5.02371979 -9.98978615 1.91451919 -0.85726857 -0.95053148 0.81872559
-5.41188908 -9.23764038 -0.00159731 -0.92350739 -0.87896454 -0.00068307
-5.72375917 -8.68964672 -0.39546388 -0.97672623 -0.82682282 -0.16911630
-4.95127344 -10.00171280 1.91074228 -0.84490603 -0.95166630 0.81711048
-5.37380743 -9.30606079 -0.00108826 -0.91700900 -0.88547480 -0.00046538
-5.71574688 -8.79762363 -0.39759210 -0.97535896 -0.83709681 -0.17002641
-5.26149321 -9.66004181 0.44808918 -0.89784324 -0.91915619 0.19162101
-4.88317442 -10.02198792 1.90868223 -0.83328533 -0.95359552 0.81622946
-5.66573477 -8.84179020 -0.39783958 -0.96682471 -0.84129930 -0.17013225
-5.19222498 -9.67705631 0.44713140 -0.88602298 -0.92077512 0.19121142
-4.85660028 -10.12893391 1.92344618 -0.82875061 -0.96377146 0.82254314
-5.63030100 -8.90936661 -0.39877993 -0.96077812 -0.84772921 -0.17053437
-5.14340878 -9.73246574 0.44851485 -0.87769282 -0.92604738 0.19180304
-5.12568808 -10.03602028 0.84825110 -0.87466884 -0.95493066 0.36274639
-4.82133627 -10.21988678 1.93511999 -0.82273299 -0.97242564 0.82753533
-5.86014700 -8.70915318 -0.46561816 -1.00000000 -0.82867885 -0.19911711
-5.54217052 -9.17963123 -0.04160732 -0.94573915 -0.87344497 -0.01779297
-5.12421417 -9.80797863 0.45160097 -0.87441736 -0.93323243 0.19312279
-5.09175730 -10.08676624 0.85086763 -0.86887878 -0.95975918 0.36386532
-4.79053259 -10.28002834 1.94233024 -0.81747651 -0.97814816 0.83061874
-5.80792713 -8.72005558 -0.46499410 -0.99108899 -0.82971621 -0.19885023
-5.43546677 -9.09907627 -0.04272024 -0.92753077 -0.86578017 -0.01826890
-5.02739668 -10.11677361 0.85069323 -0.85789603 -0.96261442 0.36379072
-5.01107073 -10.14005756 0.06966581 -0.85511005 -0.96482986 0.02979191
-5.76733494 -8.77806759 -0.46580538 -0.98416215 -0.83523607 -0.19919716
-5.42876434 -9.21931171 -0.04182272 -0.92638707 -0.87722057 -0.01788508
-5.12468481 -10.07312584 1.24048269 -0.87449765 -0.95846128 0.53048044
-4.98117590 -10.18398857 0.85418189 -0.85000867 -0.96900994 0.36528262
-5.18606758 -10.06551552 1.87987542 -0.88497227 -0.95773715 0.80391055
-4.89236164 -10.05795479 0.06735428 -0.83485305 -0.95701778 0.02880341
-5.71860981 -8.82418346 -0.46617982 -0.97584748 -0.83962399 -0.19935729
-5.38574028 -9.27921295 -0.04155347 -0.91904527 -0.88292021 -0.01776994
-5.06040668 -10.10334969 1.24024045 -0.86352897 -0.96133709 0.53037685
-5.05387878 -10.13537502 0.46543539 -0.86241502 -0.96438432 0.19903894
-5.21627665 -9.57979012 0.38197377 -0.89012724 -0.91152024 0.16334739
-4.99231577 -10.09905815 -0.30504212 -0.85190964 -0.96092874 -0.13044831
-5.07437420 -10.00302029 1.86187589 -0.86591244 -0.95179075 0.79621321
-4.86175251 -10.15709496 0.06874854 -0.82962978 -0.96645099 0.02939965
-4.99857569 -10.13850975 1.24072504 -0.85297787 -0.96468258 0.53058404
-4.96730185 -10.12027454 0.46266851 -0.84764117 -0.96294749 0.19785571
-5.18346214 -9.66337776 0.38473547 -0.88452768 -0.91947365 0.16452840
-5.18018866 -10.00154305 0.79029071 -0.88396907 -0.95165014 0.33796018
-4.93399334 -10.14102459 -0.30522019 -0.84195727 -0.96492189 -0.13052446
-5.00523329 -10.02236748 1.85954261 -0.85411394 -0.95363164 0.79521543
-5.54459381 -9.07857990 -0.11343383 -0.94615269 -0.86382991 -0.04850888
-4.95031786 -10.20189381 1.24508631 -0.84474295 -0.97071362 0.53244913
-4.90275097 -10.14948463 0.46256208 -0.83662593 -0.96572685 0.19781020
-5.12732601 -9.70457840 0.38521165 -0.87494838 -0.92339391 0.16473204
-5.11179256 -10.02324963 0.78930473 -0.87229764 -0.95371556 0.33753854
-4.88996601 -10.21334648 -0.30590275 -0.83444428 -0.97180331 -0.13081636
-4.91684008 -10.00234127 1.84987617 -0.83903015 -0.95172614 0.79108167
-5.50089693 -9.13548565 -0.11337417 -0.93869609 -0.86924452 -0.04848336
-4.83891439 -10.09252262 1.22715640 -0.82573259 -0.96030688 0.52478158
-4.88057709 -10.22659492 0.46575463 -0.83284211 -0.97306395 0.19917546
-4.63614273 -10.07209492 0.83237761 -0.79113078 -0.95836318 0.35595822
-5.07980967 -10.07745743 0.79209834 -0.86683995 -0.95887345 0.33873320
-4.88435316 -10.05552864 1.85554278 -0.83348644 -0.95678693 0.79350489
-5.46394730 -9.17160416 -0.11334663 -0.93239081 -0.87268120 -0.04847159
-4.73996830 -10.04725170 1.21697998 -0.80884802 -0.95599937 0.52042973
-5.18165541 -10.10134125 1.18274319 -0.88421935 -0.96114600 0.50578868
-4.54576111 -10.04107952 0.82662123 -0.77570772 -0.95541209 0.35349658
-5.02172613 -10.11987972 0.79308432 -0.85692835 -0.96290994 0.33915484
-4.85607815 -10.15890408 1.86920905 -0.82866150 -0.96662313 0.79934919
-4.99344826 -10.13476753 0.00593657 -0.85210288 -0.96432650 0.00253872
-4.69589281 -10.11828804 1.22255278 -0.80132681 -0.96275848 0.52281284
-5.10190725 -10.10180950 1.17858076 -0.87061077 -0.96119058 0.50400865
-4.46563673 -10.03118801 0.82295817 -0.76203495 -0.95447087 0.35193011
-4.97296858 -10.18165207 0.79587793 -0.84860814 -0.96878761 0.34034950
-5.29589939 -9.54816914 0.33175990 -0.90371442 -0.90851146 0.14187391
-4.81237268 -10.23200703 1.87720883 -0.82120341 -0.97357887 0.80277020
-4.90952778 -10.12459087 0.00535117 -0.83778238 -0.96335822 0.00228838
-4.62155104 -10.12409592 1.21940291 -0.78864080 -0.96331114 0.52146584
-5.03656006 -10.13011169 1.17811823 -0.85945970 -0.96388352 0.50381088
-4.39217997 -10.03530121 0.82069051 -0.74949998 -0.95486224 0.35096034
-5.23007298 -9.57072449 0.33124411 -0.89248151 -0.91065764 0.14165334
-4.98861170 -10.08591938 -0.37145159 -0.85127759 -0.95967859 -0.15884767
-4.76212025 -10.29244232 1.88287532 -0.81262815 -0.97932935 0.80519342
-4.27961826 -9.83609486 0.05895205 -0.73029196 -0.93590772 0.02521027
-4.85705519 -10.17868137 0.00568205 -0.82882822 -0.96850497 0.00242987
-4.54570246 -10.12574387 1.21576846 -0.77569771 -0.96346790 0.51991165
-4.96755314 -10.15085983 1.17673075 -0.84768403 -0.96585768 0.50321752
-5.64059830 -9.02136993 -0.17322387 -0.96253526 -0.85838634 -0.07407751
-4.96708298 -10.12023544 0.39940113 -0.84760380 -0.96294379 0.17080003
-4.32982397 -10.06453133 0.82086492 -0.73885930 -0.95764351 0.35103494
-5.17927408 -9.62100887 0.33210376 -0.88381302 -0.91544223 0.14202096
-5.18281317 -9.97450447 0.72553515 -0.88441694 -0.94907743 0.31026807
-4.93919754 -10.14580441 -0.37211570 -0.84284532 -0.96537668 -0.15913168
-4.20912123 -9.84254932 0.05854845 -0.71826208 -0.93652189 0.02503768
-4.48199129 -10.15410614 1.21576846 -0.76482576 -0.96616662 0.51991165
-5.56497002 -9.02595234 -0.17310417 -0.94962978 -0.85882241 -0.07402632
-4.38497114 -9.98140240 0.44287467 -0.74826980 -0.94973379 0.18939106
-4.91124725 -10.16741943 0.40025821 -0.83807576 -0.96743333 0.17116655
-4.29276466 -10.15398026 0.82679570 -0.73253530 -0.96615463 0.35357118
-5.15603304 -9.72404289 0.33554232 -0.87984705 -0.92524594 0.14349143
-5.11732435 -10.00154114 0.72507542 -0.87324166 -0.95164996 0.31007150
-4.19924116 -9.64741421 -0.29400238 -0.71657610 -0.91795468 -0.12572728
-4.16107798 -9.90201092 0.05920889 -0.71006376 -0.94217962 0.02532011
-4.80423355 -10.09732628 1.16285586 -0.81981450 -0.96076399 0.49728405
-5.53171921 -9.06746006 -0.17316402 -0.94395572 -0.86277187 -0.07405192
-5.10554171 -10.03234196 1.50458050 -0.87123102 -0.95458066 0.64341927
-4.31968784 -9.95977879 0.44042704 -0.73712963 -0.94767630 0.18834436
-4.87105322 -10.20666313 0.40111530 -0.83121687 -0.97116739 0.17153308
-4.64982319 -10.11864376 0.77977353 -0.79346526 -0.96279234 0.33346260
-5.08627748 -10.05760479 0.72783375 -0.86794364 -0.95698446 0.31125107
-4.19538593 -9.76455593 -0.29557526 -0.71591818 -0.92910075 -0.12639990
-4.10140705 -9.89008331 0.05858514 -0.69988126 -0.94104475 0.02505337
-5.15962219 -10.05407238 1.79497898 -0.88045949 -0.95664835 0.76760536
-4.72632217 -10.09675217 1.15892470 -0.80651939 -0.96070933 0.49560294
-5.50751972 -9.15694427 -0.17337683 -0.93982619 -0.87128633 -0.07414293
-5.05477238 -10.08901596 1.50862658 -0.86256748 -0.95997322 0.64514959
-4.25156593 -9.97385311 0.43968210 -0.72550499 -0.94901544 0.18802579
-4.53670216 -10.03876877 0.76991367 -0.77416182 -0.95519221 0.32924613
-5.30941868 -9.44407749 0.25864992 -0.90602142 -0.89860713 0.11060914
-5.02475452 -10.09293747 0.72814018 -0.85744512 -0.96034640 0.31138211
-4.14634037 -9.82022381 -0.29605007 -0.70754886 -0.93439758 -0.12660295
-4.03993607 -9.91751194 0.05862183 -0.68939161 -0.94365460 0.02506906
-5.05465126 -10.00339699 1.77996111 -0.86254686 -0.95182657 0.76118314
-4.64944267 -10.09740162 1.15522468 -0.79340035 -0.96077114 0.49402067
-5.17926073 -10.13065720 1.14091587 -0.88381070 -0.96393543 0.48790163
-4.93372011 -10.00332928 1.48955214 -0.84191066 -0.95182014 0.63699257
-4.18651056 -9.99483871 0.43936285 -0.71440369 -0.95101225 0.18788928
-4.44671583 -10.00701523 0.76449078 -0.75880617 -0.95217085 0.32692710
-5.23831415 -9.45629311 0.25777197 -0.89388782 -0.89976943 0.11023369
-4.98134804 -10.16553211 0.73166466 -0.85003805 -0.96725380 0.31288931
-4.12955856 -9.95514965 -0.29780102 -0.70468515 -0.94723582 -0.12735173
-3.95832419 -9.89439106 0.05766787 -0.67546499 -0.94145459 0.02466111
-4.96629190 -9.98364925 1.77069473 -0.84746885 -0.94994754 0.75722045
-4.88075542 -10.01267529 -0.03787365 -0.83287251 -0.95270938 -0.01619630
-4.57109642 -10.09386921 1.15106225 -0.78003103 -0.96043503 0.49224064
-5.67125702 -8.95527649 -0.22224550 -0.96776700 -0.85209757 -0.09504114
-5.09146547 -10.11502457 1.13488078 -0.86882895 -0.96244794 0.48532078
-4.86560440 -10.02343941 1.48781812 -0.83028710 -0.95373362 0.63625103
-4.12135935 -10.01540089 0.43904361 -0.70328599 -0.95296872 0.18775275
-4.37894440 -10.02380657 0.76350480 -0.74724138 -0.95376855 0.32650545
-5.20569754 -9.53809166 0.25982049 -0.88832200 -0.90755260 0.11110972
-4.93463802 -10.23258400 0.73472947 -0.84206730 -0.97363377 0.31419995
-5.21247959 -9.88085270 0.65087575 -0.88947934 -0.94016641 0.27834073
-3.87279749 -9.85946178 0.05649376 -0.66087037 -0.93813109 0.02415901
-4.25617123 -9.81946659 -0.00164821 -0.72629088 -0.93432552 -0.00070484
-5.00505781 -10.06760120 -0.41620159 -0.85408401 -0.95793563 -0.17798458
-4.88962555 -9.98626041 1.76558232 -0.83438617 -0.95019603 0.75503421
-4.86341810 -10.13879585 -0.03692228 -0.82991403 -0.96470982 -0.01578946
-5.42965698 -10.22990417 2.33841372 -0.92653936 -0.97337878 1.00000000
-4.50352764 -10.11332417 1.14990604 -0.76850080 -0.96228617 0.49174619
-5.59575033 -8.96023560 -0.22195889 -0.95488226 -0.85256940 -0.09491857
-5.03660297 -10.16463947 1.13711596 -0.85946703 -0.96716887 0.48627663
-4.81697559 -10.08419704 1.49273121 -0.82198888 -0.95951474 0.63835204
-4.06505394 -10.05777550 0.44000137 -0.69367778 -0.95700067 0.18816233
-4.30955839 -10.03648186 0.76219016 -0.73540109 -0.95497459 0.32594326
-4.98495436 -10.12116051 0.34740534 -0.85065347 -0.96303183 0.14856453
-5.17130852 -9.61809254 0.26179585 -0.88245374 -0.91516471 0.11195446
-5.12721920 -9.86919117 0.64735293 -0.87493014 -0.93905681 0.27683422
-3.80218315 -9.86119461 0.05605347 -0.64882046 -0.93829596 0.02397072
-4.18966675 -9.83498478 -0.00180092 -0.71494228 -0.93580210 -0.00077015
-4.90405464 -10.02155781 -0.41407338 -0.83684838 -0.95355457 -0.17707448
-4.83190680 -10.02746582 1.76749945 -0.82453680 -0.95411670 0.75585401
-5.27420187 -10.09033966 2.29827452 -0.90001190 -0.96009922 0.98283488
-4.44709539 -10.15778637 1.15198720 -0.75887096 -0.96651679 0.49263617
-5.56038094 -9.02923584 -0.22227734 -0.94884664 -0.85913479 -0.09505475
-4.96916533 -10.18893242 1.13622189 -0.84795916 -0.96948034 0.48589429
-4.76022816 -10.12860489 1.49504328 -0.81230527 -0.96374017 0.63934082
-4.03037596 -10.15556812 0.44415170 -0.68776023 -0.96630567 0.18993717
-4.38268328 -9.97996712 0.38159284 -0.74787939 -0.94959718 0.16318448
-4.26664925 -10.11107159 0.76646274 -0.72807890 -0.96207184 0.32777038
-4.92386818 -10.15768051 0.34766322 -0.84022945 -0.96650672 0.14867482
-5.08881664 -9.94734669 0.65101665 -0.86837697 -0.94649339 0.27840099
-4.22726011 -9.71226120 -0.35775405 -0.72135735 -0.92412490 -0.15299006
-3.73592448 -9.87366009 0.05583332 -0.63751376 -0.93948203 0.02387658
-4.13477039 -9.87770367 -0.00157185 -0.70557451 -0.93986678 -0.00067219
-4.89975882 -10.17477417 -0.41743892 -0.83611536 -0.96813315 -0.17851372
-4.80588150 -10.13618946 1.78155875 -0.82009572 -0.96446180 0.76186639
-5.17650652 -10.05714035 2.28302169 -0.88334072 -0.95694029 0.97631216
-5.54595613 -9.10139656 -0.22270727 -0.94638515 -0.86600095 -0.09523861
-4.71991587 -10.16709232 1.49764431 -0.80542618 -0.96740222 0.64045310
-5.11519289 -10.05322933 1.45091283 -0.87287790 -0.95656812 0.62046885
-4.30527973 -9.93091583 0.37797403 -0.73467094 -0.94492996 0.16163693
-4.87938643 -10.18798542 0.34800708 -0.83263892 -0.96939021 0.14882186
-5.06266451 -10.01212788 0.65425766 -0.86391425 -0.95265734 0.27978694
-4.17906666 -9.72656631 -0.35762954 -0.71313339 -0.92548603 -0.15293682
-3.68726897 -9.88553047 0.05572325 -0.62921101 -0.94061154 0.02382951
-4.10275030 -9.93216991 -0.00108826 -0.70011050 -0.94504929 -0.00046538
-4.76807261 -10.18019676 1.78539312 -0.81364387 -0.96864915 0.76350611
-5.10498285 -10.03431606 2.27218413 -0.87113565 -0.95476854 0.97167754
-4.80084705 -10.12432957 1.12146926 -0.81923664 -0.96333337 0.47958547
-4.64775419 -10.17853069 1.49475431 -0.79311222 -0.96849060 0.63921720
-5.04747486 -10.07632542 1.44951701 -0.86132222 -0.95876575 0.61987191
-4.22863960 -9.92471504 0.37625986 -0.72159272 -0.94433993 0.16090389
-4.56174946 -10.05701256 0.71036458 -0.77843601 -0.95692813 0.30378053
-5.01125622 -10.06693649 0.65608954 -0.85514170 -0.95787239 0.28057036
-5.32496214 -9.41320515 0.20566194 -0.90867382 -0.89566964 0.08794934
-4.14834261 -9.82441521 -0.35924831 -0.70789051 -0.93479639 -0.15362906
-3.71256304 -10.14904690 0.06041969 -0.63352728 -0.96568519 0.02583790
-4.71800423 -10.24046326 1.79082501 -0.80509996 -0.97438347 0.76582897
-5.00667286 -10.13456535 -0.11190547 -0.85435963 -0.96430731 -0.04785529
-5.03126812 -10.04518986 2.26736760 -0.85855663 -0.95580316 0.96961784
-4.70868254 -10.09300423 1.11386931 -0.80350929 -0.96035272 0.47633544
-5.14902306 -10.08045197 1.05688572 -0.87865084 -0.95915836 0.45196694
-4.59905005 -10.24186230 1.50024545 -0.78480113 -0.97451663 0.64156544
-4.92956400 -9.99781227 1.43220758 -0.84120142 -0.95129520 0.61246973
-4.15922308 -9.93451691 0.37540278 -0.70974725 -0.94527262 0.16053736
-4.47581911 -10.03444099 0.70607388 -0.76377249 -0.95478040 0.30194566
-4.96552658 -10.13402271 0.65890783 -0.84733820 -0.96425563 0.28177556
-5.26086235 -9.43773746 0.20534441 -0.89773554 -0.89800388 0.08781355
-4.13271761 -9.96101475 -0.36173877 -0.70522422 -0.94779390 -0.15469408
-3.73065805 -10.40196133 0.06489599 -0.63661510 -0.98975009 0.02775214
-3.96794987 -9.95880795 -0.00141914 -0.67710757 -0.94758391 -0.00060688
-4.92007494 -10.11909962 -0.11202480 -0.83958215 -0.96283573 -0.04790632
-4.95848751 -10.05729103 2.26295209 -0.84613705 -0.95695460 0.96772957
-4.64269686 -10.11696720 1.11319876 -0.79224920 -0.96263283 0.47604868
-5.08827496 -10.11793137 1.05751598 -0.86828452 -0.96272457 0.45223647
-4.85710239 -10.00900650 1.42913663 -0.82883626 -0.95236033 0.61115646
-4.09366751 -9.95306969 0.37502187 -0.69856054 -0.94703794 0.16037448
-4.39194822 -10.01484489 0.70208967 -0.74946040 -0.95291585 0.30024186
-4.92610884 -10.21529388 0.66285342 -0.84061182 -0.97198862 0.28346285
-5.21296787 -9.49165344 0.20610647 -0.88956267 -0.90313399 0.08813944
-5.20945930 -9.82623577 0.58792245 -0.88896394 -0.93496960 0.25141934
-3.83912778 -10.49338341 -0.30367699 -0.65512484 -0.99844897 -0.12986453
-3.86576748 -9.88304710 -0.00279356 -0.65967071 -0.94037521 -0.00119464
-5.00485373 -10.08970356 -0.48951989 -0.85404921 -0.96003866 -0.20933844
-5.15803719 -10.08501244 1.69598377 -0.88018906 -0.95959228 0.72527105
-4.28150797 -9.81798267 -0.04171502 -0.73061442 -0.93418431 -0.01783903
-4.86679554 -10.17144394 -0.11196972 -0.83049035 -0.96781629 -0.04788277
-4.90034962 -10.09881401 2.26536059 -0.83621615 -0.96090555 0.96875954
-4.56438208 -10.11330414 1.10917532 -0.77888525 -0.96228427 0.47432810
-5.01928806 -10.13901615 1.05625558 -0.85651231 -0.96473080 0.45169747
-4.80782509 -10.06789589 1.43360353 -0.82042736 -0.95796365 0.61306667
-4.03480911 -9.98784828 0.37549803 -0.68851674 -0.95034713 0.16057810
-4.98701954 -10.13545418 0.27555016 -0.85100585 -0.96439183 0.11783636
-4.32343483 -10.02941322 0.70101702 -0.73776901 -0.95430201 0.29978314
-5.18071890 -9.57525730 0.20794813 -0.88405955 -0.91108894 0.08892701
-5.13749170 -9.83929539 0.58648926 -0.87668306 -0.93621224 0.25080645
-3.51042318 -9.78083420 -0.29207340 -0.59903330 -0.93064964 -0.12490236
-3.77982306 -9.84557629 -0.00363349 -0.64500481 -0.93680990 -0.00155383
-4.96600771 -10.17120361 -0.49126726 -0.84742033 -0.96779341 -0.21008569
-5.07226038 -10.07311630 1.68843544 -0.86555171 -0.95846039 0.72204310
-4.21267605 -9.82813358 -0.04187657 -0.71886867 -0.93515021 -0.01790811
-4.86646175 -10.19123363 2.27940917 -0.83043337 -0.96969926 0.97476727
-4.49111462 -10.11996555 1.10649300 -0.76638258 -0.96291810 0.47318101
-4.96335411 -10.18643093 1.05814612 -0.84696752 -0.96924233 0.45250595
-4.75039005 -10.11044216 1.43555784 -0.81062645 -0.96201193 0.61390245
-4.00305939 -10.09093666 0.37949774 -0.68309879 -0.96015602 0.16228853
-4.40845251 -9.99771118 0.33210376 -0.75227678 -0.95128554 0.14202096
-4.90924931 -10.13783169 0.27437958 -0.83773482 -0.96461809 0.11733577
-4.27117586 -10.08210659 0.70316237 -0.72885132 -0.95931584 0.30070058
-5.40123653 -9.33866310 0.13170187 -0.92168957 -0.88857692 0.05632103
-5.10466719 -9.92823029 0.59065849 -0.87108177 -0.94467443 0.25258937
-3.45417976 -9.81779957 -0.29231080 -0.58943570 -0.93416691 -0.12500389
-3.70796657 -9.84294987 -0.00398982 -0.63274294 -0.93655998 -0.00170621
-4.25993347 -9.72739601 -0.40075967 -0.72693288 -0.92556500 -0.17138100
-4.96745062 -10.02160549 1.67424464 -0.84766656 -0.95355910 0.71597451
-4.14234018 -9.83411789 -0.04207403 -0.70686626 -0.93571961 -0.01799255
-4.44893551 -10.15377045 1.10805774 -0.75918496 -0.96613467 0.47385016
-4.70938921 -10.14707375 1.43779123 -0.80362988 -0.96549743 0.61485749
-5.14434338 -10.06645679 1.39064026 -0.87785226 -0.95782673 0.59469384
-3.97740412 -10.16545963 0.38235468 -0.67872089 -0.96724689 0.16351028
-4.32237720 -9.92852974 0.32789153 -0.73758852 -0.94470292 0.14021964
-4.87094593 -10.18066883 0.27518436 -0.83119857 -0.96869403 0.11767993
-4.24582529 -10.15551758 0.70760626 -0.72452539 -0.96630090 0.30260098
-5.34521580 -9.34320927 0.13110231 -0.91213000 -0.88900948 0.05606464
-5.09206152 -10.01984596 0.59560949 -0.86893070 -0.95339167 0.25470662
-3.40331841 -9.82073212 -0.29210308 -0.58075649 -0.93444592 -0.12491506
-3.65944242 -9.85469437 -0.00406618 -0.62446254 -0.93767744 -0.00173886
-4.19824934 -9.71062756 -0.39976981 -0.71640682 -0.92396945 -0.17095770
-4.89660120 -9.99700642 1.66609240 -0.83557653 -0.95121849 0.71248829
-4.10741377 -9.88125134 -0.04180477 -0.70090628 -0.94020438 -0.01787741
-4.63810968 -10.16026306 1.43527865 -0.79146641 -0.96675241 0.61378300
-5.05791521 -10.05250645 1.38366723 -0.86310381 -0.95649934 0.59171188
-4.26382256 -9.96468449 0.32832134 -0.72759652 -0.94814306 0.14040345
-5.30019855 -9.40096664 0.13180180 -0.90444803 -0.89450514 0.05636377
-5.03345346 -10.06057453 0.59626091 -0.85892957 -0.95726705 0.25498521
-3.34538150 -9.85329056 -0.29228115 -0.57086992 -0.93754387 -0.12499121
-3.59538770 -9.87185860 -0.00414254 -0.61353201 -0.93931067 -0.00177152
-4.15038490 -9.76812267 -0.40061119 -0.70823902 -0.92944014 -0.17131750
-4.84317112 -10.04714870 1.66941369 -0.82645899 -0.95598954 0.71390861
-4.08212042 -9.99765873 -0.04092521 -0.69659013 -0.95128059 -0.01750127
-5.04525518 -10.11071873 -0.17541841 -0.86094344 -0.96203828 -0.07501598
-4.69552469 -10.07613087 1.03545940 -0.80126399 -0.95874721 0.44280419
-4.57906580 -10.20003510 1.43695378 -0.78139096 -0.97053677 0.61449939
-5.18984318 -10.11564827 1.00610673 -0.88561654 -0.96250731 0.43025181
-4.99640656 -10.08764267 1.38420355 -0.85260773 -0.95984256 0.59194124
-4.17414236 -9.92675972 0.32531261 -0.71229309 -0.94453448 0.13911679
-4.45591927 -9.99362373 0.63467067 -0.76037669 -0.95089662 0.27141076
-5.25076866 -9.45154190 0.13230143 -0.89601314 -0.89931738 0.05657743
-4.98946905 -10.13142586 0.59912729 -0.85142386 -0.96400857 0.25621098
-5.21420908 -9.70409203 0.51822579 -0.88977444 -0.92334759 0.22161424
-3.75440788 -10.50968456 0.00418037 -0.64066786 -1.00000000 0.00178769
-4.12496614 -9.88079357 -0.40293738 -0.70390147 -0.94016081 -0.17231227
-4.80716562 -10.13449287 1.67907560 -0.82031482 -0.96430039 0.71804041
-4.95263815 -10.08292770 -0.17519896 -0.84513891 -0.95939392 -0.07492214
-5.32621431 -10.15876770 2.20609355 -0.90888751 -0.96661013 0.94341457
-4.61880875 -10.07653046 1.03209841 -0.78817284 -0.95878524 0.44136691
-5.11724234 -10.13027954 1.00410330 -0.87322766 -0.96389949 0.42939505
-4.88879728 -10.02789974 1.37052572 -0.83424485 -0.95415801 0.58609205
-4.10105658 -9.92691517 0.32410911 -0.69982147 -0.94454932 0.13860212
-4.37936592 -9.99038696 0.63227516 -0.74731332 -0.95058864 0.27038637
-4.93351841 -10.17875290 0.60029989 -0.84187621 -0.96851176 0.25671244
-5.14657402 -9.72432232 0.51739317 -0.87823290 -0.92527252 0.22125818
-4.76018047 -10.20029926 1.68511415 -0.81229711 -0.97056186 0.72062278
-4.26078653 -9.80179119 -0.11331909 -0.72707844 -0.93264371 -0.04845981
-4.91000080 -10.15709972 -0.17535856 -0.83786309 -0.96645141 -0.07499039
-5.16804981 -10.00872898 2.16583943 -0.88189763 -0.95233393 0.92620027
-4.53899145 -10.06911755 1.02789712 -0.77455246 -0.95807987 0.43957025
-5.05349112 -10.16223145 1.00410330 -0.86234885 -0.96693975 0.42939505
-4.82398605 -10.05484200 1.36998940 -0.82318515 -0.95672160 0.58586270
-4.03636026 -9.94692802 0.32385123 -0.68878138 -0.94645351 0.13849184
-4.31333685 -10.01038361 0.63171148 -0.73604584 -0.95249134 0.27014530
-5.10574627 -9.79537773 0.52000993 -0.87126589 -0.93203348 0.22237721
-3.53024697 -9.83816433 -0.35484850 -0.60241610 -0.93610460 -0.15174752
-4.69765282 -10.23359680 1.68571806 -0.80162716 -0.97373015 0.72088104
-3.81188345 -9.86187553 -0.04295359 -0.65047574 -0.93836075 -0.01836869
-4.19832706 -9.82653141 -0.11332368 -0.71642011 -0.93499774 -0.04846178
-5.10683441 -10.04450607 2.16660619 -0.87145162 -0.95573813 0.92652816
-4.46916151 -10.08290291 1.02621663 -0.76263642 -0.95939159 0.43885162
-4.98518276 -10.18483829 1.00310159 -0.85069245 -0.96909076 0.42896670
-4.76914263 -10.10289097 1.37267137 -0.81382644 -0.96129346 0.58700961
-3.97967172 -9.98695374 0.32453892 -0.67910784 -0.95026201 0.13878593
-4.24801111 -10.03178024 0.63128877 -0.72489840 -0.95452726 0.26996455
-4.93061972 -10.11723328 0.21963312 -0.84138155 -0.96265811 0.09392398
-5.07429218 -9.88582230 0.52393508 -0.86589843 -0.94063932 0.22405577
-3.43967390 -9.77909660 -0.35306367 -0.58696032 -0.93048429 -0.15098426
-4.25874901 -9.75390720 -0.47017384 -0.72673076 -0.92808753 -0.20106529
-4.63734436 -10.27191353 1.68722773 -0.79133582 -0.97737598 0.72152662
-3.72726226 -9.82575035 -0.04352801 -0.63603562 -0.93492341 -0.01861433
-4.11472654 -9.80112267 -0.11345219 -0.70215416 -0.93258011 -0.04851673
-5.03748941 -10.02457142 2.15702176 -0.85961825 -0.95384133 0.92242950
-4.41278934 -10.08382511 1.02390587 -0.75301683 -0.95947933 0.43786344
-4.72148132 -10.12525272 1.37267137 -0.80569333 -0.96342117 0.58700961
-5.14789152 -10.08772182 1.31332374 -0.87845773 -0.95985013 0.56163019
-3.99293923 -10.16006374 0.33167395 -0.68137187 -0.96673346 0.14183715
-4.29837942 -9.88843536 0.25674772 -0.73349345 -0.94088793 0.10979568
-4.20996284 -10.07375908 0.63297969 -0.71840566 -0.95852154 0.27068764
-4.88548088 -10.14576435 0.21982363 -0.83367890 -0.96537286 0.09400545
-3.39816093 -9.80841446 -0.35335425 -0.57987642 -0.93327391 -0.15110852
-4.20161104 -9.74818802 -0.46930015 -0.71698046 -0.92754334 -0.20069167
-3.67464638 -9.82633495 -0.04368956 -0.62705702 -0.93497908 -0.01868342
-4.08771992 -9.86655998 -0.11333745 -0.69754565 -0.93880647 -0.04846766
-4.96139717 -10.02961063 2.15127110 -0.84663355 -0.95432079 0.91997027
-4.65447760 -10.14750671 1.37159848 -0.79425955 -0.96553868 0.58655083
-5.06385040 -10.07913494 1.30747283 -0.86411661 -0.95903307 0.55912811
-3.94619989 -10.22972488 0.33373708 -0.67339605 -0.97336173 0.14271943
-4.23774147 -9.91892052 0.25689405 -0.72314596 -0.94378859 0.10985825
-4.83698511 -10.20880413 0.22096673 -0.82540339 -0.97137111 0.09449428
-5.04318380 -10.09626389 0.53428316 -0.86058998 -0.96066290 0.22848102
-3.33517337 -9.82578754 -0.35327122 -0.56912792 -0.93492699 -0.15107302
-4.15985918 -9.82037544 -0.47086030 -0.70985579 -0.93441200 -0.20135885
-3.60872293 -9.83795547 -0.04379726 -0.61580759 -0.93608475 -0.01872947
-4.91625881 -10.09768009 2.15932202 -0.83893096 -0.96079761 0.92341316
-5.03258896 -10.09286690 -0.22764347 -0.85878205 -0.96033967 -0.09734953
-4.75214577 -10.14860535 0.98967838 -0.81092602 -0.96564317 0.42322639
-5.14336824 -10.03215218 0.90972126 -0.87768584 -0.95456260 0.38903350
-4.58819246 -10.17112732 1.37079394 -0.78294837 -0.96778619 0.58620679
-4.99865675 -10.10719967 1.30696404 -0.85299170 -0.96170342 0.55891055
-4.15979290 -9.90852356 0.25543082 -0.70984447 -0.94279933 0.10923252
-4.51373148 -10.06628132 0.58205944 -0.77024204 -0.95781004 0.24891210
-4.96992254 -10.10806084 0.53297478 -0.84808838 -0.96178538 0.22792150
-4.12353849 -9.90717316 -0.47291973 -0.70365787 -0.94267082 -0.20223954
-3.55020475 -9.86985111 -0.04370751 -0.60582179 -0.93911964 -0.01869109
-4.88820410 -10.20278358 2.17542362 -0.83414358 -0.97079825 0.93029886
-4.94696474 -10.07944393 -0.22724539 -0.84417075 -0.95906246 -0.09717929
-4.63272762 -10.05706501 0.97625524 -0.79054803 -0.95693308 0.41748610
-5.07843208 -10.06071854 0.90935093 -0.86660492 -0.95728076 0.38887513
-4.53539944 -10.22513962 1.37454867 -0.77393955 -0.97292542 0.58781242
-4.93069553 -10.12949657 1.30569208 -0.84139448 -0.96382499 0.55836660
-4.07908058 -9.89015484 0.25367495 -0.69607139 -0.94105154 0.10848164
-4.40469551 -9.99026775 0.57463294 -0.75163567 -0.95057732 0.24573621
-4.90631390 -10.13908863 0.53297478 -0.83723390 -0.96473765 0.22792150
-4.31468821 -9.81293297 -0.17348987 -0.73627645 -0.93370384 -0.07419126
-4.85318470 -10.29549122 2.18884182 -0.82816774 -0.97961944 0.93603700
-4.90711069 -10.15890789 -0.22767532 -0.83736992 -0.96662349 -0.09736314
-4.56862831 -10.08416080 0.97605491 -0.77960986 -0.95951128 0.41740045
-5.03201723 -10.12628174 0.91286874 -0.85868448 -0.96351910 0.39037949
-4.82566214 -10.07447529 1.29348159 -0.82347119 -0.95858967 0.55314487
-3.99951792 -9.87301636 0.25199223 -0.68249446 -0.93942082 0.10776204
-5.00473976 -10.14016438 0.14469239 -0.85402972 -0.96484005 0.06187630
-4.33314562 -9.99758720 0.57319981 -0.73942608 -0.95127374 0.24512336
-4.86060476 -10.20753574 0.53547257 -0.82943392 -0.97125041 0.22898966
-3.79392123 -10.50076485 -0.41427135 -0.64741057 -0.99915129 -0.17715913
-4.24662685 -9.82515049 -0.17343667 -0.72466218 -0.93486637 -0.07416852
-4.48985529 -10.07810211 0.97224832 -0.76616770 -0.95893478 0.41577259
-4.97092772 -10.16306114 0.91342419 -0.84825993 -0.96701866 0.39061701
-4.74868345 -10.07591057 1.28941143 -0.81033522 -0.95872629 0.55140430
-3.94482851 -9.91650772 0.25272384 -0.67316204 -0.94355905 0.10807490
-4.90497828 -10.09773922 0.14264388 -0.83700603 -0.96080327 0.06100028
-4.27024412 -10.02461529 0.57319981 -0.72869229 -0.95384550 0.24512336
-3.47018528 -9.79267979 -0.39506793 -0.59216696 -0.93177676 -0.16894698
-3.68624520 -9.75453568 -0.11391575 -0.62903631 -0.92814732 -0.04871497
-4.19246674 -9.82664204 -0.17337017 -0.71542007 -0.93500829 -0.07414007
-4.43672848 -10.08638763 0.97084594 -0.75710189 -0.95972317 0.41517287
-4.71375751 -10.12512970 1.29322720 -0.80437529 -0.96340948 0.55303609
-3.89145255 -9.91825485 0.25206539 -0.66405374 -0.94372529 0.10779332
-4.34817314 -9.93075085 0.20648751 -0.74199045 -0.94491428 0.08830238
-4.87383842 -10.15495968 0.14359319 -0.83169216 -0.96624780 0.06140624
-4.21910667 -10.03542137 0.57254833 -0.71996599 -0.95487368 0.24484475
-3.41613722 -9.78625679 -0.39447403 -0.58294398 -0.93116558 -0.16869301
-3.65848470 -9.82049084 -0.11379641 -0.62429911 -0.93442297 -0.04866394
-4.13064146 -9.85278988 -0.17337017 -0.70486993 -0.93749624 -0.07414007
-5.11260414 -9.88670540 2.03733063 -0.87243617 -0.94072330 0.87124473
-4.38034439 -10.13051605 0.97264904 -0.74748027 -0.96392196 0.41594395
-4.63843775 -10.12931728 1.28966582 -0.79152244 -0.96380794 0.55151314
-3.91640234 -10.16802311 0.26091790 -0.66831130 -0.96749079 0.11157902
-4.26523399 -9.91009712 0.20483637 -0.72783738 -0.94294906 0.08759629
-4.17872286 -10.11711216 0.57645702 -0.71307474 -0.96264660 0.24651627
-3.34300089 -9.77345276 -0.39358315 -0.57046366 -0.92994732 -0.16831203
-3.59670901 -9.84328461 -0.11379641 -0.61375749 -0.93659180 -0.04866394
-5.09515238 -10.00616074 2.05562711 -0.86945814 -0.95208955 0.87906903
-4.56652308 -10.14018822 1.28712189 -0.77925062 -0.96484232 0.55042523
-3.85527849 -10.19990253 0.26121056 -0.65788084 -0.97052413 0.11170417
-4.18660307 -9.89800739 0.20350276 -0.71441948 -0.94179869 0.08702599
-3.28657842 -9.80944061 -0.39397907 -0.56083548 -0.93337154 -0.16848134
-3.52054811 -9.82617760 -0.11389279 -0.60076106 -0.93496406 -0.04870515
-5.01095724 -9.99582958 2.04684496 -0.85509068 -0.95110655 0.87531346
-4.61977768 -10.03876305 0.88898462 -0.78833818 -0.95519167 0.38016567
-4.51159239 -10.18861675 1.28992021 -0.76987702 -0.96945029 0.55162191
-3.79949546 -10.24639702 0.26208848 -0.64836180 -0.97494811 0.11207960
-4.11822081 -9.90933800 0.20299472 -0.70275044 -0.94287682 0.08680873
-4.37539530 -9.94451141 0.50918603 -0.74663574 -0.94622356 0.21774848
-3.47206759 -9.88581753 -0.11380100 -0.59248811 -0.94063884 -0.04866590
-4.28500557 -9.75867653 -0.22270727 -0.73121130 -0.92854136 -0.09523861
-4.93931961 -10.00950050 2.04318547 -0.84286618 -0.95240730 0.87374848
-4.52198410 -9.99145699 0.88120836 -0.77165031 -0.95069045 0.37684023
-4.03933287 -9.89426994 0.20159760 -0.68928868 -0.94144309 0.08621126
-4.30645895 -9.95715904 0.50823450 -0.73487216 -0.94742703 0.21734157
-4.21723747 -9.77073002 -0.22257990 -0.71964705 -0.92968822 -0.09518414
-4.90047359 -10.08981609 2.05343151 -0.83623731 -0.96004939 0.87813014
-4.44936037 -9.99785709 0.87898660 -0.75925750 -0.95129943 0.37589011
-3.95931721 -9.87489033 0.20007347 -0.67563444 -0.93959910 0.08555948
-4.24694920 -9.99136448 0.50871027 -0.72471720 -0.95068169 0.21754502
-3.71008253 -10.50495338 -0.48571309 -0.63310403 -0.99954981 -0.20771050
-4.17665911 -9.80336380 -0.22269136 -0.71272260 -0.93279332 -0.09523180
-4.88531971 -10.18010044 2.06733680 -0.83365136 -0.96863997 0.88407660
-4.39978361 -10.01324844 0.87843114 -0.75079751 -0.95276392 0.37565258
-3.90688610 -9.87855625 0.19956543 -0.66668737 -0.93994790 0.08534222
-4.30637980 -9.87391567 0.13130216 -0.73485869 -0.93950635 0.05615010
-4.18740654 -9.98183346 0.50680721 -0.71455657 -0.94977480 0.21673121
-3.39577246 -9.76569843 -0.46068802 -0.57946885 -0.92920947 -0.19700877
-4.13515234 -9.87733936 -0.22310536 -0.70563972 -0.93983215 -0.09540885
-4.84569979 -10.26211262 2.07794881 -0.82689047 -0.97644347 0.88861471
-4.33916140 -10.04617500 0.87898660 -0.74045265 -0.95589691 0.37589011
-3.84618044 -9.90663910 0.19969243 -0.65632832 -0.94262004 0.08539654
-4.23555231 -9.88058090 0.13075256 -0.72277236 -0.94014060 0.05591507
-4.12995625 -10.02085686 0.50763977 -0.70475298 -0.95348787 0.21708724
-3.33693981 -9.79440498 -0.46093765 -0.56942940 -0.93194091 -0.19711553
-3.62697649 -9.79571342 -0.17257881 -0.61892241 -0.93206543 -0.07380166
-3.87309074 -10.16614628 0.20769411 -0.66092038 -0.96731222 0.08881838
-4.16481113 -9.88674641 0.13020296 -0.71070081 -0.94072723 0.05568004
-4.08121157 -10.08174324 0.50989974 -0.69643503 -0.95928127 0.21805368
-3.26960564 -9.79812336 -0.46037599 -0.55793917 -0.93229473 -0.19687533
-3.57350492 -9.84088326 -0.17265861 -0.60979784 -0.93636334 -0.07383578
-3.82237077 -10.22588253 0.20890070 -0.65226531 -0.97299612 0.08933437
-4.10030460 -9.90718174 0.13005307 -0.69969314 -0.94267166 0.05561594
-3.50960112 -9.85748482 -0.17263865 -0.59889305 -0.93794298 -0.07382725
-3.75119829 -10.23091602 0.20826566 -0.64012015 -0.97347510 0.08906280
-4.03116703 -9.91609192 0.12960340 -0.68789518 -0.94351947 0.05542364
-3.45414877 -9.89823818 -0.17270516 -0.58943039 -0.94182068 -0.07385569
-3.94345903 -9.87813950 0.12790464 -0.67292833 -0.93990827 0.05469718
-3.88288021 -9.86129284 0.12695533 -0.66259092 -0.93830532 0.05429122
-3.81794596 -9.87804031 0.12675548 -0.65151030 -0.93989885 0.05420575
-3.56837296 -9.65574837 -0.21980925 -0.60892206 -0.91874766 -0.09399930
-3.75295472 -9.89436245 0.12655562 -0.64041990 -0.94145191 0.05412029
-3.54052281 -9.76816654 -0.22057356 -0.60416961 -0.92944431 -0.09432615
-3.79164457 -10.18738556 0.13375038 -0.64702207 -0.96933317 0.05719706
-3.48513842 -9.80716705 -0.22071688 -0.59471858 -0.93315524 -0.09438743
-3.75857210 -10.29546642 0.13599874 -0.64137846 -0.97961706 0.05815855
-3.42940354 -9.84585762 -0.22086018 -0.58520776 -0.93683666 -0.09444872
