-0.90724260 -17.93265915 1.43365276 -0.81008482 -0.98768216 0.65978897
-1.06651604 -17.75763512 2.03230906 -0.95230150 -0.97804230 0.93529975
-0.79051340 -17.84445190 1.42545438 -0.70585632 -0.98282397 0.65601593
-0.96222216 -17.90276146 2.04926991 -0.85917658 -0.98603547 0.94310540
-0.68447089 -18.01432037 1.43993235 -0.61117005 -0.99217987 0.66267896
-0.87908149 -17.93287659 2.05241990 -0.78493953 -0.98769414 0.94455510
-0.60174972 -18.08505249 1.44586313 -0.53730756 -0.99607557 0.66540837
-0.76828665 -17.98366737 2.05799270 -0.68600988 -0.99049157 0.94711977
-0.72686255 -17.74750900 0.80842209 -0.64902192 -0.97748458 0.37204823
-0.44205794 -17.83010101 0.18938842 -0.39471740 -0.98203355 0.08715945
-0.65786862 -18.06154823 2.06695771 -0.58741665 -0.99478102 0.95124561
-0.61975354 -17.88346481 0.81544572 -0.55338335 -0.98497272 0.37528062
-0.32786745 -17.70856667 0.18711358 -0.29275572 -0.97533977 0.08611254
-0.50797486 -17.90896606 0.81661636 -0.45357519 -0.98637724 0.37581936
-0.92120051 -17.93707848 1.34244215 -0.82254797 -0.98792559 0.61781245
-0.21683924 -17.73227119 0.18751718 -0.19361766 -0.97664535 0.08629828
-1.05143952 -17.99308014 1.95927346 -0.93883955 -0.99101001 0.90168768
-0.39686194 -17.97969246 0.82023454 -0.35436150 -0.99027264 0.37748450
-0.80848104 -17.94251251 1.34244215 -0.72189981 -0.98822486 0.61781245
-0.10544933 -17.73928261 0.18762726 -0.09415662 -0.97703153 0.08634894
-0.93519568 -17.93981934 1.95233595 -0.83504438 -0.98807657 0.89849490
-0.69755745 -17.99304581 1.34622180 -0.62285513 -0.99100810 0.61955190
0.00613003 -17.81958199 0.18909490 0.00547356 -0.98145419 0.08702437
-0.85209095 -17.97378922 1.95580471 -0.76083946 -0.98994750 0.90009129
-0.61451179 -18.04593277 1.35033000 -0.54870296 -0.99392098 0.62144256
-0.74107075 -18.02443886 1.96112347 -0.66170853 -0.99273717 0.90253907
-0.75879687 -17.94982910 0.71842659 -0.67753637 -0.98862785 0.33063093
-0.02381739 -17.56290436 -0.39849409 -0.02126676 -0.96731710 -0.18339309
-0.63080364 -18.11212349 1.97083580 -0.56325006 -0.99756658 0.90700883
-0.64266634 -17.86440659 0.71414119 -0.57384241 -0.98392302 0.32865873
0.08631429 -17.52671051 -0.39795992 0.07707079 -0.96532363 -0.18314725
-0.33204374 -17.82051468 0.08898742 -0.29648477 -0.98150557 0.04095338
-0.53028589 -17.86409950 0.71395069 -0.47349691 -0.98390609 0.32857105
-0.93154347 -18.15630531 1.25880444 -0.83178329 -1.00000000 0.57932109
0.19658384 -17.53782082 -0.39813799 0.17553143 -0.96593553 -0.18322921
-0.21836899 -17.69626999 0.08738393 -0.19498359 -0.97466248 0.04021543
-1.11424208 -17.95758438 1.88480771 -0.99491650 -0.98905498 0.86741740
-0.41852275 -17.88704872 0.71490300 -0.37370262 -0.98517007 0.32900932
-0.80712914 -17.92671967 1.24072230 -0.72069269 -0.98735505 0.57099944
0.30651152 -17.52224350 -0.39793023 0.27368683 -0.96507758 -0.18313359
-0.10729174 -17.71329117 0.08758755 -0.09580173 -0.97560000 0.04030913
-1.00117326 -17.96026230 1.88436067 -0.89395636 -0.98920250 0.86721164
-0.30824175 -18.00517464 0.72042644 -0.27523175 -0.99167615 0.33155128
-0.69605029 -17.97328377 1.24394035 -0.62150937 -0.98991966 0.57248044
0.41784671 -17.56995010 -0.39867216 0.37309897 -0.96770513 -0.18347505
0.00400739 -17.71161652 0.08756210 0.00357823 -0.97550774 0.04029742
-0.88734758 -17.94634628 1.88212550 -0.79232043 -0.98843604 0.86618298
-0.58485484 -18.03311157 1.24823105 -0.52222198 -0.99321485 0.57445508
0.53016800 -17.62894058 -0.39959213 0.47339165 -0.97095418 -0.18389842
0.11589234 -17.82323074 0.08898742 0.10348129 -0.98165518 0.04095338
-0.80484504 -17.99798393 1.88749003 -0.71865314 -0.99128008 0.86865187
-0.50236058 -18.12935829 1.25543320 -0.44856215 -0.99851584 0.57776958
-0.69374508 -18.05630875 1.89352524 -0.61945105 -0.99449247 0.87142932
-0.64037073 -17.77062988 0.62704611 -0.57179260 -0.97875804 0.28857622
0.05998761 -17.62271881 -0.50369507 0.05356346 -0.97061151 -0.23180819
-0.34388611 -17.77731514 0.02173937 -0.30705890 -0.97912627 0.01000479
-0.53053069 -17.83821678 0.62979698 -0.47371548 -0.98248053 0.28984222
0.16960345 -17.49202728 -0.50099707 0.15144041 -0.96341336 -0.23056653
-0.23094283 -17.67513657 0.02080595 -0.20621087 -0.97349852 0.00957522
-0.41893044 -17.86317253 0.63074255 -0.37406665 -0.98385507 0.29027739
-0.83281374 -17.97515678 1.13280070 -0.74362665 -0.99002284 0.52133226
0.27953467 -17.49261475 -0.50103861 0.24959895 -0.96344572 -0.23058565
-0.11962381 -17.63024139 0.02039310 -0.10681315 -0.97102582 0.00938522
-1.01170778 -17.84225655 1.74883211 -0.90336275 -0.98270303 0.80483931
-0.30783808 -17.93737602 0.63383728 -0.27487132 -0.98794198 0.29170164
-0.71837962 -17.94415474 1.13026428 -0.64144742 -0.98831534 0.52016497
0.38935339 -17.48651505 -0.50095558 0.34765705 -0.96310979 -0.23054744
-0.00883768 -17.64664459 0.02053670 -0.00789124 -0.97192925 0.00945130
-0.90470129 -17.94757462 1.75933516 -0.80781567 -0.98850369 0.80967301
-0.60659325 -17.97622681 1.13223708 -0.54163241 -0.99008179 0.52107286
0.50063938 -17.53569412 -0.50203478 0.44702527 -0.96581841 -0.23104410
0.10257979 -17.72434616 0.02123676 0.09159440 -0.97620887 0.00977348
-0.82151085 -17.98144150 1.76248610 -0.73353422 -0.99036896 0.81112313
-0.52331924 -18.02674484 1.13561904 -0.46727633 -0.99286413 0.52262926
0.58429521 -17.56511688 -0.50269890 0.52172232 -0.96743894 -0.23134974
-0.71020585 -18.02798080 1.76689744 -0.63414901 -0.99293226 0.81315327
-0.66104549 -17.88327980 0.51712871 -0.59025329 -0.98496252 0.23799056
-0.60072994 -18.14340210 1.77866101 -0.53639704 -0.99928933 0.81856704
-0.54688984 -17.83114433 0.51508015 -0.48832273 -0.98209101 0.23704778
0.15702571 -17.53245926 -0.57190758 0.14020963 -0.96564025 -0.26320064
-0.23860833 -17.80219078 -0.09698904 -0.21305546 -0.98049635 -0.04463584
-0.43453744 -17.82224083 0.51464123 -0.38800228 -0.98160064 0.23684578
-0.84621376 -18.00717354 1.03872192 -0.75559169 -0.99178624 0.47803575
0.26606682 -17.46315575 -0.57022482 0.23757339 -0.96182323 -0.26242620
-0.12501496 -17.59334564 -0.09747095 -0.11162695 -0.96899372 -0.04485763
-1.02380180 -17.90485191 1.66704655 -0.91416156 -0.98615062 0.76720035
-0.32320264 -17.85859108 0.51588494 -0.28859046 -0.98360270 0.23741816
-0.72982025 -17.93037415 1.03338015 -0.65166289 -0.98755634 0.47557738
0.37501419 -17.42715836 -0.56938338 0.33485344 -0.95984054 -0.26203895
-0.01449076 -17.60378456 -0.09744801 -0.01293892 -0.96956867 -0.04484707
-0.91246921 -17.93478012 1.66945076 -0.81475174 -0.98779899 0.76830685
-0.21210122 -17.94620514 0.51903087 -0.18938704 -0.98842824 0.23886596
-0.61800957 -17.96053505 1.03507388 -0.55182612 -0.98921752 0.47635686
0.48537272 -17.45443726 -0.57012582 0.43339354 -0.96134299 -0.26238063
0.09623717 -17.63152695 -0.09738375 0.08593101 -0.97109663 -0.04481750
-0.82919663 -17.96671295 1.67225552 -0.74039692 -0.98955774 0.76959759
-0.53467637 -18.00913239 1.03807044 -0.47741720 -0.99189413 0.47773594
0.56835967 -17.47393608 -0.57067025 0.50749332 -0.96241695 -0.26263121
0.18011589 -17.71887398 -0.09718180 0.16082706 -0.97590744 -0.04472456
-0.71806389 -18.01730156 1.67686355 -0.64116555 -0.99234402 0.77171832
-1.11993527 -17.88230133 2.15865016 -1.00000000 -0.98490858 0.99344391
-0.42377824 -18.11389351 1.04471517 -0.37839529 -0.99766409 0.48079392
0.67981708 -17.51197433 -0.57170957 0.60701460 -0.96451199 -0.26310951
-0.60787618 -18.11493683 1.68627977 -0.54277796 -0.99772155 0.77605182
-1.00732851 -17.88502312 2.15814137 -0.89945245 -0.98505849 0.99320972
-0.57045889 -17.91629982 0.43155047 -0.50936770 -0.98678112 0.19860615
0.79232949 -17.56128311 -0.57304591 0.70747793 -0.96722782 -0.26372451
-0.89523852 -17.89694405 2.15890455 -0.79936630 -0.98571509 0.99356097
-0.45524210 -17.81161690 0.42812118 -0.40648964 -0.98101550 0.19702792
0.25929713 -17.47384262 -0.68347961 0.23152868 -0.96241182 -0.31454778
-0.17305127 -17.63672256 -0.19649270 -0.15451899 -0.97138280 -0.09042896
-0.78472769 -17.94581413 2.16450095 -0.70069021 -0.98840672 0.99613649
-0.34379122 -17.84010887 0.42894676 -0.30697417 -0.98258477 0.19740787
-0.74341041 -17.95451164 0.93250632 -0.66379768 -0.98888576 0.42915371
0.36856407 -17.44588661 -0.68266833 0.32909408 -0.96087205 -0.31417441
-0.06207227 -17.56946182 -0.19626659 -0.05542487 -0.96767825 -0.09032489
-0.93329602 -17.97456551 1.53496730 -0.83334816 -0.98999029 0.70641547
-0.67447901 -18.01580620 2.17289591 -0.60224819 -0.99226171 1.00000000
-0.23185821 -17.85590744 0.42939129 -0.20702823 -0.98345488 0.19761245
-0.62682450 -17.85507965 0.92632127 -0.55969709 -0.98340929 0.42630723
0.47796202 -17.43523407 -0.68241870 0.42677647 -0.96028537 -0.31405956
0.02076432 -17.58755875 -0.19632643 0.01854065 -0.96867496 -0.09035243
-0.84416056 -17.88726616 1.52645051 -0.75375837 -0.98518205 0.70249593
-0.14862451 -17.98473549 0.43345565 -0.13270812 -0.99055040 0.19948293
-0.54450226 -17.91570473 0.92977059 -0.48619083 -0.98674840 0.42789468
0.56073666 -17.45276833 -0.68304276 0.50068665 -0.96125108 -0.31434676
0.13168284 -17.63507843 -0.19648604 0.11758076 -0.97129226 -0.09042589
-0.73560292 -17.98373985 1.53496730 -0.65682626 -0.99049556 0.70641547
-0.43318394 -17.96866798 0.93274420 -0.38679373 -0.98966545 0.42926317
0.67045826 -17.45089722 -0.68310517 0.59865803 -0.96114802 -0.31437546
0.24346757 -17.69989586 -0.19670551 0.21739432 -0.97486222 -0.09052689
-0.62430114 -18.03577042 1.53941095 -0.55744392 -0.99336129 0.70846051
0.78148305 -17.47829437 -0.68410367 0.69779307 -0.96265697 -0.31483498
-0.45656204 -17.83208847 0.30787325 -0.40766823 -0.98214304 0.14168799
0.89168435 -17.48102570 -0.68435329 0.79619277 -0.96280742 -0.31494987
-0.34230316 -17.72666168 0.30517524 -0.30564550 -0.97633642 0.14044632
-0.07946669 -17.56959724 -0.27773792 -0.07095651 -0.96768570 -0.12781924
-0.23190892 -17.79843330 0.30692396 -0.20707349 -0.98028940 0.14125110
0.00337319 -17.52377892 -0.27737167 0.00301195 -0.96516216 -0.12765069
-0.14850631 -17.84930992 0.30817303 -0.13260259 -0.98309153 0.14182596
0.11348818 -17.52541161 -0.27738759 0.10133459 -0.96525210 -0.12765802
0.22401814 -17.56034851 -0.27767423 0.20002776 -0.96717632 -0.12778993
0.33527768 -17.61058426 -0.27808821 0.29937238 -0.96994317 -0.12798046
