6.68090248 -12.47042942 -0.34780627 0.67064410 -0.91296685 -0.24365801
6.69110918 -12.30357170 -0.34569922 0.67166865 -0.90075111 -0.24218190
6.63359594 -12.01812840 -0.34157416 0.66589534 -0.87985361 -0.23929207
6.66487980 -11.89776611 -0.34023872 0.66903567 -0.87104183 -0.23835652
7.86091042 -13.61793900 0.15064277 0.78909594 -0.99697661 0.10553380
6.78012896 -11.92687321 -0.34145546 0.68060464 -0.87317282 -0.23920891
7.53310061 -12.86480045 0.13567285 0.75618964 -0.94183898 0.09504653
6.83226156 -11.88786125 -0.34133676 0.68583786 -0.87031668 -0.23912574
7.47725773 -12.63314438 0.13149008 0.75058401 -0.92487931 0.09211626
6.76413012 -12.41934490 0.04212974 0.67899865 -0.90922689 0.02951427
6.88662148 -11.81017780 -0.34074321 0.69129461 -0.86462945 -0.23870994
7.81440783 -13.01415825 0.14066282 0.78442788 -0.95277351 0.09854228
6.93619299 -11.72540283 -0.34003097 0.69627070 -0.85842305 -0.23821098
6.74649096 -12.43310452 -0.43151322 0.67722797 -0.91023427 -0.30229947
7.94501734 -13.04500580 0.14238730 0.79753876 -0.95503187 0.09975038
6.93030119 -11.54967308 -0.33774588 0.69567931 -0.84555775 -0.23661013
6.64647627 -12.06619167 -0.42383429 0.66718829 -0.88337237 -0.29691994
7.94257402 -12.85883808 0.13945203 0.79729348 -0.94140244 0.09769405
7.15098000 -12.56097984 0.04610030 0.71783149 -0.91959608 0.03229587
7.04338121 -11.57246208 -0.33890325 0.70703053 -0.84722614 -0.23742093
6.69782972 -11.98052311 -0.42279661 0.67234325 -0.87710053 -0.29619300
7.66045856 -12.23129082 0.12694040 0.76897413 -0.89545935 0.08892895
7.34850788 -12.72203922 0.04912912 0.73765981 -0.93138731 0.03441774
7.12543011 -11.54328060 -0.33917034 0.71526676 -0.84508979 -0.23760805
6.80741692 -11.99912548 -0.42424938 0.68334389 -0.87846243 -0.29721075
7.44847202 -12.71015263 0.04963817 0.74769443 -0.93051708 0.03477435
7.18929625 -11.52483082 -0.33943743 0.72167778 -0.84373903 -0.23779516
6.83014727 -11.90788937 -0.42283812 0.68562561 -0.87178296 -0.29622206
8.22200871 -12.81048489 0.14143333 0.82534379 -0.93786246 0.09908207
7.50625086 -12.67146683 0.04958726 0.75349438 -0.92768490 0.03473869
6.70567513 -12.34969425 -0.01172003 0.67313081 -0.90412778 -0.00821055
7.26370955 -11.48280907 -0.33949679 0.72914755 -0.84066260 -0.23783675
6.84463930 -11.76095772 -0.42034766 0.68708032 -0.86102605 -0.29447737
7.75370693 -11.91792774 0.12301447 0.77833462 -0.87251788 0.08617861
7.90737867 -13.16103458 0.05755384 0.79376054 -0.96352643 0.04031973
6.94380474 -12.59783649 -0.00874028 0.69703478 -0.92229438 -0.00612306
7.34545422 -11.45207787 -0.33976388 0.73735327 -0.83841276 -0.23802386
6.83829069 -11.58157349 -0.41706854 0.68644303 -0.84789324 -0.29218015
7.85602045 -11.91066742 0.12393174 0.78860509 -0.87198633 0.08682121
7.36582136 -12.08392239 0.04225700 0.73939776 -0.88467044 0.02960343
7.24110556 -12.94287014 -0.00473736 0.72687852 -0.94755447 -0.00331879
7.43584061 -11.43417168 -0.34026837 0.74642646 -0.83710188 -0.23837729
6.90477562 -11.52807713 -0.41681948 0.69311696 -0.84397674 -0.29200569
7.92624664 -11.85442829 0.12378498 0.79565454 -0.86786908 0.08671840
7.52028704 -12.16509342 0.04416593 0.75490338 -0.89061302 0.03094074
7.06691885 -12.44876194 -0.00936854 0.70939326 -0.91138053 -0.00656319
6.77447176 -13.00062561 -0.10420400 0.68003678 -0.95178276 -0.07300081
7.57042027 -11.48229790 -0.34195995 0.75993586 -0.84062517 -0.23956233
6.97292900 -11.47762394 -0.41665345 0.69995838 -0.84028304 -0.29188937
8.24341297 -12.16159058 0.13171023 0.82749242 -0.89035660 0.09227049
7.68347883 -12.25666714 0.04625301 0.77128494 -0.89731717 0.03240286
7.43339252 -13.33383274 -0.51578212 0.74618071 -0.97617704 -0.36133462
7.08495522 -12.30022049 -0.01044556 0.71120381 -0.90050572 -0.00731771
6.86441851 -12.97372627 -0.10416269 0.68906581 -0.94981349 -0.07297187
8.37625694 -12.62633038 0.66933316 0.84082758 -0.92438042 0.46890584
8.33091736 -12.18634319 1.15403450 0.83627629 -0.89216870 0.80846661
7.79944611 -11.66870117 -0.34614438 0.78292602 -0.85427189 -0.24249376
7.12233686 -11.55967808 -0.41972503 0.71495628 -0.84629023 -0.29404119
9.17290020 -13.34779644 0.15930183 0.92079645 -0.97719938 0.11159997
7.54303503 -11.86523724 0.04108620 0.75718689 -0.86866039 0.02878321
6.76209831 -11.95661926 -0.47791976 0.67879468 -0.87535053 -0.33480987
7.62437725 -13.04389572 -0.00224226 0.76535219 -0.95495063 -0.00157083
6.63333797 -12.34672260 -0.10568187 0.66586941 -0.90391022 -0.07403614
8.42114925 -12.19444847 1.15909314 0.84533399 -0.89276212 0.81201047
7.76126194 -11.49439526 -0.34368122 0.77909297 -0.84151083 -0.24076818
7.15986109 -11.49880219 -0.41906092 0.71872300 -0.84183347 -0.29357591
8.62909889 -12.43292809 0.13981894 0.86620843 -0.91022134 0.09795109
7.56543446 -11.77735043 0.04029718 0.75943542 -0.86222613 0.02823046
7.45327616 -12.61555862 -0.00633493 0.74817669 -0.92359179 -0.00443798
6.64287996 -12.22563076 -0.10591595 0.66682726 -0.89504498 -0.07420012
8.27731037 -12.18521118 0.64687890 0.83089513 -0.89208585 0.45317534
8.03593731 -11.74050617 -0.34899333 0.80666554 -0.85952878 -0.24448961
7.26498413 -11.50605106 -0.42034766 0.72927552 -0.84236419 -0.29447737
9.33294201 -13.26573849 0.15974213 0.93686181 -0.97119182 0.11190842
7.78302717 -11.95099354 0.04365688 0.78127784 -0.87493867 0.03058412
6.78653240 -11.69838428 -0.47267348 0.68124747 -0.85644501 -0.33113456
7.95900393 -13.27808094 0.00109650 0.79894280 -0.97209543 0.00076816
6.72727060 -12.19767380 -0.10587923 0.67529863 -0.89299828 -0.07417440
8.38888931 -12.18390846 0.65017784 0.84209567 -0.89199048 0.45548645
8.37682533 -12.07388973 -0.35593769 0.84088463 -0.88393593 -0.24935453
7.32637882 -11.44332123 -0.41993257 0.73543847 -0.83777171 -0.29418656
8.83349228 -12.39183617 0.14135996 0.88672590 -0.90721297 0.09903066
7.85246563 -11.89350319 0.04352962 0.78824824 -0.87072974 0.03049497
6.89141941 -11.70888138 -0.47420776 0.69177622 -0.85721350 -0.33220941
7.34674883 -12.08719921 -0.01089432 0.73748326 -0.88491035 -0.00763209
7.05515099 -12.60579300 -0.10469510 0.70821196 -0.92287689 -0.07334485
8.20242691 -11.66638184 -0.34949785 0.82337815 -0.85410208 -0.24484307
7.40899611 -11.41385078 -0.42034766 0.74373174 -0.83561414 -0.29447737
8.75867462 -12.12556648 0.13659012 0.87921554 -0.88771921 0.09568913
8.05246449 -12.03190994 0.04640573 0.80832458 -0.88086259 0.03250984
6.88470507 -11.53156853 -0.47034729 0.69110227 -0.84423232 -0.32950494
7.25806618 -13.21493530 -0.60859168 0.72858107 -0.96747249 -0.42635298
7.43727636 -12.06461239 -0.01064301 0.74657059 -0.88325673 -0.00745603
6.77360678 -11.92420483 -0.10637492 0.67994994 -0.87297744 -0.07452166
6.73494148 -13.03442001 -0.18663055 0.67606860 -0.95425689 -0.13074528
8.21277809 -11.52675724 -0.34789529 0.82441723 -0.84388012 -0.24372038
7.68345928 -11.67638779 -0.42802656 0.77128297 -0.85483462 -0.29985687
8.90686703 -12.16862774 0.13882828 0.89409143 -0.89087176 0.09725708
8.33069324 -12.28090954 0.05101259 0.83625382 -0.89909196 0.03573721
7.00166988 -11.56155586 -0.47247550 0.70284343 -0.84642774 -0.33099586
7.29920292 -13.09393406 -0.60590822 0.73271048 -0.95861393 -0.42447305
7.52993441 -12.04475403 -0.01035581 0.75587183 -0.88180292 -0.00725483
6.87130690 -11.92129707 -0.10626935 0.68975729 -0.87276459 -0.07444771
6.58657885 -12.55472469 -0.18498796 0.66117567 -0.91913813 -0.12959455
8.38635921 -12.66632843 0.58615005 0.84184170 -0.92730868 0.41063133
8.33093739 -12.19328117 1.07918429 0.83627832 -0.89267665 0.75602978
9.07092094 -12.56009769 -0.36777869 0.91055954 -0.91953152 -0.25764981
7.83860540 -11.75109386 -0.43109813 0.78685689 -0.86030388 -0.30200869
9.77792645 -13.18104744 0.16326445 0.98153031 -0.96499157 0.11437601
9.32248688 -13.56273460 0.07160351 0.93581229 -0.99293506 0.05016232
7.11403656 -11.58201504 -0.47435623 0.71412307 -0.84792554 -0.33231342
7.51290798 -13.28113937 -0.61427069 0.75416267 -0.97231936 -0.43033144
7.48848534 -11.81325817 -0.01231239 0.75171107 -0.86485499 -0.00862553
7.05987263 -12.07314682 -0.10575072 0.70868593 -0.88388157 -0.07408437
6.82427168 -12.85895634 -0.18625149 0.68503582 -0.94141108 -0.13047972
8.18435287 -12.23443985 0.56367540 0.82156384 -0.89568990 0.39488658
8.40073395 -12.17195034 1.08099186 0.84328467 -0.89111501 0.75729609
9.11229992 -12.49300098 -0.36733356 0.91471326 -0.91461933 -0.25733799
8.19941616 -12.16881084 -0.44247124 0.82307589 -0.89088517 -0.30997619
9.67420673 -12.91417599 0.15820110 0.97111869 -0.94545376 0.11082884
9.04701328 -13.02870846 0.06401872 0.90815961 -0.95383877 0.04484874
7.23407078 -11.65358543 -0.47742483 0.72617233 -0.85316527 -0.33446315
7.24867010 -12.67251205 -0.59367651 0.72763789 -0.92776144 -0.41590405
7.55488205 -11.79466343 -0.01213289 0.75837612 -0.86349362 -0.00849978
7.11871767 -12.04319000 -0.10574154 0.71459293 -0.88168842 -0.07407794
6.63862610 -12.32320118 -0.18438944 0.66640025 -0.90218818 -0.12917526
8.29462910 -12.23242474 0.56653237 0.83263361 -0.89554238 0.39688805
9.25967503 -12.52868748 -0.36905479 0.92950708 -0.91723192 -0.25854382
7.95045710 -11.63940334 -0.43047553 0.79808486 -0.85212696 -0.30157250
9.75636768 -12.85472775 0.15823780 0.97936624 -0.94110155 0.11085455
9.34927273 -13.28589630 0.06890556 0.93850112 -0.97266757 0.04827225
7.32636690 -11.63833141 -0.47831571 0.73543727 -0.85204852 -0.33508727
7.50432873 -12.93125725 -0.60466009 0.75330144 -0.94670427 -0.42359868
7.13063431 -11.89178467 -0.10602610 0.71578920 -0.87060392 -0.07427729
6.67262793 -12.20234489 -0.18409020 0.66981345 -0.89334023 -0.12896562
7.92234516 -11.44275570 -0.42678133 0.79526287 -0.83773029 -0.29898453
9.67578411 -12.58412743 0.15339459 0.97127706 -0.92129076 0.10746161
9.40474701 -13.18777943 0.06829470 0.94406974 -0.96548444 0.04784431
7.27858353 -11.40349197 -0.47277245 0.73064065 -0.83485579 -0.33120391
6.92366838 -11.75634480 -0.56384617 0.69501346 -0.86068833 -0.39500621
7.83145571 -11.89404488 -0.01003270 0.78613919 -0.87076944 -0.00702848
7.23320389 -11.89292526 -0.10590218 0.72608536 -0.87068743 -0.07419048
6.76960087 -12.19687176 -0.18422985 0.67954785 -0.89293951 -0.12906346
6.73474121 -13.25506210 -0.25622565 0.67604852 -0.97041023 -0.17950059
8.49379826 -12.10713577 -0.44487870 0.85262662 -0.88636988 -0.31166273
8.86651421 -12.26695538 0.05477954 0.89004070 -0.89807039 0.03837617
7.35662270 -11.36759567 -0.47306940 0.73847437 -0.83222777 -0.33141193
6.88797188 -11.52882481 -0.55716866 0.69143015 -0.84403145 -0.39032823
8.10965061 -12.14871693 -0.00674779 0.81406504 -0.88941407 -0.00472721
7.39368057 -11.98694992 -0.10552583 0.74219435 -0.87757105 -0.07392683
6.73686886 -11.96083164 -0.18349168 0.67626208 -0.87565893 -0.12854633
6.71361923 -13.00973415 -0.25441039 0.67392826 -0.95244962 -0.17822890
8.64718056 -12.16282368 -0.44765970 0.86802351 -0.89044684 -0.31361100
8.93987560 -12.20615864 0.05470318 0.89740491 -0.89361942 0.03832268
7.45219612 -12.29983330 -0.58687419 0.74806827 -0.90047741 -0.41113862
8.33519363 -12.31761169 -0.00436040 0.83670557 -0.90177900 -0.00305471
8.14608383 -13.02641869 -0.10258844 0.81772226 -0.95367110 -0.07186902
6.83875275 -11.96510887 -0.18367124 0.68648946 -0.87597203 -0.12867211
6.80356121 -12.98324966 -0.25455371 0.68295681 -0.95051068 -0.17832930
8.32546425 -12.58628368 0.51125264 0.83572888 -0.92144859 0.35816145
8.32503605 -12.19573879 0.99646044 0.83568591 -0.89285660 0.69807702
9.66490078 -13.41878891 -0.48115641 0.97018456 -0.98239672 -0.33707735
9.77536488 -13.17535591 0.07094175 0.98127317 -0.96457487 0.04969871
7.79964113 -11.72495556 -0.48648211 0.78294557 -0.85839027 -0.34080830
7.74756432 -12.60903645 -0.59991717 0.77771801 -0.92311436 -0.42027599
8.29567528 -12.09528351 -0.00620928 0.83273864 -0.88550222 -0.00434995
7.56617069 -11.92859364 -0.10542944 0.75950933 -0.87329876 -0.07385930
6.87399435 -11.89641571 -0.18353158 0.69002706 -0.87094301 -0.12857428
6.53957605 -12.33565712 -0.24901243 0.65645742 -0.90310007 -0.17444731
8.15329266 -12.20166492 0.49337214 0.81844592 -0.89329046 0.34563515
8.39829445 -12.17933464 0.99860579 0.84303975 -0.89165562 0.69957995
9.09744549 -12.50399017 -0.45886678 0.91322213 -0.91542381 -0.32146218
9.39558601 -12.53803825 0.06154985 0.94315016 -0.91791654 0.04311915
8.05597782 -11.98648453 -0.49539089 0.80867726 -0.87753695 -0.34704942
7.22713280 -11.63585377 -0.56553113 0.72547591 -0.85186708 -0.39618662
8.15857506 -11.77685738 -0.00926084 0.81897616 -0.86219007 -0.00648774
7.52754259 -11.74449253 -0.10583334 0.75563174 -0.85982060 -0.07414225
7.10577822 -12.12018967 -0.18456236 0.71329409 -0.88732558 -0.12929639
6.63964033 -12.33662415 -0.24939458 0.66650206 -0.90317088 -0.17471504
8.30165958 -12.25597572 0.49887386 0.83333933 -0.89726657 0.34948942
9.72658348 -13.19571400 -0.47816786 0.97637641 -0.96606529 -0.33498371
9.62145901 -12.67326927 0.06465503 0.96582377 -0.92781687 0.04529451
7.85589695 -11.53283596 -0.48331451 0.78859270 -0.84432513 -0.33858922
7.27671719 -11.55296803 -0.56415820 0.73045331 -0.84579897 -0.39522481
9.26301098 -13.18881893 0.00680470 0.92984194 -0.96556050 0.00476708
8.87228870 -13.65923595 -0.10046801 0.89062035 -1.00000000 -0.07038353
7.08750677 -11.91729736 -0.18395054 0.71145993 -0.87247175 -0.12886779
6.64529800 -12.16292667 -0.24820034 0.66707003 -0.89045441 -0.17387842
8.60401344 -12.53107357 0.51598066 0.86369032 -0.91740662 0.36147371
9.51784039 -12.74307156 -0.46803999 0.95542228 -0.93292713 -0.32788855
9.63760281 -12.53005505 0.06333151 0.96744430 -0.91733205 0.04436731
7.91795921 -11.46845531 -0.48286909 0.79482263 -0.83961177 -0.33827716
7.32983971 -11.47666454 -0.56303489 0.73578584 -0.84021276 -0.39443785
9.34337139 -13.12710190 0.00676880 0.93790871 -0.96104217 0.00474193
7.76126146 -11.78104019 -0.10547075 0.77909297 -0.86249626 -0.07388824
7.18192101 -11.90503883 -0.18407689 0.72093743 -0.87157428 -0.12895630
6.64033222 -11.97389698 -0.24686280 0.66657156 -0.87661541 -0.17294139
9.79526806 -12.94476604 -0.47484726 0.98327112 -0.94769329 -0.33265743
7.89681864 -11.28592300 -0.47886014 0.79270047 -0.82624847 -0.33546868
7.56549644 -11.68399811 -0.57245827 0.75944161 -0.85539180 -0.40103948
9.46434116 -13.12161541 0.00736116 0.95005196 -0.96064049 0.00515691
7.94818163 -11.90185165 -0.10500260 0.79785639 -0.87134093 -0.07356028
7.24507093 -11.84092999 -0.18400374 0.72727656 -0.86688083 -0.12890506
6.82696247 -12.13079071 -0.24867804 0.68530589 -0.88810170 -0.17421307
7.95600843 -12.20568466 0.39538833 0.79864210 -0.89358473 0.27699193
8.08926105 -11.40715408 -0.48405692 0.81201828 -0.83512390 -0.33910930
7.67488098 -11.69143200 -0.57451767 0.77042186 -0.85593599 -0.40248218
8.95908356 -12.26015377 -0.00156015 0.89933306 -0.89757246 -0.00109297
8.35061073 -12.33741188 -0.10365783 0.83825314 -0.90322852 -0.07261819
7.50113344 -12.08720303 -0.18514757 0.75298071 -0.88491064 -0.12970637
6.79521847 -11.89820004 -0.24694242 0.68211937 -0.87107360 -0.17299716
8.10401344 -12.26394081 0.40014383 0.81349915 -0.89784968 0.28032345
8.33105373 -12.22572041 0.90677512 0.83629000 -0.89505154 0.63524735
9.28899479 -12.92126656 -0.53181797 0.93245029 -0.94597286 -0.37256864
8.17364120 -12.28431511 -0.59854424 0.82048857 -0.89934129 -0.41931418
9.15277863 -12.36097908 0.00019898 0.91877657 -0.90495390 0.00013940
8.00677872 -11.66897583 -0.10536978 0.80373853 -0.85429198 -0.07381750
7.56305122 -12.01784897 -0.18506111 0.75919616 -0.87983316 -0.12964579
6.96285725 -12.01633549 -0.24842326 0.69894731 -0.87972236 -0.17403458
8.13539791 -12.14463520 0.39714420 0.81664962 -0.88911527 0.27822202
8.41109943 -12.17806339 0.90719783 0.84432513 -0.89156258 0.63554353
8.92186069 -12.24911690 -0.51301050 0.89559650 -0.89676440 -0.35939294
8.00301933 -11.86445618 -0.58468997 0.80336118 -0.86860323 -0.40960848
9.64986706 -12.86098766 0.00646365 0.96867543 -0.94155979 0.00452815
8.10272884 -11.65130997 -0.10527799 0.81337023 -0.85299867 -0.07375320
7.43781948 -11.69712162 -0.18393724 0.74662513 -0.85635257 -0.12885846
7.00428057 -11.95748234 -0.24818443 0.70310551 -0.87541372 -0.17386726
8.33003330 -12.30995274 0.40614304 0.83618754 -0.90121824 0.28452623
9.67382240 -13.14819050 -0.54196411 0.97108012 -0.96258610 -0.37967658
7.85776520 -11.53062439 -0.57351917 0.78878021 -0.84416318 -0.40178269
9.37161541 -12.36947536 0.00143756 0.94074392 -0.90557593 0.00100709
8.97210217 -12.77613354 -0.10201932 0.90063989 -0.93534762 -0.07147031
7.88264656 -12.22448730 -0.18621159 0.79127789 -0.89496130 -0.13045177
7.17099524 -12.06810856 -0.24961752 0.71984071 -0.88351274 -0.17487122
8.33927250 -12.22446823 1.42428529 0.83711499 -0.89495987 0.99779260
8.75584126 -12.76714802 0.42874989 0.87893111 -0.93468976 0.30036360
9.51804256 -12.76845264 -0.53211492 0.95544261 -0.93478525 -0.37277666
8.94130993 -12.94967365 -0.62918586 0.89754885 -0.94805259 -0.44078037
9.64187908 -12.56075478 0.00427371 0.96787357 -0.91957963 0.00299397
8.94917870 -12.57435131 -0.10242780 0.89833874 -0.92057502 -0.07175647
7.52280188 -11.50907612 -0.18356483 0.75515586 -0.84258562 -0.12859757
7.15707541 -11.87366581 -0.24823219 0.71844339 -0.86927748 -0.17390072
8.40236950 -12.15217972 1.42176461 0.84344882 -0.88966763 0.99602669
8.69697857 -12.51147938 0.41982421 0.87302232 -0.91597211 0.29411066
7.80879211 -12.19056225 0.32200375 0.78386420 -0.89247763 0.22558188
9.62825584 -12.74824524 -0.53335226 0.96650606 -0.93330586 -0.37364349
8.35096264 -11.93096256 -0.59255320 0.83828849 -0.87347215 -0.41511711
9.65912247 -12.42106724 0.00337619 0.96960449 -0.90935302 0.00236521
9.13777828 -12.67049885 -0.10199637 0.91727084 -0.92761403 -0.07145424
7.60050297 -11.46990967 -0.18359809 0.76295567 -0.83971822 -0.12862086
7.25859594 -11.87286663 -0.24864620 0.72863424 -0.86921895 -0.17419076
8.50931454 -12.14316750 1.42743623 0.85418421 -0.88900781 1.00000000
8.74899387 -12.41897202 0.41814148 0.87824374 -0.90919960 0.29293182
7.43425274 -12.39205647 0.22323506 0.74626708 -0.90722913 0.15638880
9.77875233 -12.77950478 -0.53622288 0.98161322 -0.93559438 -0.37565452
8.05869770 -11.35925198 -0.57270789 0.80895025 -0.83161694 -0.40121433
8.96512890 -12.26694584 -0.10297856 0.89993989 -0.89806968 -0.07214232
7.73836184 -11.51978302 -0.18399043 0.77679425 -0.84336948 -0.12889573
7.20057631 -11.61266518 -0.24663988 0.72281009 -0.85016948 -0.17278522
8.35905647 -12.69363594 0.34492919 0.83910096 -0.92930788 0.24164245
7.93814039 -13.04769611 0.24377006 0.79684848 -0.95522887 0.17077474
8.31143665 -12.22641659 0.82700253 0.83432078 -0.89510250 0.57936215
9.96191978 -12.85041714 -0.54038030 1.00000000 -0.94078594 -0.37856704
8.02510357 -11.16216087 -0.56709129 0.80557799 -0.81718779 -0.39727959
9.10143089 -12.29081821 -0.10274907 0.91362220 -0.89981741 -0.07198155
7.83082676 -11.53940010 -0.18421654 0.78607607 -0.84480566 -0.12905413
7.79551172 -12.44371605 -0.25476071 0.78253108 -0.91101116 -0.17847432
8.88968277 -12.32851410 0.41843414 0.89236641 -0.90257716 0.29313684
8.08149529 -12.14860439 0.32562354 0.81123877 -0.88940585 0.22811775
8.40178871 -12.23477936 0.83078086 0.84339052 -0.89571476 0.58200908
8.92626286 -12.29659367 -0.61227369 0.89603841 -0.90024024 -0.42893243
9.26566029 -12.39048195 -0.10234059 0.93010789 -0.90711385 -0.07169539
7.90431166 -11.49161625 -0.18422319 0.79345268 -0.84130740 -0.12905879
8.36361885 -13.16833019 -0.26205355 0.83955896 -0.96406054 -0.18358336
8.95990753 -12.26272392 0.41799515 0.89941573 -0.89776063 0.29282930
8.29541683 -12.30125332 0.33343470 0.83271265 -0.90058136 0.23358990
7.67469883 -12.30590534 0.22453411 0.77040362 -0.90092194 0.15729888
9.52593136 -12.95272732 -0.63985741 0.95623451 -0.94827610 -0.44825640
9.11545372 -12.03043079 -0.10320804 0.91502982 -0.88075429 -0.07230309
8.02678967 -11.51384163 -0.18451580 0.80574727 -0.84293455 -0.12926377
8.73363972 -13.56315899 -0.26628911 0.87670249 -0.99296618 -0.18655062
8.30551147 -12.19924831 1.34729517 0.83372599 -0.89311349 0.94385666
8.57147598 -12.53907013 0.34461164 0.86042410 -0.91799206 0.24141999
9.59639549 -12.87817860 -0.63929576 0.96330786 -0.94281834 -0.44786292
9.22976494 -12.02373886 -0.10306117 0.92650467 -0.88026440 -0.07220019
9.40919971 -13.31196594 -0.19205040 0.94451672 -0.97457618 -0.13454220
7.48417234 -11.45823383 -0.24681503 0.75127810 -0.83886343 -0.17290792
8.37293720 -12.13373280 1.34569240 0.84049433 -0.88831711 0.94273382
8.77214050 -12.66061974 0.35140672 0.88056725 -0.92689079 0.24618033
9.63383293 -12.76013947 -0.63704908 0.96706593 -0.93417668 -0.44628900
9.24752426 -11.89122868 -0.10327689 0.92828739 -0.87056321 -0.07235131
9.43198967 -13.16811180 -0.19170460 0.94680440 -0.96404451 -0.13429993
7.58356047 -11.45271206 -0.24721311 0.76125491 -0.83845919 -0.17318679
8.61097145 -12.26365948 0.33813411 0.86438876 -0.89782912 0.23688211
8.29024601 -12.75299454 0.24222119 0.83219361 -0.93365359 0.16968967
8.41253853 -12.55030537 0.76206017 0.84446961 -0.91881460 0.53386635
9.78899002 -12.79789543 -0.64091831 0.98264092 -0.93694079 -0.44899961
9.13324547 -12.58464909 -0.18954995 0.91681582 -0.92132890 -0.13279049
7.70319271 -11.47631168 -0.24789780 0.77326387 -0.84018695 -0.17366646
8.72269058 -12.25812817 0.34003925 0.87560338 -0.89742416 0.23821677
7.87611675 -11.94874668 0.21973760 0.79062235 -0.87477416 0.15393865
8.28854752 -12.19803333 0.74053133 0.83202308 -0.89302456 0.51878417
9.82520008 -12.67919731 -0.63867170 0.98627579 -0.92825085 -0.44742572
7.76614761 -11.45313931 -0.24802519 0.77958345 -0.83849049 -0.17375571
8.77451515 -12.20877934 0.33972174 0.88080567 -0.89381129 0.23799434
8.04734421 -12.08473301 0.22493382 0.80781060 -0.88472980 0.15757889
8.35721207 -12.17531490 0.74172080 0.83891582 -0.89136136 0.51961744
9.86762142 -12.61069393 -0.63779801 0.99053413 -0.92323565 -0.44681367
9.51355934 -12.80908966 -0.19089992 0.95499259 -0.93776035 -0.13373622
7.91708136 -11.51960754 -0.24913982 0.79473448 -0.84335667 -0.17453657
8.96423435 -12.30837917 0.34581825 0.89985007 -0.90110308 0.24226528
8.30172253 -12.29932880 0.23292798 0.83334565 -0.90044045 0.16317925
9.29631615 -12.35472012 -0.18925735 0.93318522 -0.90449572 -0.13258551
7.93340969 -11.38914204 -0.24835958 0.79637361 -0.83380520 -0.17398997
8.31490612 -12.22730160 1.23632300 0.83466905 -0.89516729 0.86611432
9.04852772 -12.26145363 0.34619927 0.90831167 -0.89766759 0.24253222
8.74951935 -12.79032993 0.24936597 0.87829649 -0.93638694 0.17469500
9.20857239 -12.07997227 -0.18835293 0.92437726 -0.88438123 -0.13195190
8.12451744 -11.50916481 -0.25001559 0.81555742 -0.84259212 -0.17515010
8.37690544 -12.15348053 1.23391604 0.84089267 -0.88976282 0.86442816
8.54999638 -12.33053780 0.23707494 0.85826796 -0.90272528 0.16608444
9.25979996 -11.99024963 -0.18821992 0.92951965 -0.87781262 -0.13185872
8.86904144 -12.40065002 -0.25923514 0.89029443 -0.90785825 -0.18160892
8.61009216 -12.25201225 0.23632549 0.86430049 -0.89697641 0.16555940
9.04752827 -12.48408031 -0.26060453 0.90821129 -0.91396624 -0.18256825
8.71352863 -12.23516560 0.23747465 0.87468368 -0.89574307 0.16636446
9.18841457 -12.51250362 -0.26144847 0.92235380 -0.91604710 -0.18315947
8.81475639 -12.21425533 0.23852389 0.88484514 -0.89421219 0.16709951
8.88632202 -12.19198895 0.23912345 0.89202905 -0.89258206 0.16751952
9.09517288 -12.10343266 -0.25839120 0.91299397 -0.88609880 -0.18101768
9.54607487 -12.92799091 0.26370549 0.95825654 -0.94646513 0.18474065
9.12871456 -11.99029636 -0.25783390 0.91636097 -0.87781602 -0.18062726
9.86211205 -13.01115894 0.27010083 0.98998106 -0.95255393 0.18922095
