-2.51274300 16.87290001 -0.39101556 -0.21948871 0.83460432 -0.26117381
-1.68769252 15.22607040 -0.45587823 -0.14742035 0.75314522 -0.30449802
-1.72332954 14.90207291 -0.44927850 -0.15053326 0.73711896 -0.30008981
-1.34623766 17.21267891 -0.56527549 -0.11759419 0.85141122 -0.37756851
-2.78861022 17.40493393 -0.39944375 -0.24358578 0.86092091 -0.26680332
-1.81549048 14.87903976 -0.44902948 -0.15858354 0.73597962 -0.29992348
-1.25046396 14.82533455 -0.50618047 -0.10922834 0.73332316 -0.33809674
-2.55031562 15.31626987 -0.36828321 -0.22277069 0.75760686 -0.24599004
-1.91272116 14.89709377 -0.44965208 -0.16707666 0.73687267 -0.30033934
-1.51019144 16.62697601 -0.55116987 -0.13191558 0.82243985 -0.36814684
-2.57609653 14.89607906 -0.36219949 -0.22502266 0.73682249 -0.24192649
-2.06419158 15.31884193 -0.45874226 -0.18030764 0.75773406 -0.30641100
-1.63871312 16.86190224 -0.55725753 -0.14314198 0.83406031 -0.37221301
-1.02421188 16.92906380 -0.66737872 -0.08946516 0.83738238 -0.44576705
-2.68387198 14.95831490 -0.36338654 -0.23443687 0.73990089 -0.24271937
-2.02944350 14.36888313 -0.43910912 -0.17727238 0.71074516 -0.29329729
-2.99833822 15.56780624 0.15302768 -0.26190558 0.77004892 0.10221288
-1.55592024 15.04968452 -0.51241660 -0.13591002 0.74442041 -0.34226209
-1.12597919 16.85247993 -0.66519451 -0.09835456 0.83359426 -0.44430813
-2.79032159 15.00798607 -0.36439556 -0.24373527 0.74235785 -0.24339333
-2.08525825 14.12040329 -0.43416971 -0.18214782 0.69845432 -0.28999808
-3.10591960 15.59767628 0.15394495 -0.27130285 0.77152640 0.10282555
-1.62726748 14.83095932 -0.50721979 -0.14214221 0.73360139 -0.33879095
-2.90668130 15.23229599 -0.36798644 -0.25389931 0.75345314 -0.24579182
-2.17118621 14.23893452 -0.43686771 -0.18965365 0.70431733 -0.29180017
-3.18019176 15.58678436 0.15401834 -0.27779052 0.77098763 0.10287457
-1.71439862 14.97208309 -0.51093179 -0.14975314 0.74058193 -0.34127033
-1.31350195 16.86897659 -0.66613060 -0.11473472 0.83441025 -0.44493338
-1.54369259 16.74880409 -0.09924716 -0.13484192 0.82846600 -0.06629086
-3.01908994 15.29807377 -0.36926255 -0.26371825 0.75670683 -0.24664417
-2.45065427 15.43187714 -0.46222892 -0.21406525 0.76332527 -0.30873987
-3.28013563 15.57627583 0.15420179 -0.28652066 0.77046782 0.10299710
-1.80673826 14.94712353 -0.51058537 -0.15781903 0.73934734 -0.34103894
-1.40905178 16.73488426 -0.66219896 -0.12308101 0.82777745 -0.44230729
-1.64308751 16.67905617 -0.09938484 -0.14352410 0.82501596 -0.06638283
-3.15133619 15.45510674 -0.37193343 -0.27526999 0.76447433 -0.24842815
-2.44729877 14.80447102 -0.44936153 -0.21377215 0.73229116 -0.30014527
-4.16418743 19.15384483 0.22178654 -0.36374280 0.94742942 0.14813948
-1.90163779 14.94340897 -0.51078331 -0.16610852 0.73916358 -0.34117115
-1.50172400 16.58632278 -0.65783048 -0.13117597 0.82042903 -0.43938941
-1.71486604 16.35010910 -0.10011920 -0.14979397 0.80874491 -0.06687333
-3.23967886 15.39391804 -0.37131023 -0.28298673 0.76144767 -0.24801190
-2.56209826 14.91692829 -0.45205954 -0.22379991 0.73785377 -0.30194736
-4.24581003 18.95562744 0.21855773 -0.37087253 0.93762475 0.14598283
-1.98693097 14.86776066 -0.50919956 -0.17355891 0.73542172 -0.34011331
-1.44641232 14.90898705 -0.60553378 -0.12634447 0.73746097 -0.40445849
-1.84970498 16.63124847 -0.09944451 -0.16157219 0.82265121 -0.06642268
-1.19954157 16.67649078 -0.19344029 -0.10478025 0.82488906 -0.12920596
-3.31585789 15.27947903 -0.36988574 -0.28964099 0.75578701 -0.24706043
-2.66761231 14.96748161 -0.45347080 -0.23301658 0.74035436 -0.30289000
-4.32239914 18.74545860 0.21510878 -0.37756261 0.92722893 0.14367914
-3.02935195 15.71646404 0.06585129 -0.26461464 0.77740216 0.04398452
-2.06826901 14.76985645 -0.50707132 -0.18066381 0.73057896 -0.33869177
-1.54492700 14.94733334 -0.60703152 -0.13494974 0.73935771 -0.40545890
-1.31317163 16.78027153 -0.19381268 -0.11470586 0.83002251 -0.12945469
-3.41486812 15.27200031 -0.37009349 -0.29828957 0.75541711 -0.24719919
-2.78251624 15.06449890 -0.45587823 -0.24305347 0.74515319 -0.30449802
-4.50267935 18.98052979 0.22006206 -0.39331013 0.93885648 0.14698763
-3.14435124 15.77951431 0.06692028 -0.27465984 0.78052086 0.04469854
-2.10313249 14.36494732 -0.49727166 -0.18370913 0.71055049 -0.33214623
-1.64268851 14.97310448 -0.60815483 -0.14348924 0.74063247 -0.40620920
-1.91334927 15.42357159 -0.10217996 -0.16713153 0.76291448 -0.06824979
-1.44342256 17.38174248 -0.19584098 -0.12608331 0.85977381 -0.13080947
-3.49531150 15.29276848 -0.37065735 -0.30531630 0.75644439 -0.24757582
-2.87714481 15.17698383 -0.45853472 -0.25131929 0.75071716 -0.30627239
-4.57505322 18.88915443 0.21874119 -0.39963201 0.93433672 0.14610536
-3.20316958 15.68808556 0.06592764 -0.27979764 0.77599841 0.04403552
-2.15300035 14.23826408 -0.49435154 -0.18806511 0.70428419 -0.33019575
-1.71974492 15.02280235 -0.60996461 -0.15022014 0.74309075 -0.40741801
-1.98575664 15.41239929 -0.10218455 -0.17345633 0.76236182 -0.06825285
-1.49831867 16.77278709 -0.19383930 -0.13087851 0.82965231 -0.12947246
-3.56831217 15.17320156 -0.36917350 -0.31169295 0.75053012 -0.24658470
-3.03627181 15.48637867 -0.46546650 -0.26521909 0.76602113 -0.31090236
-4.71983385 18.96479416 0.22072251 -0.41227865 0.93807817 0.14742877
-3.30126715 15.66569233 0.06590219 -0.28836650 0.77489078 0.04401852
-2.23330879 14.16719341 -0.49291623 -0.19508007 0.70076871 -0.32923707
-1.80817235 14.96207714 -0.60840446 -0.15794429 0.74008703 -0.40637594
-2.08229041 15.39763641 -0.10218914 -0.18188858 0.76163161 -0.06825592
-1.43703663 15.04310417 -0.18809357 -0.12552550 0.74409497 -0.12563469
-3.65270805 15.10578918 -0.36849093 -0.31906494 0.74719560 -0.24612878
-3.12049627 15.40230751 -0.46409675 -0.27257612 0.76186264 -0.30998746
-4.88712072 19.12264252 0.22428153 -0.42689118 0.94588602 0.14980596
-3.39920950 15.64268589 0.06587674 -0.29692179 0.77375275 0.04400152
-2.38268900 14.51780224 -0.50207251 -0.20812847 0.71811134 -0.33535290
-1.91562545 15.05752373 -0.61177444 -0.16733035 0.74480820 -0.40862688
-1.55000973 15.21282578 -0.18869208 -0.13539372 0.75249010 -0.12603445
-1.09173536 16.86650276 -0.27241954 -0.09536335 0.83428788 -0.18195914
-3.77469444 15.19118786 -0.37015283 -0.32972047 0.75141978 -0.24723883
-3.21924376 15.39218521 -0.46430430 -0.28120172 0.76136196 -0.31012610
-4.98323774 19.00067329 0.22255705 -0.43528703 0.93985289 0.14865412
-4.15518713 18.57646370 0.10441152 -0.36295661 0.91886967 0.06974033
-2.52707076 14.81190586 -0.50984293 -0.22074024 0.73265892 -0.34054303
-1.98424995 14.84899426 -0.60559618 -0.17332472 0.73449343 -0.40450019
-1.78783131 16.50100708 -0.19303462 -0.15616751 0.81620890 -0.12893499
-1.18751824 16.71367073 -0.27125716 -0.10373001 0.82672817 -0.18118274
-3.87404394 15.18266773 -0.37039024 -0.33839869 0.75099832 -0.24739739
-3.32553101 15.41662312 -0.46525899 -0.29048595 0.76257074 -0.31076378
-5.15675211 19.16975784 0.22637291 -0.45044357 0.94821650 0.15120287
-4.42459774 19.21665382 0.11311620 -0.38648969 0.95053619 0.07555451
-2.61692452 14.77802086 -0.50939751 -0.22858900 0.73098284 -0.34024552
-2.08409786 14.88375664 -0.60709393 -0.18204646 0.73621297 -0.40550059
-1.87673151 16.36230087 -0.19260901 -0.16393295 0.80934793 -0.12865071
-1.29417956 16.72781372 -0.27143231 -0.11304690 0.82742774 -0.18129973
-3.17428327 14.27274704 -0.44139203 -0.27727443 0.70598984 -0.29482213
-5.24455023 19.01942062 0.22413476 -0.45811275 0.94078022 0.14970793
-4.54341555 19.18068695 0.11301439 -0.39686847 0.94875711 0.07548651
-2.77518392 15.11517334 -0.51830631 -0.24241300 0.74765980 -0.34619606
-2.08631849 14.24126148 -0.58724862 -0.18224043 0.70443243 -0.39224517
-1.76132512 14.75886154 -0.18726896 -0.15385218 0.73003513 -0.12508389
-1.36783302 16.65773964 -0.27092278 -0.11948055 0.82396156 -0.18095939
-3.24018478 14.25177860 -0.44126752 -0.28303093 0.70495266 -0.29473898
-5.31241369 18.91751099 0.22266713 -0.46404064 0.93573934 0.14872764
-4.61455917 19.07934952 0.11197085 -0.40308288 0.94374454 0.07478949
-2.85495853 15.14710617 -0.51944464 -0.24938132 0.74923933 -0.34695637
-2.12436938 14.03753090 -0.58113277 -0.18556419 0.69435507 -0.38816017
-3.19701004 15.73521900 0.00626619 -0.27925959 0.77832985 0.00418542
-1.94430482 15.45778465 -0.18964970 -0.16983551 0.76460677 -0.12667409
-1.34075284 15.13859844 -0.25885299 -0.11711509 0.74881852 -0.17289753
-4.71438599 17.21710587 -0.40276754 -0.41180277 0.85163015 -0.26902339
-3.58143926 15.31401634 -0.46434581 -0.31283960 0.75749540 -0.31015381
-5.45335865 18.96060562 0.22413476 -0.47635221 0.93787098 0.14970793
-4.72089720 18.99562263 0.11125819 -0.41237152 0.93960303 0.07431348
-3.24826097 16.64739609 -0.55775249 -0.28373638 0.82344997 -0.37254360
-2.22456670 14.10093307 -0.58356667 -0.19431645 0.69749123 -0.38978586
-3.28094602 15.64437580 0.00561998 -0.28659144 0.77383637 0.00375379
-2.03874350 15.42543888 -0.18958320 -0.17808475 0.76300681 -0.12662967
-1.43174613 15.08606815 -0.25850266 -0.12506337 0.74622011 -0.17266352
-4.82084322 17.18137169 -0.40267852 -0.42110184 0.84986264 -0.26896393
-3.64643002 15.16091347 -0.46156478 -0.31851655 0.74992228 -0.30829626
-5.58031797 18.95281410 0.22464843 -0.48744214 0.93748558 0.15005103
-4.87561703 19.10513878 0.11309075 -0.42588633 0.94502020 0.07553752
-3.29713440 16.35233307 -0.55082339 -0.28800550 0.80885488 -0.36791539
-2.36963534 14.43393707 -0.59455019 -0.20698823 0.71396297 -0.39712217
-3.38810802 15.66448975 0.00599694 -0.29595205 0.77483130 0.00400558
-2.13340664 15.39647961 -0.18953000 -0.18635359 0.76157439 -0.12659413
-1.52988529 15.11060524 -0.25877336 -0.13363585 0.74743384 -0.17284434
-4.20449400 14.64144611 -0.36392072 -0.36726359 0.72422725 -0.24307618
-3.76786566 15.24450111 -0.46384770 -0.32912397 0.75405687 -0.30982110
-4.26153946 14.16284561 0.13350809 -0.37224650 0.70055366 0.08917501
-5.00262642 19.10121918 0.11344709 -0.43698063 0.94482630 0.07577553
-3.19856334 15.37044430 -0.52652222 -0.27939528 0.76028657 -0.35168377
-2.48895955 14.58827114 -0.59991717 -0.21741122 0.72159702 -0.40070698
-1.62733269 15.12455940 -0.25896445 -0.14214791 0.74812406 -0.17297198
-5.37461519 18.26438522 -0.42039552 -0.46947396 0.90343302 -0.28079778
-3.53955412 13.93708038 -0.43636963 -0.30918092 0.68938637 -0.29146749
-4.36107731 14.17017651 0.13416852 -0.38094115 0.70091629 0.08961614
-5.14269972 19.14475441 0.11443973 -0.44921607 0.94697976 0.07643855
-3.29676366 15.35786152 -0.52672017 -0.28797311 0.75966418 -0.35181597
-2.67879844 15.13150597 -0.61764067 -0.23399369 0.74846768 -0.41254514
-4.33628607 18.87692642 0.03599193 -0.37877566 0.93373185 0.02404035
-3.01537156 15.73344803 -0.10108303 -0.26339343 0.77824223 -0.06751711
-1.67399347 14.68476200 -0.25552502 -0.14622374 0.72636986 -0.17067465
-4.35342979 14.47260189 -0.36214012 -0.38027316 0.71587551 -0.24188684
-3.55180860 13.62422276 -0.43014348 -0.31025136 0.67391109 -0.28730881
-5.20205784 18.89027214 0.11151271 -0.45440102 0.93439198 0.07448348
-3.17076254 14.33761501 -0.50137961 -0.27696687 0.70919847 -0.33489007
-2.81429958 15.33660889 -0.62469262 -0.24582976 0.75861293 -0.41725540
-4.46912956 18.90962982 0.03654839 -0.39037955 0.93534952 0.02441203
-3.09639788 15.62392426 -0.10129415 -0.27047110 0.77282476 -0.06765813
-2.71287513 17.34874153 -0.19623333 -0.23697031 0.85814142 -0.13107154
-1.74154294 14.66280651 -0.25541356 -0.15212420 0.72528380 -0.17060021
-3.64253044 13.70786190 -0.43230185 -0.31817591 0.67804825 -0.28875047
-6.01489258 18.78371811 0.22402468 -0.52540231 0.92912138 0.14963441
-5.29855061 18.89251328 0.11186904 -0.46282968 0.93450284 0.07472149
-3.21832824 14.23478413 -0.49915239 -0.28112176 0.70411205 -0.33340243
-2.88360023 15.30745697 -0.62419337 -0.25188318 0.75717092 -0.41692194
-3.58941698 14.89227772 -0.00035748 -0.31353644 0.73663443 -0.00023877
-3.18264651 15.67189503 -0.10114728 -0.27800494 0.77519757 -0.06756002
-4.40076590 14.06901550 -0.35662025 -0.38440797 0.69591242 -0.23819992
-3.75002503 13.76383495 -0.43400368 -0.32756561 0.68081695 -0.28988719
-5.91822815 18.09199142 0.21140300 -0.51695865 0.89490569 0.14120391
-5.31812716 18.51276588 0.10728763 -0.46453971 0.91571897 0.07166140
-3.28308702 14.10915947 -0.49647975 -0.28677845 0.69789815 -0.33161727
-3.16726208 15.10531521 -0.10242780 -0.27666113 0.74717218 -0.06841533
-2.02786088 15.42511749 -0.26171917 -0.17713414 0.76299089 -0.17481196
-5.74446583 17.19748497 0.19481869 -0.50178051 0.85065967 0.13012664
-5.44052458 18.50009727 0.10756760 -0.47523114 0.91509229 0.07184840
-3.40303421 14.21848869 -0.49979579 -0.29725587 0.70330602 -0.33383217
-3.11219764 15.45230961 -0.62999713 -0.27185121 0.76433593 -0.42079848
-4.83036757 18.96715546 0.03782286 -0.42193377 0.93819493 0.02526329
-3.25580621 15.05578613 -0.10249665 -0.28439546 0.74472225 -0.06846132
-4.56536245 13.97650337 -0.35605639 -0.39878553 0.69133639 -0.23782329
-4.39646816 15.38117695 -0.46994933 -0.38403258 0.76081741 -0.31389663
-5.90485907 17.31429672 0.19779065 -0.51579088 0.85643762 0.13211173
-4.28068256 14.20904446 0.05101259 -0.37391865 0.70283884 0.03407321
-3.74734092 15.22741318 -0.52607673 -0.32733116 0.75321162 -0.35138619
-3.22216845 15.49509621 -0.63199419 -0.28145719 0.76645237 -0.42213240
-4.96416998 18.99252701 0.03834342 -0.43362147 0.93944997 0.02561099
-3.30147600 14.81437874 -0.10301527 -0.28838474 0.73278123 -0.06880773
-2.50876498 17.40792847 -0.27788121 -0.21914123 0.86106908 -0.18560718
-6.43490267 19.48752975 0.95549244 -0.56209034 0.96393484 0.63820893
-4.74332809 14.21679115 -0.36027050 -0.41433087 0.70322204 -0.24063805
-5.33792305 18.25405884 -0.53266746 -0.46626887 0.90292221 -0.35578838
-6.61493874 18.99852943 0.23125280 -0.57781649 0.93974686 0.15446234
-4.37925577 14.21245956 0.05141983 -0.38252905 0.70300776 0.03434522
-3.85230017 15.24038506 -0.52701712 -0.33649936 0.75385326 -0.35201430
-3.06940484 14.30148506 -0.59455019 -0.26811326 0.70741135 -0.39712217
-5.11459827 19.07683182 0.03942044 -0.44676140 0.94362003 0.02633037
-3.39582562 14.79919243 -0.10300151 -0.29662621 0.73203003 -0.06879853
-2.97696185 15.78328514 -0.19125238 -0.26003835 0.78070742 -0.12774457
-6.31961250 18.53284073 -0.42843792 -0.55201972 0.91671193 -0.28616959
-5.46222115 18.25273514 -0.53337312 -0.47712636 0.90285671 -0.35625973
-6.74827576 18.99614716 0.23202331 -0.58946353 0.93962902 0.15497699
-6.35960579 20.21664619 0.13187455 -0.55551314 1.00000000 0.08808391
-3.55688071 13.71652412 -0.48865980 -0.31069440 0.67847675 -0.32639402
-3.16177678 14.29363155 -0.59492463 -0.27618197 0.70702291 -0.39737228
-5.17690229 18.83611107 0.03748180 -0.45220369 0.93171293 0.02503549
-3.49605489 14.80871773 -0.10292807 -0.30538124 0.73250121 -0.06874948
-3.02874184 15.65325928 -0.19086003 -0.26456133 0.77427578 -0.12748250
-2.68600178 17.28836823 -0.27714875 -0.23462291 0.85515511 -0.18511795
-6.54301405 19.10772133 0.93814623 -0.57153386 0.94514793 0.62662274
-6.04328680 17.45633698 -0.41199699 -0.52788258 0.86346352 -0.27518809
-4.31168079 14.14906025 -0.44492021 -0.37662637 0.69987178 -0.29717875
-6.36909056 17.66851425 0.20674324 -0.55634159 0.87395871 0.13809149
-5.54270267 17.32452583 0.09364519 -0.48415643 0.85694361 0.06254911
-3.61839604 13.68801689 -0.48836285 -0.31606779 0.67706662 -0.32619569
-3.25977492 14.41510201 -0.59929311 -0.28474215 0.71303135 -0.40029013
-5.25532675 18.77492523 0.03714075 -0.45905408 0.92868644 0.02480769
-3.60914731 14.97295666 -0.10250124 -0.31525990 0.74062514 -0.06846438
-3.15703559 15.78292847 -0.19136544 -0.27576783 0.78068978 -0.12782009
-2.80662560 17.34618759 -0.27775383 -0.24515943 0.85801512 -0.18552211
-2.97598577 15.64790916 0.36810863 -0.25995308 0.77401114 0.24587344
-5.43859196 15.40310860 -0.38027260 -0.47506234 0.76190227 -0.25399819
-4.37858295 14.05102539 -0.44338441 -0.38247028 0.69502258 -0.29615292
-5.65887642 17.31217575 0.09395062 -0.49430424 0.85633272 0.06275311
-3.75481367 13.85019398 -0.49311420 -0.32798389 0.68508863 -0.32936931
-3.31199193 14.22878933 -0.59398854 -0.28930330 0.70381552 -0.39674702
-4.52201605 18.27461624 -0.09464372 -0.39499921 0.90393907 -0.06321605
-3.21502542 15.56501102 -0.19069378 -0.28083324 0.76991063 -0.12737146
-5.63998175 15.65824890 -0.38484281 -0.49265379 0.77452260 -0.25705081
-4.42992258 13.90696621 -0.44085246 -0.38695481 0.68789679 -0.29446173
-6.46042061 17.24081421 0.19995542 -0.56431931 0.85280287 0.13355765
-5.98654985 17.93475723 0.10278257 -0.52292657 0.88712823 0.06865229
-3.39114833 14.16491413 -0.59261560 -0.29621762 0.70065600 -0.39582998
-5.45635891 18.59038353 0.03604578 -0.47661430 0.91955823 0.02407631
-3.29514575 15.46237087 -0.19041447 -0.28783178 0.76483363 -0.12718490
-2.64037871 15.09669113 -0.25987205 -0.23063773 0.74674559 -0.17357820
-5.65782261 20.03998375 0.75788325 -0.49421218 0.99126154 0.50621837
-5.66423225 15.42173767 -0.38166741 -0.49477208 0.76282376 -0.25492984
-4.51906300 13.88456440 -0.44097698 -0.39474127 0.68678874 -0.29454491
-6.28958321 16.47164154 0.18564594 -0.54939663 0.81475639 0.12399982
-6.46630764 18.97804832 0.11731584 -0.56483352 0.93873376 0.07835960
-3.98961878 14.01528454 -0.49860796 -0.34849417 0.69325465 -0.33303878
-3.51285100 14.27731133 -0.59692168 -0.30684838 0.70621562 -0.39870617
-4.29495239 14.31638718 -0.00369624 -0.37516513 0.70814848 -0.00246885
-4.61205816 17.68013382 -0.09591506 -0.40286440 0.87453347 -0.06406523
-3.28604794 14.96095943 -0.18877853 -0.28703707 0.74003172 -0.12609220
-2.69337225 14.84754372 -0.25799313 -0.23526673 0.73442173 -0.17232320
-5.78863668 20.02130890 0.75865698 -0.50563884 0.99033779 0.50673521
-6.02696371 16.09343338 -0.39288521 -0.52645677 0.79604864 -0.26242262
-4.70357513 14.15013981 -0.44741067 -0.41085842 0.69992518 -0.29884222
-6.44167471 16.55660248 0.18810424 -0.56268185 0.81895888 0.12564181
-6.19376230 17.80709648 0.10209536 -0.54102665 0.88081360 0.06819328
-3.53770256 13.99710083 -0.58862156 -0.30901918 0.69235522 -0.39316222
-4.37539053 14.25854111 -0.00398344 -0.38219142 0.70528716 -0.00266069
-4.58714008 17.14060211 -0.09712673 -0.40068781 0.84784597 -0.06487455
-3.37598968 14.92246723 -0.18871869 -0.29489353 0.73812771 -0.12605223
-3.53462315 18.84104156 -0.29047647 -0.30875018 0.93195683 -0.19402003
-5.90692329 19.95964241 0.75753939 -0.51597118 0.98728752 0.50598872
-6.20879221 16.26627159 -0.39623865 -0.54233950 0.80459791 -0.26466250
-5.38444519 15.87259007 -0.48580527 -0.47033259 0.78512478 -0.32448739
-6.87511826 17.34453392 0.20446841 -0.60054326 0.85793328 0.13657205
-6.95099497 19.59289169 0.12673318 -0.60717112 0.96914649 0.08464980
-3.58813238 13.82942200 -0.58394110 -0.31342423 0.68406111 -0.39003596
-4.79065275 17.46257782 -0.09629141 -0.41846469 0.86377221 -0.06431661
-3.43857002 14.87327671 -0.18860564 -0.30035993 0.73569459 -0.12597671
-2.94856739 15.29828167 -0.26189432 -0.25755808 0.75671709 -0.17492895
-5.97953176 19.86081314 0.75435877 -0.52231354 0.98239899 0.50386423
-2.86575413 15.58120823 0.25800967 -0.25032431 0.77071184 0.17233424
-5.52000046 14.26650047 -0.36487037 -0.48217338 0.70568085 -0.24371047
-5.41829729 15.72788715 -0.48319030 -0.47328958 0.77796715 -0.32274076
-6.34323645 17.60992432 0.10036460 -0.55408323 0.87106061 0.06703725
-4.91762352 16.19519615 -0.55686158 -0.42955562 0.80108225 -0.37194854
-3.65021133 13.80075932 -0.58356667 -0.31884685 0.68264335 -0.38978586
-5.52238894 17.30062294 0.02514993 -0.48238203 0.85576129 0.01679857
-4.86913729 17.42632103 -0.09632353 -0.42532033 0.86197883 -0.06433807
-3.52636909 14.82803631 -0.18852583 -0.30802920 0.73345679 -0.12592341
-3.03919458 15.25198746 -0.26167139 -0.26547438 0.75442719 -0.17478004
-6.79004431 17.39053154 0.85673606 -0.59311205 0.86020851 0.57224584
-7.03612232 17.30508614 1.49714684 -0.61460698 0.85598207 1.00000000
-2.94056392 15.44109249 0.25491193 -0.25685897 0.76378113 0.17026515
-5.54404402 14.06604099 -0.36222917 -0.48427358 0.69576532 -0.24194632
-5.39277077 15.33873749 -0.47538686 -0.47105983 0.75871819 -0.31752855
-6.29975700 17.14906120 0.09466328 -0.55028534 0.84826440 0.06322912
-4.33954096 13.98420620 -0.50034022 -0.37905997 0.69171739 -0.33419582
-3.77589178 13.92230701 -0.58824712 -0.32982507 0.68865561 -0.39291212
-4.97634077 17.38768959 -0.09634189 -0.43468457 0.86006796 -0.06435033
-3.66292191 14.98232174 -0.18913099 -0.31995711 0.74108839 -0.12632762
-3.20466733 15.57352734 -0.26444203 -0.27992848 0.77033192 -0.17663066
-6.77336454 17.03217888 0.83864498 -0.59165502 0.84248292 0.56016213
-3.05210996 15.49687481 0.25681055 -0.26660255 0.76654035 0.17153330
-5.61213160 13.98084831 -0.36142787 -0.49022105 0.69155133 -0.24141110
-6.68348885 16.04967308 0.18113296 -0.58380437 0.79388404 0.12098543
-6.44584370 17.21218872 0.09606317 -0.56304604 0.85138696 0.06416416
-4.41881943 13.92999458 -0.49964732 -0.38598496 0.68903589 -0.33373302
-3.84837866 13.84435844 -0.58649975 -0.33615682 0.68479997 -0.39174497
-5.98604345 17.96768188 0.03213261 -0.52288234 0.88875681 0.02146256
-5.07260704 17.31192207 -0.09644746 -0.44309345 0.85632020 -0.06442084
-4.29764652 17.09978104 -0.19647275 -0.37540048 0.84582680 -0.13123144
-3.32475114 15.65875435 -0.26530188 -0.29041782 0.77454758 -0.17720498
-6.26134825 19.46125412 0.74155015 -0.54693031 0.96263516 0.49530891
-5.60416842 19.94523239 0.62043244 -0.48952547 0.98657471 0.41440988
-3.18269539 15.64200974 0.26100749 -0.27800921 0.77371931 0.17433660
-5.60015154 15.31109333 -0.47630003 -0.48917460 0.75735080 -0.31813848
-6.80845594 16.06440926 0.18227038 -0.59472030 0.79461294 0.12174515
-6.25238085 16.37882233 0.08527139 -0.54614699 0.81016517 0.05695593
-4.49263477 13.86013126 -0.49855846 -0.39243275 0.68558013 -0.33300573
-3.96742892 13.93338490 -0.59018177 -0.34655589 0.68920356 -0.39420432
-6.12530756 18.00731659 0.03286857 -0.53504711 0.89071733 0.02195414
-4.30342340 14.33998966 -0.10348801 -0.37590510 0.70931596 -0.06912349
-3.31209993 15.12750435 -0.26114592 -0.28931275 0.74826974 -0.17442906
-6.84106159 16.59322166 0.81831902 -0.59756839 0.82077026 0.54658568
-5.62086201 19.53113937 0.60601968 -0.49098366 0.96609199 0.40478307
-6.48255968 15.57367897 -0.38819629 -0.56625319 0.77033937 -0.25929072
-5.95109034 15.96164131 -0.49149182 -0.51982921 0.78952962 -0.32828566
-5.24353981 15.82745838 -0.55062544 -0.45802447 0.78289241 -0.36778319
-6.21793270 17.90992928 0.03231211 -0.54313797 0.88590014 0.02158246
-4.39460754 14.31649303 -0.10347883 -0.38387004 0.70815372 -0.06911736
-4.49676180 16.98644257 -0.19627324 -0.39279324 0.84022057 -0.13109818
-3.37996101 14.98540211 -0.26015869 -0.29524043 0.74124074 -0.17376965
-7.26599598 17.31196213 0.86237627 -0.63468653 0.85632217 0.57601315
-6.35171461 18.92466736 0.72083282 -0.55482382 0.93609333 0.48147103
-5.56334066 18.88175392 0.58260804 -0.48595917 0.93397063 0.38914555
-4.09510994 18.92751694 0.34604540 -0.35770884 0.93623430 0.23113658
-5.75339603 13.58732033 -0.35682800 -0.50256056 0.67208576 -0.23833868
-6.29766941 16.57469559 -0.50593650 -0.55010295 0.81985384 -0.33793378
-7.71058750 17.56989670 0.21419151 -0.67352170 0.86908066 0.14306647
-6.90646791 17.43547058 0.10082275 -0.60328168 0.86243141 0.06734326
-5.35445642 15.82827663 -0.55151629 -0.46771309 0.78293288 -0.36837822
-5.43923569 18.25176239 -0.73246878 -0.47511858 0.90280861 -0.48924312
-6.93852091 19.58156204 0.04861100 -0.60608149 0.96858609 0.03246909
-4.44034672 14.14733028 -0.10381847 -0.38786536 0.69978619 -0.06934422
-4.58303642 16.98822784 -0.19635305 -0.40032935 0.84030890 -0.13115150
-3.43490791 14.90107822 -0.25960135 -0.30004004 0.73706973 -0.17339739
-7.45484495 17.52920341 0.87695563 -0.65118253 0.86706781 0.58575124
-6.94685030 17.44141006 1.40948915 -0.60680908 0.86272520 0.94145018
-5.90390539 19.69796562 0.61479902 -0.51570755 0.97434390 0.41064709
-4.19629669 18.96268272 0.34744439 -0.36654752 0.93797374 0.23207101
-5.84346247 13.62066841 -0.35780734 -0.51042789 0.67373532 -0.23899281
-5.54413414 14.37952423 -0.45778757 -0.48428148 0.71127152 -0.30577332
-7.69071627 17.30323792 0.20956846 -0.67178595 0.85589063 0.13997856
-5.82208967 16.94261169 -0.58136082 -0.50856096 0.83805251 -0.38831249
-4.29772854 14.16128826 -0.59991717 -0.37540764 0.70047665 -0.40070698
-4.48941183 14.07096863 -0.10395157 -0.39215121 0.69600904 -0.06943312
-4.72126675 17.07279205 -0.19674540 -0.41240379 0.84449178 -0.13141356
-3.55324531 14.98431683 -0.26046121 -0.31037685 0.74118710 -0.17397171
-6.75750208 17.37958527 0.75090051 -0.59026945 0.85966706 0.50155437
-7.02491903 17.31980515 1.40258729 -0.61362839 0.85671014 0.93684018
-6.07076597 19.80192947 0.62021291 -0.53028291 0.97948635 0.41426325
-6.79480934 15.56009197 -0.38982850 -0.59352827 0.76966733 -0.26038095
-5.57462931 14.19171333 -0.45438397 -0.48694524 0.70198160 -0.30349994
-7.92807627 17.53869247 0.21529225 -0.69251937 0.86753720 0.14380169
-4.35830545 14.04232597 -0.59692168 -0.38069904 0.69459224 -0.39870617
-6.27304411 17.11098480 0.02572434 -0.54795194 0.84638101 0.01718224
-4.60859585 14.13760185 -0.10372209 -0.40256196 0.69930500 -0.06927983
-4.12068844 14.55554199 -0.18814677 -0.35994315 0.71997809 -0.12567022
-3.64967918 14.97141457 -0.26054084 -0.31880036 0.74054885 -0.17402491
-6.70077038 16.91684151 0.72937822 -0.58531392 0.83677787 0.48717880
-5.86550522 18.70841026 0.57975477 -0.51235330 0.92539632 0.38723975
-4.36108398 18.59498024 0.33940026 -0.38094175 0.91978562 0.22669804
-6.89651155 15.52622604 -0.38997689 -0.60241199 0.76799220 -0.26048005
-5.59706354 13.98923206 -0.45064828 -0.48890486 0.69196600 -0.30100474
-7.78198862 16.93282127 0.20406480 -0.67975861 0.83756828 0.13630246
-7.12466955 17.11589813 0.09809935 -0.62234163 0.84662402 0.06552420
-5.37986183 15.04466915 -0.53340179 -0.46993226 0.74417233 -0.35627887
-4.62039852 14.56557369 -0.61495715 -0.40359294 0.72047430 -0.41075274
-6.14260006 18.46909142 -0.09317961 -0.53655761 0.91355860 -0.06223813
-4.20367002 14.50056171 -0.18804702 -0.36719161 0.71725851 -0.12560359
-4.18928146 16.73747635 -0.27522203 -0.36593476 0.82790571 -0.18383102
-6.87698889 18.99326324 0.73106253 -0.60070664 0.93948638 0.48830384
-6.28993845 19.63268852 0.61670119 -0.54942763 0.97111499 0.41191763
-5.62611723 20.08893967 0.52483982 -0.49144271 0.99368310 0.35056001
-6.65467310 14.73396111 -0.37777975 -0.58128732 0.72880346 -0.25233313
-5.72770929 14.05939865 -0.45301419 -0.50031680 0.69543678 -0.30258501
-8.16905308 17.48295212 0.21620952 -0.71356881 0.86478007 0.14441437
-7.35890007 17.37108231 0.10224807 -0.64280170 0.85924649 0.06829529
-6.69377327 18.34125137 -0.62120289 -0.58470273 0.90723515 -0.41492447
-4.52091265 13.94459629 -0.59554869 -0.39490283 0.68975812 -0.39778909
-6.20267487 16.28542709 0.01856216 -0.54180515 0.80554545 0.01239836
-6.38546276 18.80523491 -0.09227086 -0.55777174 0.93018568 -0.06163114
-4.30041122 14.49302959 -0.18811353 -0.37564197 0.71688592 -0.12564801
-6.79852629 16.55213737 0.71499825 -0.59385294 0.81873804 0.47757390
-7.09750605 19.22325134 0.74361324 -0.61996889 0.95086253 0.49668691
-6.36853838 19.45597267 0.61143357 -0.55629337 0.96237391 0.40839919
-4.73792887 16.53014755 0.40837103 -0.41385925 0.81765032 0.27276617
-6.68853664 14.56472015 -0.37570238 -0.58424532 0.72043204 -0.25094557
-5.68078423 13.69602966 -0.44566733 -0.49621788 0.67746300 -0.29767776
-5.08184099 13.67217064 -0.49895442 -0.44390005 0.67628282 -0.33327019
-6.84627533 17.63637543 0.03195310 -0.59802383 0.87236899 0.02134266
-5.30392504 15.29209995 -0.10070208 -0.46329916 0.75641131 -0.06726266
-4.35356617 14.42284203 -0.18794061 -0.38028505 0.71341419 -0.12553252
-4.51334524 17.22839546 -0.27964869 -0.39424181 0.85218859 -0.18678775
-7.13319874 19.04369354 0.73690808 -0.62308663 0.94198084 0.49220827
-6.14448309 18.47336960 0.57470661 -0.53672212 0.91377026 0.38386789
-4.69098663 16.08176613 0.39427283 -0.40975884 0.79547149 0.26334947
-4.88717461 19.33313179 0.36043489 -0.42689589 0.95629770 0.24074785
-6.84079313 14.71245670 -0.37864038 -0.59754497 0.72773975 -0.25290799
-5.72595549 13.62299728 -0.44462964 -0.50016361 0.67385054 -0.29698464
-5.04284143 13.37507629 -0.49172840 -0.44049343 0.66158730 -0.32844368
-4.96214008 14.75463581 -0.62388134 -0.43344414 0.72982609 -0.41671354
-6.87936211 17.47742653 0.03073248 -0.60091394 0.86450672 0.02052737
-4.48202372 14.51745605 -0.18836623 -0.39150587 0.71809417 -0.12581681
-7.33295536 17.31190491 0.75823337 -0.64053541 0.85631931 0.50645226
-6.66396236 17.46088409 0.66607374 -0.58209872 0.86368847 0.44489539
-6.19059324 18.22804260 0.56673205 -0.54074985 0.90163535 0.37854138
-6.93309450 17.40017891 1.30109823 -0.60560751 0.86068571 0.86905187
-5.91208696 19.78768349 0.51817179 -0.51642221 0.97878170 0.34610620
-5.01405287 19.32333565 0.36098450 -0.43797874 0.95581311 0.24111496
-6.97336769 14.75411034 -0.38003519 -0.60912538 0.72980011 -0.25383961
-5.86708975 13.71735859 -0.44757670 -0.51249170 0.67851800 -0.29895312
-7.64255095 17.20660210 0.10176448 -0.66757870 0.85111064 0.06797227
-5.13253736 13.35805035 -0.49212435 -0.44832841 0.66074514 -0.32870814
-5.81584740 16.94952011 -0.69733387 -0.50801569 0.83839428 -0.46577519
-5.43334293 15.12552071 -0.10096370 -0.47460383 0.74817163 -0.06743740
-4.41959906 14.00477409 -0.18667710 -0.38605306 0.69273478 -0.12468857
-4.82415342 17.51556396 -0.28249896 -0.42139098 0.86639315 -0.18869154
-7.58907747 17.60871696 0.77604163 -0.66290778 0.87100089 0.51834702
-6.76627779 17.40005302 0.66521412 -0.59103602 0.86067951 0.44432122
-6.58627605 19.00299454 0.59826458 -0.57531279 0.93996769 0.39960313
-7.02349186 17.31009865 1.29726720 -0.61350375 0.85622996 0.86649299
-4.83467054 15.83234882 0.38798580 -0.42230964 0.78313428 0.25915012
-5.11179733 19.20255089 0.35868618 -0.44651675 0.94983858 0.23957983
-8.06861496 16.79076195 -0.41431180 -0.70479548 0.83054143 -0.27673423
-7.78007793 17.22388649 0.10268077 -0.67959172 0.85196555 0.06858430
-5.58575726 14.26523304 -0.51711845 -0.48791724 0.70561820 -0.34540263
-4.69738913 13.40198898 -0.58125758 -0.41031808 0.66291851 -0.38824353
-6.25908709 17.09390831 -0.09607110 -0.54673278 0.84553629 -0.06416946
-4.55559301 14.12513065 -0.18719581 -0.39793217 0.69868815 -0.12503503
-4.08257675 14.45436859 -0.25743580 -0.35661408 0.71497363 -0.17195094
-6.66812277 16.83540344 0.64105827 -0.58246213 0.83274955 0.42818663
-5.74275970 18.38046455 0.47384503 -0.50163144 0.90917474 0.31649870
-5.25437689 19.25108719 0.36078465 -0.45897111 0.95223939 0.24098147
-7.48712301 15.33703423 -0.39113426 -0.65400201 0.75863397 -0.26125312
-6.70951843 15.16289711 -0.48206958 -0.58607805 0.75002038 -0.32199219
-5.62251425 14.09806824 -0.51360446 -0.49112800 0.69734949 -0.34305552
-4.77010679 13.34019375 -0.58019668 -0.41666999 0.65986186 -0.38753492
-6.07347584 16.26696396 -0.09799877 -0.53051960 0.80463219 -0.06545702
-4.63419819 14.06584930 -0.18708940 -0.40479833 0.69575584 -0.12496396
-4.20594740 14.54182625 -0.25837529 -0.36739054 0.71929961 -0.17257845
-7.05584240 19.56195068 0.62328571 -0.61632955 0.96761602 0.41631567
-5.33283949 19.06553650 0.35683751 -0.46582484 0.94306129 0.23834503
-7.59224701 15.30759335 -0.39143103 -0.66318464 0.75717771 -0.26145133
-6.70890808 14.90698242 -0.47721317 -0.58602476 0.73736179 -0.31874841
-7.88869524 16.89451599 0.09944832 -0.68907946 0.83567351 0.06642523
-5.62342739 13.84769630 -0.50786322 -0.49120775 0.68496507 -0.33922070
-4.88862228 13.40578938 -0.58337945 -0.42702234 0.66310650 -0.38966081
-7.11489439 16.82402229 0.02610130 -0.62148774 0.83218664 0.01743403
-6.19045544 16.26775360 -0.09790238 -0.54073781 0.80467123 -0.06539264
-6.46505165 17.57132530 0.54741746 -0.56472385 0.86915135 0.36564046
-6.39442253 19.59296799 0.51683819 -0.55855435 0.96915025 0.34521544
-5.40588713 18.86823082 0.35259062 -0.47220555 0.93330175 0.23550838
-7.62333822 15.13107967 -0.38929433 -0.66590047 0.74844658 -0.26002413
-6.62983847 14.48612976 -0.46857959 -0.57911801 0.71654463 -0.31298172
-8.45067310 17.80807495 0.11301439 -0.73816836 0.88086200 0.07548651
-5.63368273 13.62742329 -0.50291389 -0.49210355 0.67406946 -0.33591488
-4.98455381 13.40667915 -0.58444035 -0.43540201 0.66315049 -0.39036942
-7.39958429 17.19396019 0.03015807 -0.64635551 0.85048527 0.02014370
-6.18369627 15.94683647 -0.09859543 -0.54014736 0.78879732 -0.06585555
-5.19606495 15.12387466 -0.19101964 -0.45387754 0.74809021 -0.12758911
-4.37795877 14.45335865 -0.25808865 -0.38241577 0.71492368 -0.17238700
-6.51863718 17.37871742 0.54149139 -0.56940454 0.85962415 0.36168221
-6.52184010 19.56567574 0.51728272 -0.56968433 0.96780026 0.34551236
-4.72805691 16.10873032 0.28164241 -0.41299692 0.79680526 0.18811943
-7.52011108 14.69680977 -0.38285446 -0.65688354 0.72696579 -0.25572273
-6.69296551 14.38432503 -0.46720985 -0.58463216 0.71150899 -0.31206682
-5.72308445 13.60096645 -0.50316137 -0.49991283 0.67276078 -0.33608016
-5.07786608 13.39941025 -0.58525163 -0.44355285 0.66279095 -0.39091131
-6.93977737 15.85433674 0.01748514 -0.60619122 0.78422189 0.01167898
-6.86762571 17.39088631 -0.09493746 -0.59988880 0.86022609 -0.06341226
-5.29504490 15.17849731 -0.19129893 -0.46252346 0.75079203 -0.12777567
-4.36160564 14.15722561 -0.25579572 -0.38098732 0.70027566 -0.17085546
-7.29890442 17.22901344 0.66701937 -0.63756108 0.85221916 0.44552702
-6.62880754 17.42255783 0.54441786 -0.57902795 0.86179268 0.36363691
-6.89265347 17.36907005 1.18169785 -0.60207498 0.85914695 0.78929991
-6.54517508 19.33219719 0.51048762 -0.57172263 0.95625144 0.34097365
-4.79992628 16.07285500 0.28129268 -0.41927472 0.79503071 0.18788584
-8.47391987 16.36503029 -0.41134411 -0.74019897 0.80948293 -0.27475202
-5.82487392 13.66207600 -0.50553703 -0.50880414 0.67578351 -0.33766696
-5.28814936 13.75992584 -0.59810740 -0.46192113 0.68062359 -0.39949816
-6.96655273 17.40105438 -0.09483189 -0.60853010 0.86072904 -0.06334174
-6.08080721 17.07725143 -0.19812198 -0.53116000 0.84471238 -0.13233303
-4.44030190 14.09709930 -0.25552502 -0.38786146 0.69730157 -0.17067465
-7.38005161 17.12045479 0.66409659 -0.64464933 0.84684938 0.44357479
-6.70932817 17.30599213 0.54149139 -0.58606148 0.85602689 0.36168221
-6.99419498 17.30691528 1.18028867 -0.61094463 0.85607255 0.78835863
-6.25660276 18.10836411 0.47073328 -0.54651576 0.89571553 0.31442025
-4.86358309 15.91995716 0.27809501 -0.42483518 0.78746778 0.18574999
-7.67099428 14.59377575 -0.38252804 -0.67006320 0.72186929 -0.25550470
-7.22358561 15.09127712 -0.48518267 -0.63098198 0.74647778 -0.32407153
-6.31573582 16.14013863 -0.67898637 -0.55168104 0.79835886 -0.45352021
-6.74217606 16.53613281 -0.09686512 -0.58893073 0.81794637 -0.06469981
-4.53305960 14.08225441 -0.25563648 -0.39596385 0.69656730 -0.17074910
-7.74410725 17.65721321 0.69151908 -0.67644966 0.87339973 0.46189129
-6.68834639 16.93432045 0.52854186 -0.58422869 0.83764243 0.35303274
-6.89092016 19.54052925 0.52033097 -0.60192358 0.96655643 0.34754840
-5.81981993 18.64208412 0.35014242 -0.50836271 0.92211556 0.23387313
-8.54016685 15.99808025 -0.40698165 -0.74598569 0.79133207 -0.27183816
-7.32698822 15.06358433 -0.48559773 -0.64001423 0.74510795 -0.32434878
-6.67705250 15.12522984 -0.54716092 -0.58324218 0.74815720 -0.36546910
-5.55140734 13.92090130 -0.60578340 -0.48491678 0.68858612 -0.40462524
-7.18175316 15.66483688 0.01682098 -0.62732792 0.77484846 0.01123536
-6.78095007 16.33635902 -0.09725524 -0.59231764 0.80806476 -0.06496038
-5.99955654 16.20459747 -0.19530232 -0.52406275 0.80154729 -0.13044968
-4.61398506 14.03068638 -0.25544542 -0.40303272 0.69401652 -0.17062148
-7.03709126 17.49672699 0.55239242 -0.61469162 0.86546141 0.36896342
-6.24347353 17.36267853 0.44825238 -0.54536891 0.85883081 0.29940441
-6.07859707 19.05100822 0.36183387 -0.53096694 0.94234264 0.24168229
-6.54279852 19.55359459 1.09034443 -0.57151502 0.96720266 0.72828156
-8.06382656 14.88279819 -0.38905689 -0.70437723 0.73616552 -0.25986555
-7.42325735 15.02083778 -0.48568076 -0.64842331 0.74299353 -0.32440421
-6.76292181 15.06292534 -0.54661649 -0.59074289 0.74507540 -0.36510545
-5.56005573 13.69116497 -0.59923071 -0.48567224 0.67722237 -0.40024844
-7.90428638 16.95462418 0.03005037 -0.69044137 0.83864671 0.02007176
-6.68397427 15.81972218 -0.09843478 -0.58384681 0.78250974 -0.06574825
-6.75437927 17.89103127 -0.20143375 -0.58999670 0.88496536 -0.13454509
-4.76038599 14.17592049 -0.25691035 -0.41582087 0.70120043 -0.17159997
-6.36624813 17.36062813 0.44952250 -0.55609334 0.85872936 0.30025277
-5.56989956 17.07857323 0.31102097 -0.48653209 0.84477776 0.20774247
-8.17842674 14.87036228 -0.38970980 -0.71438760 0.73555040 -0.26030165
-7.39845705 14.73608303 -0.48016024 -0.64625704 0.72890842 -0.32071686
-6.63096094 14.52570057 -0.53315431 -0.57921606 0.71850199 -0.35611358
-5.66347790 13.69847298 -0.60066605 -0.49470618 0.67758387 -0.40120718
-7.96859789 16.81611443 0.02917080 -0.69605899 0.83179545 0.01948426
-6.66822481 15.50901985 -0.09910487 -0.58247107 0.76714110 -0.06619583
-5.17628860 15.18163681 -0.26555666 -0.45215008 0.75094736 -0.17737517
-6.83092928 16.45610237 0.51427543 -0.59668332 0.81398773 0.34350365
-6.59060860 17.71247673 0.46247759 -0.57569128 0.87613326 0.30890596
-5.87656736 17.73753357 0.32905781 -0.51331961 0.87737268 0.21978994
-8.01366520 14.41074467 -0.38255769 -0.69999564 0.71281582 -0.25552449
-7.50756598 14.77954483 -0.48198658 -0.65578771 0.73105818 -0.32193676
-6.65391445 14.39634514 -0.53048164 -0.58122104 0.71210355 -0.35432839
-5.75799513 13.74357986 -0.60309988 -0.50296229 0.67981505 -0.40283281
-6.79379940 15.59850693 -0.09880196 -0.59344006 0.77156746 -0.06599350
-6.09860373 15.63849735 -0.19365974 -0.53271455 0.77354556 -0.12935254
-5.32462168 15.30187702 -0.26684642 -0.46510699 0.75689495 -0.17823663
-6.58376312 17.36057663 0.45193571 -0.57509333 0.85872686 0.30186465
-6.36980963 18.83325195 0.35893598 -0.55640441 0.93157154 0.23974667
-6.88220692 17.37206078 1.08171725 -0.60116243 0.85929489 0.72251916
-7.91690111 14.02943897 -0.37691912 -0.69154322 0.69395483 -0.25175828
-7.58381748 14.70007515 -0.48123944 -0.66244829 0.72712731 -0.32143769
-6.78430748 14.43925285 -0.53280783 -0.59261090 0.71422595 -0.35588214
-6.11776447 14.35110569 -0.62494224 -0.53438824 0.70986581 -0.41742215
-6.52729225 14.73039055 -0.10087190 -0.57016057 0.72862679 -0.06737609
-6.90326405 17.37222862 -0.20000397 -0.60300177 0.85930318 -0.13359009
-5.46333265 15.38879299 -0.26786551 -0.47722343 0.76119417 -0.17891732
-6.65730429 17.22753906 0.44882393 -0.58151716 0.85214627 0.29978618
-5.96693468 17.27849960 0.31891519 -0.52121317 0.85466695 0.21301530
-6.98373461 17.30997658 1.08041441 -0.61003095 0.85622394 0.72164893
-7.65473843 14.61137009 -0.48028475 -0.66864330 0.72273958 -0.32080004
-7.23514128 15.14824200 -0.55344653 -0.63199133 0.74929547 -0.36966750
-6.30218792 14.53074646 -0.63236862 -0.55049765 0.71875161 -0.42238250
-6.62463331 14.70003414 -0.10084436 -0.57866335 0.72712529 -0.06735770
-7.17250872 17.72322655 -0.20142044 -0.62652040 0.87666500 -0.13453619
-5.69834661 15.73794556 -0.27111384 -0.49775198 0.77846473 -0.18108700
-7.49935579 17.14886475 0.54719800 -0.65507054 0.84825468 0.36549386
-6.71695232 17.06266022 0.44463259 -0.58672744 0.84399062 0.29698664
-6.10452604 17.32367134 0.32111359 -0.53323185 0.85690135 0.21448369
-6.91824198 16.84319496 1.05057824 -0.60431010 0.83313495 0.70172024
-10.00346375 17.20831871 -0.43324554 -0.87380499 0.85119551 -0.28938079
-7.95531178 14.95691872 -0.48954096 -0.69489843 0.73983186 -0.32698259
-7.41069603 15.26786804 -0.55799997 -0.64732611 0.75521272 -0.37270892
-6.39175320 14.48720264 -0.63224381 -0.55832118 0.71659774 -0.42229912
-8.58594418 17.06653976 0.03362248 -0.74998432 0.84418255 0.02245771
-7.18048811 15.67325687 -0.09828333 -0.62721741 0.77526492 -0.06564709
-6.59394503 16.00873756 -0.19541538 -0.57598269 0.79185921 -0.13052519
-5.83025694 15.79192734 -0.27187815 -0.50927436 0.78113484 -0.18159752
-7.86139488 17.67509460 0.57017064 -0.68669474 0.87428421 0.38083816
-7.12685299 19.83543587 0.38881418 -0.62253237 0.98114371 0.25970343
-9.98723793 16.93510246 -0.42962497 -0.87238765 0.83768111 -0.28696248
-7.71830082 14.29219246 -0.47505480 -0.67419547 0.70695168 -0.31730676
-7.42492342 15.05612850 -0.55344653 -0.64856887 0.74473917 -0.36966750
-6.47122717 14.42120743 -0.63137013 -0.56526327 0.71333331 -0.42171556
-6.45632935 15.40102863 -0.19337378 -0.56396192 0.76179940 -0.12916154
-5.77839708 15.35237026 -0.26845467 -0.50474441 0.75939256 -0.17931084
-7.15205240 17.51706886 0.46317613 -0.62473351 0.86646760 0.30937254
-10.33512688 17.27505875 -0.43659902 -0.90277582 0.85449678 -0.29162070
-7.76191711 14.15919399 -0.47306243 -0.67800534 0.70037305 -0.31597596
-9.52635479 16.81896400 0.10815301 -0.83212942 0.83193642 0.07223941
-7.41613817 14.80373001 -0.54775482 -0.64780146 0.73225451 -0.36586580
-6.77686167 14.85338783 -0.64759582 -0.59196055 0.73471075 -0.43255332
-7.38540840 15.59987640 -0.09823743 -0.64511722 0.77163523 -0.06561643
-6.71702957 15.81199741 -0.19496982 -0.58673418 0.78212762 -0.13022758
-5.41768503 14.18657398 -0.25875744 -0.47323611 0.70172739 -0.17283371
-6.76093912 16.34217262 0.42392984 -0.59056967 0.80835229 0.28315848
-6.46060801 17.37121582 0.32526058 -0.56433570 0.85925311 0.21725363
-10.72114849 17.72896385 -0.44532394 -0.93649495 0.87694883 -0.29744840
-7.91463852 14.27821541 -0.47675660 -0.69134563 0.70626032 -0.31844345
-9.54202080 16.66275024 0.10652406 -0.83349782 0.82420939 0.07115138
-7.41604376 14.63138390 -0.54394382 -0.64779323 0.72372955 -0.36332029
-6.68876362 14.47810364 -0.63580096 -0.58426511 0.71614766 -0.42467508
-8.28566360 17.29552650 -0.09383593 -0.72375476 0.85550916 -0.06267650
-6.73826790 15.58966255 -0.19431810 -0.58858937 0.77113003 -0.12979227
-6.41879034 16.50561142 -0.27885252 -0.56068289 0.81643665 -0.18625596
-6.55408001 17.28913307 0.32416138 -0.57250047 0.85519296 0.21651943
-6.86519289 17.36911201 0.97461236 -0.59967625 0.85914904 0.65097982
-10.87736130 17.73450851 -0.44660005 -0.95014018 0.87722307 -0.29830077
-7.95234919 14.13577557 -0.47455668 -0.69463962 0.69921470 -0.31697404
-7.60689878 14.77636528 -0.54928911 -0.66446447 0.73090094 -0.36689061
-7.04994011 15.01334095 -0.65570867 -0.61581397 0.74262273 -0.43797219
-8.09194088 16.62061501 -0.09542396 -0.70683300 0.82212526 -0.06373721
-6.50432348 14.79494667 -0.19158490 -0.56815422 0.73182005 -0.12796667
-6.83009529 17.24438095 -0.28552437 -0.59661049 0.85297930 -0.19071233
-6.40251875 16.57217216 0.30607459 -0.55926156 0.81972903 0.20443860
-6.96824217 17.31081200 0.97366083 -0.60867763 0.85626525 0.65034425
-11.05628109 17.77442360 -0.44849935 -0.96576887 0.87919742 -0.29956937
-8.03111744 14.06815243 -0.47414163 -0.70152009 0.69586974 -0.31669682
-7.78500891 14.89118576 -0.55384248 -0.68002242 0.73658043 -0.36993197
-7.16474390 15.01207256 -0.65720642 -0.62584215 0.74255997 -0.43897259
-8.26964760 16.71831512 -0.09504302 -0.72235572 0.82695788 -0.06348276
-6.58487320 14.72641563 -0.19148514 -0.57519031 0.72843021 -0.12790003
-6.40634108 15.87811565 -0.27417111 -0.55959547 0.78539813 -0.18312907
-6.85405111 17.41759682 0.32985720 -0.59870303 0.86154729 0.22032388
-6.94019365 16.93217278 0.95213199 -0.60622764 0.83753622 0.63596433
-9.88844681 17.08047676 -0.54756874 -0.86375827 0.84487194 -0.36574149
-7.52514124 14.17838669 -0.53523302 -0.65732294 0.70132238 -0.35750201
-7.26588678 14.98115635 -0.65770566 -0.63467699 0.74103075 -0.43930605
-9.63954830 17.54940414 0.04186168 -0.84201688 0.86806703 0.02796097
-6.61357832 16.10036850 -0.27643222 -0.57769769 0.79639167 -0.18463935
-7.51640797 16.94699669 0.45104662 -0.65656006 0.83826941 0.30127078
-7.28642750 17.46520615 0.98936135 -0.63647121 0.86390227 0.66083121
-9.99455929 17.01628494 -0.54752719 -0.87302721 0.84169674 -0.36571375
-10.19689465 16.81293869 0.11240354 -0.89070123 0.83163840 0.07507850
-7.63213968 14.16424561 -0.53617340 -0.66666925 0.70062292 -0.35813013
-7.18887281 14.58713245 -0.64559883 -0.62794977 0.72154069 -0.43121943
-9.36426163 16.79889297 0.03477130 -0.81797051 0.83094358 0.02322505
-7.23731184 15.65126610 -0.19518262 -0.63218093 0.77417719 -0.13036972
-7.39241219 17.68485069 -0.29046056 -0.64572901 0.87476677 -0.19400939
-7.99515486 17.72266006 0.47975105 -0.69837874 0.87663698 0.32044354
-6.32119751 15.48367023 0.28004357 -0.55215812 0.76588720 0.18705150
-9.10713196 15.28074074 -0.50714022 -0.79551017 0.75584942 -0.33873779
-10.27408981 16.70251656 0.11171633 -0.89744425 0.82617640 0.07461949
-7.73637199 14.14405823 -0.53696531 -0.67577398 0.69962436 -0.35865909
-7.28484774 14.55061913 -0.64591086 -0.63633323 0.71973455 -0.43142787
-9.47850609 16.75538063 0.03493286 -0.82794982 0.82879132 0.02333296
-8.92586803 17.22216225 -0.09333107 -0.77967674 0.85188025 -0.06233929
-6.92929220 14.80415058 -0.19219671 -0.60527539 0.73227531 -0.12837532
-7.39552879 17.46005249 -0.28882048 -0.64600122 0.86364734 -0.19291392
-10.49927044 17.43498421 -0.56035310 -0.91711384 0.86240733 -0.37428066
-10.07652569 16.20864296 0.10504782 -0.88018698 0.80174738 0.07016534
-7.86792278 14.22458553 -0.54028136 -0.68726498 0.70360756 -0.36087400
-7.36414814 14.53754139 -0.64665973 -0.64326012 0.71908766 -0.43192807
-9.49170589 16.59601974 0.03374814 -0.82910281 0.82090867 0.02254163
-9.04492474 17.25257492 -0.09314290 -0.79007638 0.85338461 -0.06221360
-6.66968155 15.46920681 -0.27197370 -0.58259833 0.76517177 -0.18166134
-6.61718655 15.71373367 0.28818762 -0.57801288 0.77726710 0.19249122
-10.87915802 17.81261635 -0.57114512 -0.95029712 0.88108659 -0.38148904
-10.12919140 16.06713867 0.10387702 -0.88478732 0.79474795 0.06938332
-8.06013584 14.35780525 -0.54547811 -0.70405483 0.71019721 -0.36434510
-7.63689327 14.84494686 -0.65907866 -0.66708452 0.73429322 -0.44022313
-9.82708549 16.93365479 0.03787671 -0.85839832 0.83760947 0.02529926
-9.00777054 16.92160606 -0.09385429 -0.78683096 0.83701354 -0.06268877
-8.72330666 18.03239250 -0.20445290 -0.76198298 0.89195764 -0.13656169
-6.39261389 14.57123375 -0.26453757 -0.55839640 0.72075427 -0.17669447
-10.95722103 17.68947983 -0.56981683 -0.95711595 0.87499577 -0.38060182
-10.17940426 15.92393112 0.10268077 -0.88917345 0.78766435 0.06858430
-8.05497456 14.14021873 -0.54072678 -0.70360398 0.69943446 -0.36117151
-7.60996485 14.56618786 -0.65096575 -0.66473228 0.72050464 -0.43480420
-9.85095501 16.73206520 0.03642273 -0.86048335 0.82763803 0.02432810
-9.22399712 17.06889343 -0.09332189 -0.80571842 0.84429896 -0.06233316
-8.78781128 17.87855721 -0.20408715 -0.76761746 0.88434833 -0.13631739
-6.58480787 14.75737762 -0.26651204 -0.57518458 0.72996169 -0.17801329
-10.97363758 17.46949577 -0.56612265 -0.95854992 0.86411440 -0.37813434
-8.11758995 14.04435444 -0.53943998 -0.70907348 0.69469261 -0.36031201
-7.53778362 14.20884323 -0.64004463 -0.65842724 0.70282888 -0.42750958
-9.76482010 16.35067749 0.03308398 -0.85295939 0.80877298 0.02209802
-9.39922333 17.13516998 -0.09299602 -0.82102448 0.84757727 -0.06211550
-8.21773529 16.46023369 -0.19901974 -0.71782118 0.81419212 -0.13293268
-7.59607315 17.13327408 0.33045676 -0.66351885 0.84748352 0.22072434
-11.04457188 17.33944893 -0.56462836 -0.96474606 0.85768175 -0.37713626
-8.24317455 14.05684090 -0.54127121 -0.72004330 0.69531024 -0.36153516
-7.64582443 14.19642544 -0.64129275 -0.66786462 0.70221466 -0.42834327
-10.04174900 16.57618713 0.03609963 -0.87714922 0.81992763 0.02411228
-9.36104488 16.81350899 -0.09368447 -0.81768954 0.83166659 -0.06257534
-8.52949905 16.81830406 -0.20054927 -0.74505383 0.83190376 -0.13395432
-6.80231524 14.74433231 -0.26713306 -0.59418392 0.72931641 -0.17842810
-7.66750050 17.00497246 0.32825840 -0.66975802 0.84113717 0.21925598
-11.15438366 17.27139282 -0.56466991 -0.97433811 0.85431546 -0.37716401
-9.05657959 15.22043705 -0.57631248 -0.79109442 0.75286657 -0.38494051
-7.95970011 14.56058216 -0.65595829 -0.69528174 0.72022736 -0.43813890
-10.14255524 16.50765800 0.03604578 -0.88595468 0.81653792 0.02407631
-9.68352509 17.13941002 -0.09267016 -0.84585828 0.84778702 -0.06189784
-6.86496782 14.69760799 -0.26700565 -0.59965664 0.72700524 -0.17834300
