21.34778976 5.30111885 1.78740561 0.89640099 0.83031082 0.67342663
22.19612122 5.26640224 -0.47639549 0.93202269 0.82487321 -0.17948775
21.89719009 5.48942232 0.27634600 0.91947049 0.85980469 0.10411669
21.27622986 5.38987350 1.78321922 0.89339614 0.84421241 0.67184937
21.01294518 5.08929348 -0.45870817 0.88234073 0.79713279 -0.17282383
21.97566986 5.61939430 0.27832732 0.92276585 0.88016212 0.10486317
21.11825562 5.13825893 2.51375318 0.88676274 0.80480218 0.94708681
21.53222656 5.27996159 1.04328763 0.90414554 0.82699698 0.39307120
21.43136024 5.62341595 0.26867759 0.89991015 0.88079202 0.10122752
21.08555412 5.27084637 2.51375318 0.88538963 0.82556927 0.94708681
21.67288589 5.45921087 1.05286539 0.91005188 0.85507268 0.39667973
21.39367485 5.75744009 0.26864091 0.89832771 0.90178418 0.10121370
21.11546135 5.41957235 2.52174902 0.88664544 0.84886414 0.95009935
22.19318962 5.97071028 -0.47891799 0.93189961 0.93518853 -0.18043813
21.47295189 5.30520105 1.68523622 0.90165657 0.83095026 0.63493305
22.19847298 5.21887302 -0.61124152 0.93212146 0.81742877 -0.23029262
21.91258049 5.47916842 0.14961480 0.92011672 0.85819864 0.05636918
21.34911919 5.38157415 1.67685533 0.89645678 0.84291250 0.63177544
21.02818298 5.04950476 -0.58679348 0.88298059 0.79090071 -0.22108153
22.02607155 5.61782837 0.15144737 0.92488223 0.87991685 0.05705962
21.26287842 5.20073605 2.40928173 0.89283550 0.81458795 0.90772593
21.73460770 5.28892231 0.92831677 0.91264361 0.82840049 0.34975454
21.38243866 5.53302193 1.68260694 0.89785588 0.86663365 0.63394243
21.01843834 6.04495573 -0.46241775 0.88257140 0.94681752 -0.17422147
21.32659531 5.58300591 0.14271723 0.89551103 0.87446266 0.05377044
21.12764168 5.30866861 2.39702559 0.88715690 0.83149338 0.90310830
21.63309860 5.40848255 0.92498368 0.90838116 0.84712714 0.34849876
21.36643982 5.73705006 0.14370987 0.89718407 0.89859045 0.05414443
21.13235283 5.45120001 2.40165067 0.88735473 0.85381794 0.90485084
23.47849083 6.10560131 -0.64145911 0.98586982 0.95631641 -0.24167745
22.18165016 5.91852808 -0.61443764 0.93141508 0.92701524 -0.23149680
21.46852875 5.31463957 1.56129682 0.90147084 0.83242857 0.58823740
22.25205803 6.08723307 -0.61676204 0.93437153 0.95343941 -0.23237254
22.14391708 5.53189039 0.06701008 0.92983061 0.86645645 0.02524686
21.44324493 5.41574860 1.56129682 0.90040916 0.84826523 0.58823740
23.00456047 5.51880789 -0.72350562 0.96596932 0.86440736 -0.27258947
21.30189514 5.42754030 0.05945300 0.89447385 0.85011214 0.02239963
21.66557503 5.28129625 0.82141066 0.90974492 0.82720608 0.30947638
20.58554459 5.87690020 -0.58226913 0.86439407 0.92049509 -0.21937692
22.13204765 5.78823757 0.06747679 0.92933226 0.90660793 0.02542270
21.17911530 5.24945927 2.31531715 0.88931829 0.82221943 0.87232363
21.03008080 6.14647675 -0.59268761 0.88306028 0.96271873 -0.22330220
21.37298584 5.73274422 0.06076337 0.89745897 0.89791608 0.02289333
21.16689682 5.38783979 2.31777596 0.88880521 0.84389389 0.87325007
21.29413223 5.85521603 0.06036847 0.89414787 0.91709876 0.02274455
22.23659706 5.38681793 -0.08534046 0.93372232 0.84373385 -0.03215304
21.51604462 5.28689432 1.42674685 0.90346605 0.82808286 0.53754407
20.98903465 4.91038942 -0.81085151 0.88133675 0.76911116 -0.30549809
22.16154671 5.51631927 -0.08543684 0.93057090 0.86401755 -0.03218936
21.43790054 5.41079044 1.42350578 0.90018475 0.84748864 0.53632295
23.14672279 5.56661940 -0.88112134 0.97193879 0.87189603 -0.33197308
21.15350151 5.40769482 -0.08774085 0.88824272 0.84700376 -0.03305743
21.72392082 5.26362658 0.68027836 0.91219485 0.82443845 0.25630307
22.13826752 5.76971292 -0.08534504 0.92959338 0.90370643 -0.03215478
21.33976746 5.25831795 2.18261147 0.89606410 0.82360697 0.82232517
21.59148407 5.37548208 0.67654711 0.90663379 0.84195834 0.25489730
21.19059181 5.36312294 2.17000771 0.88980019 0.84002250 0.81757659
21.62701035 5.52879572 0.67918092 0.90812552 0.86597174 0.25588959
21.24791336 5.82454443 -0.08728647 0.89220715 0.91229469 -0.03288623
21.22964478 5.51509666 2.17798996 0.89144003 0.86382604 0.82058400
23.81500053 6.32367373 -0.90714490 1.00000000 0.99047297 -0.34177777
22.18969917 5.32434130 -0.21372320 0.93175304 0.83394819 -0.08052279
21.54073334 5.28755283 1.30985308 0.90450275 0.82818604 0.49350294
22.24104881 6.05694628 -0.85753167 0.93390924 0.94869560 -0.32308540
21.17346573 5.22048092 -0.21035823 0.88908106 0.81768060 -0.07925500
21.46065331 5.41103935 1.30672610 0.90114015 0.84752762 0.49232483
22.58966064 6.30424213 -0.87007535 0.94854754 0.98742938 -0.32781139
21.79822731 5.26523113 0.57450104 0.91531503 0.82468981 0.21645020
21.69488716 5.38468981 0.57221484 0.91097569 0.84340054 0.21558884
20.90019035 6.22541952 -0.81871474 0.87760615 0.97508347 -0.30846065
20.95247459 6.38449907 -0.82171023 0.87980157 1.00000000 -0.30958924
22.20952225 5.29333639 -0.31963190 0.93258542 0.82909191 -0.12042517
21.15020370 5.11476707 2.65139675 0.88810426 0.80112267 0.99894571
21.57796288 5.27076435 1.18526149 0.90606600 0.82555646 0.44656155
21.06672859 5.12705374 -0.31047603 0.88459915 0.80304712 -0.11697559
21.14705658 5.21958733 2.65419507 0.88797212 0.81754065 1.00000000
21.53738403 5.36854029 1.18430996 0.90436208 0.84087104 0.44620305
21.01959610 5.32855654 2.64173007 0.88262004 0.83460838 0.99530369
21.45171547 5.25146818 1.91489184 0.90076488 0.82253408 0.72145861
21.81930161 5.40371943 0.42383862 0.91619992 0.84638113 0.15968631
22.27596092 5.86689854 -0.32125607 0.93537521 0.91892856 -0.12103710
21.30432320 5.35759926 1.90396810 0.89457577 0.83915734 0.71734291
21.72289848 5.52499199 0.42223978 0.91215193 0.86537594 0.15908393
22.16720390 5.98751354 -0.32066691 0.93080848 0.93782043 -0.12081513
21.25674057 5.48787975 1.90267205 0.89257777 0.85956311 0.71685463
21.50199509 5.61306000 0.41744328 0.90287614 0.87917000 0.15727679
21.18061829 5.86496973 -0.31283268 0.88938141 0.91862643 -0.11786348
21.08728218 5.94632196 -0.31229129 0.88546216 0.93136859 -0.11765951
