16.93210030 -17.83789253 0.31340387 0.69168454 -0.90025413 0.06807994
17.48810387 -18.66004944 -0.51737905 0.71439755 -0.94174731 -0.11238895
16.09655571 -16.74729729 0.28834394 0.65755212 -0.84521329 0.06263623
15.89654350 -16.75252151 -0.48057988 0.64938152 -0.84547693 -0.10439517
16.18471336 -16.62864876 0.28790367 0.66115338 -0.83922523 0.06254059
17.45215225 -18.15931702 -0.51162171 0.71292889 -0.91647601 -0.11113830
16.92109680 -17.16695786 0.30441460 0.69123501 -0.86639297 0.06612722
15.91533279 -16.40748596 -0.47707805 0.65014905 -0.82806349 -0.10363447
15.50658607 -17.25864410 -0.61950153 0.63345158 -0.87102026 -0.13457276
16.26634598 -16.34912872 0.28529859 0.66448814 -0.82511824 0.06197470
15.62278557 -17.16975403 -0.61975062 0.63819838 -0.86653411 -0.13462687
16.31081390 -16.39743423 -0.48108441 0.66630465 -0.82755619 -0.10450476
15.65184307 -16.98589706 -0.61734319 0.63938540 -0.85725510 -0.13410391
16.32687187 -16.20875931 -0.47927412 0.66696066 -0.81803399 -0.10411151
16.13305855 -17.28958130 -0.62875777 0.65904325 -0.87258160 -0.13658348
16.60325050 -16.07019615 0.28610581 0.67825085 -0.81104094 0.06215005
16.31420135 -16.99646950 0.16198462 0.66644305 -0.85778868 0.03518751
15.65961361 -16.57114792 -0.61115849 0.63970280 -0.83632326 -0.13276042
17.88735771 -17.09472084 0.31611902 0.73070723 -0.86274731 0.06866974
16.23405457 -16.70130730 0.15857401 0.66316903 -0.84289223 0.03444663
15.95955181 -16.67774582 -0.61705261 0.65195543 -0.84170312 -0.13404079
17.88525581 -16.87914848 0.31336719 0.73062140 -0.85186762 0.06807197
16.40595055 -16.66744614 0.15979572 0.67019105 -0.84118330 0.03471202
17.11548233 -19.23408127 -0.77522612 0.69917578 -0.97071791 -0.16840042
16.04629517 -16.61099052 -0.61730164 0.65549892 -0.83833408 -0.13409489
18.04646301 -16.87108612 0.31542188 0.73720676 -0.85146075 0.06851830
16.27869415 -16.38265419 0.15607968 0.66499257 -0.82681024 0.03390480
16.97591019 -18.89756775 -0.76671326 0.69347417 -0.95373452 -0.16655120
16.50658226 -16.87464905 -0.62788612 0.67430192 -0.85164058 -0.13639413
17.02430534 -15.71793365 0.28727990 0.69545114 -0.79326272 0.06240509
15.66149235 -17.21806908 -0.71405238 0.63977957 -0.86897248 -0.15511180
16.88221931 -15.78802681 -0.48087665 0.68964684 -0.79680020 -0.10445963
16.15112686 -16.30424881 -0.61427158 0.65978140 -0.82285327 -0.13343668
15.69886017 -17.04291725 -0.71147871 0.64130604 -0.86013281 -0.15455274
15.96948719 -14.74910259 -0.46045908 0.65236133 -0.74436712 -0.10002437
16.11883736 -16.06821632 -0.61032838 0.65846235 -0.81094098 -0.13258010
16.64341736 -16.13003159 0.15712322 0.67989171 -0.81406075 0.03413148
15.69915581 -16.82999802 -0.70761824 0.64131814 -0.84938711 -0.15371414
16.39840698 -17.08926773 0.07472873 0.66988289 -0.86247206 0.01623313
16.11803818 -14.69962692 -0.46158680 0.65842968 -0.74187016 -0.10026934
16.92921448 -16.20229149 0.16038112 0.69156665 -0.81770760 0.03483919
15.58745956 -16.50157166 -0.69979829 0.63675529 -0.83281183 -0.15201543
17.36914062 -19.81428528 -0.96050256 0.70953780 -1.00000000 -0.20864756
16.21949196 -16.69211197 0.07104891 0.66257411 -0.84242815 0.01543378
16.06879044 -14.47106361 -0.45876750 0.65641791 -0.73033488 -0.09965692
17.46345139 -16.50532150 0.16796590 0.71339047 -0.83300108 0.03648681
15.74893475 -16.46393776 -0.70187700 0.64335161 -0.83091253 -0.15246698
17.41373444 -19.61500549 -0.95675814 0.71135950 -0.98994261 -0.20783417
16.15136719 -16.41468239 0.06884102 0.65979117 -0.82842666 0.01495416
16.52881813 -14.69770336 -0.46609765 0.67521024 -0.74177307 -0.10124923
16.75464630 -16.08449173 -0.61999965 0.68443543 -0.81176239 -0.13468097
17.48062134 -16.31469154 0.16646422 0.71409190 -0.82338029 0.03616061
15.98434639 -16.50097084 -0.70657891 0.65296829 -0.83278155 -0.15348837
15.37734985 -17.09978104 -0.85584664 0.62817222 -0.86300266 -0.18591341
16.21038437 -16.26899910 0.06828456 0.66220206 -0.82107425 0.01483328
16.15184021 -14.22748661 -0.45728368 0.65981054 -0.71804190 -0.09933458
17.18640518 -16.34464836 -0.63021052 0.70207298 -0.82489216 -0.13689905
17.05708504 -14.64383888 0.27462152 0.69679022 -0.73905462 0.05965534
16.84714699 -15.57445431 0.15414532 0.68821412 -0.78602153 0.03348460
16.00736046 -16.36976051 -0.70464867 0.65390843 -0.82615954 -0.15306906
15.44299316 -17.01083374 -0.85516018 0.63085377 -0.85851359 -0.18576430
16.44301605 -16.34739494 0.07025909 0.67170519 -0.82503074 0.01526221
16.59428596 -14.43248463 -0.46422803 0.67788464 -0.72838783 -0.10084309
17.36012650 -16.30347443 -0.63224441 0.70916963 -0.82281417 -0.13734087
16.13805962 -16.29725075 -0.70563853 0.65924758 -0.82250005 -0.15328409
15.42927456 -16.78238678 -0.84960598 0.63029337 -0.84698421 -0.18455778
16.54191589 -14.20559978 -0.46143842 0.67574531 -0.71693730 -0.10023711
15.93717384 -14.77735901 -0.58903491 0.65104127 -0.74579316 -0.12795457
17.02519989 -15.34677887 0.15386534 0.69548768 -0.77453101 0.03342378
16.12961578 -16.08550644 -0.70177805 0.65890265 -0.81181359 -0.15244548
15.72629833 -16.89157677 -0.85840535 0.64242691 -0.85249490 -0.18646924
16.63851738 -16.13113594 0.07015139 0.67969149 -0.81411648 0.01523881
16.80181313 -14.24607468 -0.46476221 0.68636221 -0.71898001 -0.10095913
16.05770493 -14.70261383 -0.58982354 0.65596503 -0.74202091 -0.12812589
16.76236916 -13.85151577 0.26111925 0.68475091 -0.69906712 0.05672228
18.82437515 -16.75811577 0.18290640 0.76898485 -0.84575927 0.03973230
15.92117310 -16.88705444 -0.86246175 0.65038764 -0.85226667 -0.18735041
16.82484627 -16.10779953 0.07121046 0.68730313 -0.81293869 0.01546887
16.80198479 -14.06585407 -0.46304095 0.68636924 -0.70988452 -0.10058522
16.00749779 -14.47255993 -0.58583879 0.65391403 -0.73041040 -0.12726030
16.88318443 -13.77369976 0.26192644 0.68968630 -0.69513988 0.05689763
18.93229866 -16.64215279 0.18295731 0.77339357 -0.83990681 0.03974336
16.42946053 -15.97764397 -0.70519310 0.67115146 -0.80636996 -0.15318733
15.85456753 -16.60580063 -0.85466093 0.64766681 -0.83807212 -0.18565585
16.94608498 -16.02098656 0.07146177 0.69225580 -0.80855739 0.01552346
16.01210213 -16.30106544 -0.08540930 0.65410215 -0.82269257 -0.01855325
17.12064171 -17.81890678 0.76660866 0.69938654 -0.89929599 0.16652848
16.72960091 -13.82765770 -0.45995459 0.68341231 -0.69786304 -0.09991478
16.18008423 -14.44501495 -0.58812177 0.66096431 -0.72902024 -0.12775622
19.57992172 -15.76588535 0.32338381 0.79984933 -0.79568279 0.07024785
16.98091507 -14.73580742 0.14829127 0.69367862 -0.74369615 0.03221294
15.98635578 -16.53462410 -0.85590905 0.65305042 -0.83447999 -0.18592697
16.24244308 -16.32928658 -0.08499163 0.66351169 -0.82411689 -0.01846252
17.13490295 -17.66623878 0.76295060 0.69996911 -0.89159101 0.16573384
16.45388794 -13.47029972 -0.45342571 0.67214930 -0.67982769 -0.09849653
16.24498177 -14.36595631 -0.58803874 0.66361541 -0.72503024 -0.12773818
17.14468384 -13.67566109 0.26453152 0.70036864 -0.69019198 0.05746352
16.52440643 -15.72030640 -0.70247096 0.67503005 -0.79338247 -0.15259600
16.13663483 -16.53356171 -0.85915422 0.65918934 -0.83442634 -0.18663192
16.93753242 -15.66411591 0.06921797 0.69190645 -0.79054660 0.01503605
17.21544838 -17.14671898 -0.08208638 0.70325941 -0.86537158 -0.01783142
16.80617332 -17.11013222 0.73997796 0.68654037 -0.86352509 0.16074355
16.42457390 -13.27499676 -0.45125929 0.67095184 -0.66997099 -0.09802593
16.40415192 -14.32416630 -0.58994806 0.67011756 -0.72292119 -0.12815294
16.09137917 -16.28100586 -0.85253912 0.65734065 -0.82168019 -0.18519494
16.96911049 -15.49675560 0.06841021 0.69319642 -0.78210014 0.01486058
16.48888588 -13.15658760 -0.45090318 0.67357898 -0.66399509 -0.09794857
16.68751717 -14.38812542 -0.59526110 0.68169320 -0.72614908 -0.12930708
21.38510132 -16.61665344 0.35904744 0.87359178 -0.83861989 0.07799497
16.37703133 -16.36342430 -0.86065197 0.66900969 -0.82583976 -0.18695727
17.01857758 -15.34701347 0.06783580 0.69521713 -0.77454287 0.01473580
16.61838913 -13.08980274 -0.45179349 0.67886925 -0.66062450 -0.09814197
16.87191391 -14.36344147 -0.59783453 0.68922585 -0.72490335 -0.12986609
16.84914017 -13.93859196 0.14045197 0.68829554 -0.70346177 0.03051003
16.87531853 -15.45867443 -0.70440120 0.68936497 -0.78017825 -0.15301530
16.30322647 -16.08594704 -0.85291356 0.66599470 -0.81183583 -0.18527627
17.07281685 -15.20257854 0.06733319 0.69743288 -0.76725346 0.01462662
17.91773033 -18.54870415 -0.22359864 0.73194796 -0.93612784 -0.04857177
17.01450729 -17.95200157 0.64784974 0.69505090 -0.90601307 0.14073077
16.63237190 -12.93241119 -0.45051739 0.67944050 -0.65268117 -0.09786476
16.89759064 -14.20305347 -0.59609121 0.69027478 -0.71680880 -0.12948740
17.05063629 -12.91372490 0.25458828 0.69652677 -0.65173811 0.05530357
16.89304924 -13.79699039 0.13973930 0.69008929 -0.69631535 0.03035522
15.99567223 -14.47066212 -0.67183459 0.65343100 -0.73031461 -0.14594094
16.31385231 -15.89522648 -0.84898192 0.66642880 -0.80221045 -0.18442221
17.41806793 -17.80717468 -0.22067259 0.71153653 -0.89870387 -0.04793615
22.51374626 -16.89932251 2.32623315 0.91969746 -0.85288578 0.50532180
17.13943672 -17.85771179 0.64842129 0.70015430 -0.90125442 0.14085492
16.15447617 -12.39960575 -0.44007117 0.65991819 -0.62579119 -0.09559555
16.74817657 -13.89845657 -0.58965755 0.68417114 -0.70143616 -0.12808983
16.92962265 -13.65036201 0.13892484 0.69158334 -0.68891519 0.03017829
16.02658463 -14.31664944 -0.66985482 0.65469378 -0.72254181 -0.14551088
16.62641525 -15.99773026 -0.85821813 0.67919713 -0.80738366 -0.18642858
16.92244911 -14.69214344 0.06329437 0.69129026 -0.74149245 0.01374928
18.27535248 -17.09387207 -0.08042032 0.74655700 -0.86270446 -0.01746950
17.82525635 -18.05195427 -0.22220212 0.72817039 -0.91105753 -0.04826841
21.80868340 -16.68733788 1.32519019 0.89089531 -0.84218723 0.28786775
22.15635681 -16.46888542 2.27861261 0.90509796 -0.83116221 0.49497730
16.66931915 -17.20580482 0.62314612 0.68094981 -0.86835355 0.13536447
16.36568260 -12.43936253 -0.44292015 0.66854608 -0.62779766 -0.09621444
16.65141106 -13.68591309 -0.58529919 0.68021822 -0.69070941 -0.12714307
16.21525764 -14.34817410 -0.67386383 0.66240114 -0.72413284 -0.14638175
17.29651642 -14.87406349 0.06690238 0.70657110 -0.75067371 0.01453304
17.51657104 -17.51848793 -0.22022037 0.71556044 -0.88413423 -0.04783792
21.73131752 -16.41289902 1.31305850 0.88773489 -0.82833666 0.28523239
22.27707672 -16.34229851 2.28053141 0.91002941 -0.82477355 0.49539411
16.87237358 -17.19768143 0.62746447 0.68924463 -0.86794358 0.13630253
16.76368713 -12.57599163 -0.44885549 0.68480474 -0.63469315 -0.09750375
16.55709839 -13.43469906 -0.58048433 0.67636549 -0.67803097 -0.12609716
17.12734032 -13.50181484 0.13971385 0.69966018 -0.68141824 0.03034969
17.70137215 -16.19464302 -0.08278859 0.72310966 -0.81732160 -0.01798396
16.95612526 -17.06724167 0.62638491 0.69266593 -0.86136043 0.13606802
16.63489723 -12.31710720 -0.44502720 0.67954361 -0.62162763 -0.09667214
16.41194916 -13.14641666 -0.57438272 0.67043608 -0.66348177 -0.12477171
19.49599457 -14.05236149 0.30309370 0.79642087 -0.70920354 0.06584028
21.37228394 -16.63775253 0.20685703 0.87306815 -0.83968472 0.04493503
16.62002945 -14.33766556 -0.68123829 0.67893630 -0.72360247 -0.14798369
16.81987381 -15.63315105 -0.85478574 0.68709999 -0.78898382 -0.18568297
18.48789215 -16.70309258 -0.08066817 0.75523937 -0.84298235 -0.01752334
22.33105469 -16.49006081 3.24912453 0.91223443 -0.83223093 0.70579916
18.04627228 -17.59975624 -0.22166346 0.73719901 -0.88823575 -0.04815140
22.54104996 -16.58308601 1.35307181 0.92081285 -0.83692575 0.29392439
16.91877747 -12.36316681 -0.44882581 0.69114029 -0.62395221 -0.09749731
16.12278938 -12.74873638 -0.56454539 0.65862375 -0.64341134 -0.12263478
21.95215225 -16.45781708 4.60346889 0.89675605 -0.83060360 1.00000000
19.63933945 -13.96894836 0.30434120 0.80227655 -0.70499378 0.06611127
16.94382286 -13.01474857 0.13406345 0.69216341 -0.65683663 0.02912227
16.82860184 -14.33397102 -0.68509877 0.68745655 -0.72341603 -0.14882229
17.23415184 -15.81805611 -0.86820316 0.70402348 -0.79831576 -0.18859759
18.98916435 -15.71475029 0.08338078 0.77571660 -0.79310203 0.01811260
22.44545937 -16.35760307 3.25082064 0.91690791 -0.82554597 0.70616764
17.72399712 -17.07016182 -0.21966842 0.72403389 -0.86150783 -0.04771802
17.28972435 -17.95960617 -0.33633533 0.70629364 -0.90639687 -0.07306128
22.24864006 -16.15394020 1.32699931 0.90886778 -0.81526738 0.28826073
16.98476028 -12.24844265 -0.44861808 0.69383568 -0.61816221 -0.09745218
16.22147369 -12.66196537 -0.56504345 0.66265506 -0.63903213 -0.12274297
22.02977562 -16.30077744 4.59813547 0.89992702 -0.82267803 0.99884140
19.91506004 -13.97722530 0.30856067 0.81353986 -0.70541155 0.06702786
16.73703003 -12.68906975 0.12945658 0.68371582 -0.64040005 0.02812153
16.85707664 -14.17653275 -0.68311906 0.68861979 -0.71547031 -0.14839225
17.19999695 -15.58852386 -0.86258656 0.70262825 -0.78673160 -0.18737751
19.16036606 -15.65454006 0.08422445 0.78271025 -0.79006332 0.01829587
18.89128113 -16.64147568 -0.08007151 0.77171803 -0.83987260 -0.01739373
22.70905113 -16.33204842 3.27505016 0.92767578 -0.82425624 0.71143091
17.97883606 -17.09892845 -0.22034673 0.73444420 -0.86295962 -0.04786537
17.42314911 -17.87211609 -0.33657420 0.71174413 -0.90198135 -0.07311317
22.54388237 -16.97789764 2.18841720 0.92092854 -0.85685140 0.47538438
16.89489937 -17.62660980 0.47225326 0.69016486 -0.88959098 0.10258639
17.51791191 -12.46569633 -0.45692754 0.71561521 -0.62912673 -0.09925722
16.14876938 -12.44248295 -0.56105870 0.65968508 -0.62795520 -0.12187737
17.58611870 -12.18146038 0.25466165 0.71840149 -0.61478174 0.05531951
16.27503967 -14.56340981 -0.81971323 0.66484326 -0.73499548 -0.17806426
19.27236748 -15.54513264 0.08438600 0.78728557 -0.78454167 0.01833096
18.33498192 -15.94701290 -0.08208179 0.74899292 -0.80482405 -0.01783042
17.16326523 -16.17130661 -0.21625690 0.70112771 -0.81614381 -0.04697694
16.16580772 -16.42456627 -0.32133567 0.66038108 -0.82892549 -0.06980294
16.75464630 -16.08895111 0.60003018 0.68443543 -0.81198746 0.13034305
16.87498283 -17.44038391 0.46855596 0.68935126 -0.88019246 0.10178324
17.81202888 -12.54863739 -0.46120101 0.72763002 -0.63331264 -0.10018554
16.33112335 -12.46097755 -0.56429631 0.66713434 -0.62888855 -0.12258067
22.24091530 -15.24470711 0.35688266 0.90855217 -0.76937962 0.07752472
16.56685066 -13.62498569 -0.66886497 0.67676389 -0.68763447 -0.14529586
16.23287773 -14.38832760 -0.81509513 0.66312093 -0.72615927 -0.17706107
16.81711006 -13.43780231 0.05536032 0.68698710 -0.67818761 0.01202578
17.02751923 -14.66745186 -0.08627216 0.69558245 -0.74024630 -0.01874068
17.37004280 -16.16114426 -0.21673571 0.70957470 -0.81563097 -0.04708095
22.19047928 -15.53372478 1.30528998 0.90649188 -0.78396595 0.28354487
21.70985794 -16.46837044 1.16096723 0.88685822 -0.83113623 0.25219399
22.23181725 -16.36236191 2.13747454 0.90818053 -0.82578611 0.46431825
16.97584152 -17.32543564 0.46825618 0.69347137 -0.87439114 0.10171811
17.68842125 -12.29626560 -0.45755076 0.72258061 -0.62057579 -0.09939261
16.20001221 -12.20032978 -0.55885881 0.66177839 -0.61573404 -0.12139950
16.38650513 -13.30536842 -0.66040164 0.66939670 -0.67150384 -0.14345740
16.98429298 -14.86595249 -0.84255403 0.69381660 -0.75026441 -0.18302590
17.83382988 -16.38424110 -0.21837164 0.72852063 -0.82689035 -0.04743632
17.29401398 -17.43008232 0.47570074 0.70646888 -0.87967253 0.10333528
17.74057770 -12.16794014 -0.45710561 0.72471124 -0.61409938 -0.09929591
18.01198769 -12.02100182 0.25946817 0.73579842 -0.60668361 0.05636362
16.26994133 -13.04227257 -0.65406650 0.66463500 -0.65822572 -0.14208123
16.62851334 -14.37032318 -0.82401931 0.67928284 -0.72525066 -0.17899965
16.93095207 -13.18369102 0.05475001 0.69163764 -0.66536295 0.01189321
16.66871071 -13.99653912 -0.08789690 0.68092495 -0.70638627 -0.01909362
22.28880310 -16.43085480 3.08452535 0.91050845 -0.82924289 0.67004371
16.11752319 -14.62454796 -0.21021192 0.65840864 -0.73808104 -0.04566381
16.49393654 -16.13794708 -0.32157451 0.67378533 -0.81446022 -0.06985483
19.36190224 -14.30462646 1.00954926 0.79094309 -0.72193503 0.21930185
16.51963997 -16.44023895 0.44452351 0.67483532 -0.82971650 0.09656273
17.53825760 -11.86821365 -0.45211992 0.71644634 -0.59897256 -0.09821288
17.19946671 -12.61877251 -0.58069187 0.70260656 -0.63685226 -0.12614223
23.87633705 -15.71107674 0.38656566 0.97535998 -0.79291666 0.08397269
23.13123131 -16.48217583 0.22363009 0.94492203 -0.83183295 0.04857860
16.20878220 -12.82702255 -0.64956260 0.66213661 -0.64736235 -0.14110285
17.30347252 -14.76566219 -0.84804583 0.70685524 -0.74520284 -0.18421887
22.50077820 -16.37004089 3.10025024 0.91916770 -0.82617366 0.67345959
16.62204361 -14.89229202 -0.21205401 0.67901856 -0.75159371 -0.04606396
16.63524628 -16.07294083 -0.32202038 0.67955786 -0.81117946 -0.06995168
17.47933960 -11.66908455 -0.44974577 0.71403950 -0.58892280 -0.09769715
17.21691132 -12.46583557 -0.57911456 0.70331919 -0.62913376 -0.12579960
20.49418831 -13.30531216 0.31046858 0.83719754 -0.67150098 0.06744231
17.29236031 -12.15223408 0.13113643 0.70640129 -0.61330670 0.02848644
16.33793831 -12.76303577 -0.65109688 0.66741270 -0.64413303 -0.14143614
16.87346649 -14.21567726 -0.82670277 0.68928927 -0.71744585 -0.17958257
16.65044022 -12.63306522 0.04974188 0.68017858 -0.63757360 0.01080530
16.77677727 -13.73144150 -0.08809426 0.68533951 -0.69300717 -0.01913649
16.25205040 -14.37849712 -0.20999911 0.66390413 -0.72566319 -0.04561758
16.70699120 -15.94046497 -0.32170191 0.68248868 -0.80449355 -0.06988250
23.39811897 -15.51695347 1.35796714 0.95582449 -0.78311950 0.29498780
22.32266808 -16.06595612 1.17306161 0.91189182 -0.81082696 0.25482124
22.46738243 -17.40818214 1.08480418 0.91780347 -0.87856728 0.23564929
22.65789604 -17.03312874 2.04001331 0.92558604 -0.85963881 0.44314697
16.66901588 -16.17700195 0.44257492 0.68093741 -0.81643128 0.09613944
17.65258598 -11.62492466 -0.45152640 0.72111672 -0.58669412 -0.09808395
17.27213478 -12.34111691 -0.57853347 0.70557511 -0.62283939 -0.12567337
17.36508751 -12.04106140 0.13108553 0.70937228 -0.60769600 0.02847538
16.17220879 -12.47112656 -0.64342541 0.66064256 -0.62940079 -0.13976969
17.23273087 -14.33461857 -0.83768636 0.70396543 -0.72344869 -0.18196851
16.92490005 -13.67609787 -0.08791067 0.69139040 -0.69021404 -0.01909661
22.90759850 -16.28410339 3.13285613 0.93578655 -0.82183653 0.68054247
21.58956146 -16.56689262 1.03279603 0.88194406 -0.83610851 0.22435169
22.06572533 -16.42654037 1.97565317 0.90139562 -0.82902515 0.42916617
16.70041847 -16.05527687 0.44102606 0.68222022 -0.81028795 0.09580299
17.71890450 -11.54924297 -0.45173413 0.72382587 -0.58287460 -0.09812907
17.45244598 -12.34631348 -0.58164656 0.71294087 -0.62310165 -0.12634963
21.46563721 -13.60189056 0.32841048 0.87688172 -0.68646890 0.07133979
16.24987984 -12.40932178 -0.64401931 0.66381550 -0.62628156 -0.13989870
16.65566444 -13.72133827 -0.81160039 0.68039197 -0.69249725 -0.17630191
17.84131241 -13.22845936 0.06149933 0.72882628 -0.66762233 0.01335935
16.89241791 -13.51862049 -0.08819523 0.69006348 -0.68226635 -0.01915843
17.47728539 -16.31307983 -0.32819858 0.71395558 -0.82329893 -0.07129376
22.22877121 -16.41876411 3.89639831 0.90805608 -0.82863265 0.84640485
23.27088547 -15.86449242 2.18365145 0.95062697 -0.80065936 0.47434911
21.70757103 -16.44176292 1.03356969 0.88676482 -0.82979339 0.22451974
16.84732819 -15.99411964 0.44262490 0.68822151 -0.80720145 0.09615029
17.78438759 -11.43336487 -0.45161542 0.72650087 -0.57702637 -0.09810328
17.78692436 -12.41634846 -0.58816326 0.72660452 -0.62663621 -0.12776522
22.35314369 -15.14541054 0.20578802 0.91313678 -0.76436824 0.04470281
16.21248627 -12.22044086 -0.64045584 0.66228795 -0.61674899 -0.13912462
21.93915367 -16.32069016 4.39147091 0.89622509 -0.82368302 0.95394820
16.53389549 -13.44720173 -0.80323792 0.67541766 -0.67866194 -0.17448536
16.26663971 -12.84991169 -0.09027435 0.66450012 -0.64851755 -0.01961007
15.94838428 -14.69703865 -0.31052381 0.65149927 -0.74173951 -0.06745431
22.37469482 -16.31021690 3.90420151 0.91401714 -0.82315445 0.84809989
19.24162483 -12.19815540 -0.47595033 0.78602970 -0.61562431 -0.10338949
17.98966026 -12.39066315 -0.59131783 0.73488635 -0.62533993 -0.12845048
22.38139153 -14.96016026 0.20476992 0.91429073 -0.75501889 0.04448166
16.23436737 -12.07781315 -0.63877302 0.66318178 -0.60955077 -0.13875906
22.16228104 -16.27123070 4.41575480 0.90533996 -0.82118684 0.95922333
16.21153641 -13.01600647 -0.78694975 0.66224915 -0.65690011 -0.17094712
18.80237770 -14.66599274 -0.08312364 0.76808625 -0.74017268 -0.01805674
16.76682281 -14.14361191 -0.21078384 0.68493283 -0.71380883 -0.04578805
15.98720837 -14.54803562 -0.30995056 0.65308523 -0.73421955 -0.06732978
22.42342186 -16.62733650 3.00086904 0.91600770 -0.83915901 0.65187126
22.65249062 -16.71284676 1.07311308 0.92536527 -0.84347463 0.23310967
19.42138100 -12.14159012 -0.47776061 0.79337287 -0.61276954 -0.10378274
23.65362740 -16.08123589 -0.73161381 0.96626216 -0.81159806 -0.15892664
18.47331429 -12.17635536 0.14373532 0.75464386 -0.61452407 0.03122326
17.07601357 -12.53688145 -0.66228235 0.69756347 -0.63271934 -0.14386593
16.08793068 -12.75102615 -0.77877450 0.65719980 -0.64352691 -0.16917123
17.27261162 -12.31024837 0.05252418 0.70559460 -0.62128145 0.01140970
16.54718399 -12.73732281 -0.08992554 0.67596048 -0.64283532 -0.01953430
16.58774948 -13.81552601 -0.20962672 0.67761761 -0.69725078 -0.04553669
16.58960533 -14.90760612 -0.31542817 0.67769343 -0.75236660 -0.06851967
22.33809471 -16.34775543 2.97449303 0.91252202 -0.82504898 0.64614165
19.47300529 -14.18258953 0.89843434 0.79548174 -0.71577597 0.19516464
19.81919861 -12.21737480 -0.48336950 0.80962390 -0.61659425 -0.10500114
18.36469841 -12.31192017 -0.59683836 0.75020683 -0.62136585 -0.12964970
21.68396759 -12.98838234 0.32591549 0.88580060 -0.65550596 0.07079780
17.75067711 -12.86047268 -0.68049592 0.72512376 -0.64905053 -0.14782242
16.29201126 -12.74712849 -0.78370464 0.66553658 -0.64333022 -0.17024219
17.35452843 -12.20492554 0.05257802 0.70894092 -0.61596596 0.01142139
18.22136497 -13.84703732 -0.08532669 0.74435163 -0.69884109 -0.01853530
16.37430573 -13.46488094 -0.20833659 0.66889834 -0.67955422 -0.04525644
16.55140686 -14.68614769 -0.31402692 0.67613304 -0.74118990 -0.06821528
23.42016220 -15.60400963 1.20353580 0.95672500 -0.78751314 0.26144105
22.42547035 -17.43955612 0.90195704 0.91609138 -0.88015068 0.19592987
22.62980461 -17.08770752 1.86470675 0.92443854 -0.86239332 0.40506557
19.46299362 -11.83020210 -0.47586128 0.79507273 -0.59705418 -0.10337015
18.33168411 -12.12338924 -0.59409887 0.74885821 -0.61185098 -0.12905461
17.64396667 -12.61513424 -0.67480415 0.72076458 -0.63666862 -0.14658602
16.70060921 -12.89899254 -0.79668522 0.68222797 -0.65099460 -0.17306194
17.23357201 -11.95901299 0.05042399 0.70399976 -0.60355508 0.01095348
17.95625687 -13.46794891 -0.08633641 0.73352182 -0.67970902 -0.01875464
15.87266541 -12.92838001 -0.20591594 0.64840609 -0.65247774 -0.04473060
16.34725380 -14.36744308 -0.31112888 0.66779327 -0.72510529 -0.06758574
22.35795212 -15.90701580 1.04250991 0.91333318 -0.80280542 0.22646181
21.44862938 -16.51708031 0.85301214 0.87618691 -0.83359456 0.18529768
23.29175186 -16.06441116 2.03602910 0.95147938 -0.81074893 0.44228148
21.97709656 -16.43198967 1.80002725 0.89777505 -0.82930017 0.39101541
19.50995255 -11.73320866 -0.47571293 0.79699105 -0.59215909 -0.10333793
17.71479607 -11.59490967 -0.57737124 0.72365803 -0.58517933 -0.12542091
17.69505310 -12.52608109 -0.67455673 0.72285151 -0.63217425 -0.14653227
16.35502625 -12.50885296 -0.78070909 0.66811079 -0.63130480 -0.16959147
17.84727287 -12.25988960 0.05649120 0.72906977 -0.61873996 0.01227144
18.03717232 -13.39631653 -0.08628593 0.73682725 -0.67609388 -0.01874368
16.18599892 -13.01490307 -0.20690681 0.66120589 -0.65684444 -0.04494585
22.89341927 -16.15395355 3.01249242 0.93520731 -0.81526804 0.65439618
22.25450706 -16.50882530 3.76701355 0.90910745 -0.83317792 0.81829888
24.47241783 -15.92026806 1.25372279 0.99971014 -0.80347425 0.27234307
23.56541824 -16.03541946 2.05211902 0.96265876 -0.80928576 0.44577667
22.12964249 -16.33033943 1.80439568 0.90400666 -0.82416999 0.39196435
19.51960754 -11.57271576 -0.47461486 0.79738545 -0.58405918 -0.10309940
17.91321182 -11.56483650 -0.58048433 0.73176342 -0.58366156 -0.12609716
21.34893990 -13.36443520 0.18270279 0.87211454 -0.67448485 0.03968807
18.38027763 -12.83770370 -0.69286925 0.75084329 -0.64790142 -0.15051025
16.40619659 -12.38534260 -0.77964818 0.67020112 -0.62507141 -0.16936103
17.71190643 -12.00409412 0.05419356 0.72354001 -0.60583031 0.01177233
16.51867104 -12.10598850 -0.09084806 0.67479575 -0.61097276 -0.01973470
16.15771675 -12.82601357 -0.20644130 0.66005057 -0.64731145 -0.04484472
16.53257370 -14.16609955 -0.31119257 0.67536366 -0.71494377 -0.06759958
22.32585335 -16.34525108 3.76143003 0.91202193 -0.82492256 0.81708598
22.23019981 -16.18979836 1.80425465 0.90811443 -0.81707710 0.39193371
16.82742310 -13.61807823 0.54979748 0.68740839 -0.68728584 0.11943112
21.63503265 -18.86771011 0.57947499 0.88380158 -0.95222765 0.12587790
19.65585136 -11.48711872 -0.47571293 0.80295110 -0.57973921 -0.10333793
19.34415436 -12.31897259 -0.61393952 0.79021811 -0.62172174 -0.13336454
21.01651764 -11.92600536 0.30551532 0.85853493 -0.60188925 0.06636633
23.76337814 -16.36925888 -0.85218823 0.97074556 -0.82613420 -0.18511871
16.56698608 -12.34420681 -0.78289336 0.67676944 -0.62299532 -0.17006595
18.48070145 -12.35544586 0.06167884 0.75494564 -0.62356251 0.01339834
16.63975143 -12.03482342 -0.09071955 0.67974192 -0.60738117 -0.01970678
16.44752121 -12.88809967 -0.20732577 0.67188925 -0.65044487 -0.04503686
16.62278175 -14.06323624 -0.31120852 0.67904872 -0.70975238 -0.06760304
22.52275658 -16.76292610 2.82666349 0.92006552 -0.84600204 0.61402899
22.07117271 -15.08521175 1.01216471 0.90161812 -0.76133013 0.21987000
16.74854660 -13.38122177 0.54312938 0.68418628 -0.67533207 0.11798263
19.85073471 -11.43415070 -0.47781995 0.81091213 -0.57706600 -0.10379563
19.34332657 -12.14819908 -0.61203015 0.79018426 -0.61310309 -0.13294977
16.83894157 -12.38336182 -0.79044455 0.68787897 -0.62497139 -0.17170629
18.57634354 -12.25117970 0.06187629 0.75885266 -0.61830038 0.01344123
17.43731117 -12.44662380 -0.08868174 0.71232265 -0.62816417 -0.01926411
16.41418648 -12.69651127 -0.20684695 0.67052752 -0.64077562 -0.04493285
16.58811760 -13.85583210 -0.30993465 0.67763263 -0.69928497 -0.06732632
22.34886932 -16.41600418 2.79011250 0.91296214 -0.82849336 0.60608912
22.72461700 -16.60795593 0.89237291 0.92831165 -0.83818090 0.19384792
22.59812355 -17.28185081 1.71909046 0.92314434 -0.87219149 0.37343371
19.86128616 -11.27470112 -0.47678128 0.81134319 -0.56901884 -0.10357000
19.31223488 -11.96000099 -0.60941517 0.78891414 -0.60360497 -0.13238172
17.66333199 -12.82051086 -0.81927639 0.72155571 -0.64703375 -0.17796935
22.14887047 -16.50229454 4.18421125 0.90479213 -0.83284831 0.90892571
17.31908798 -12.19842815 -0.08923250 0.70749313 -0.61563808 -0.01938375
16.50159073 -12.59918880 -0.20688021 0.67409801 -0.63586390 -0.04494007
16.32178879 -13.45961475 -0.30628824 0.66675299 -0.67928845 -0.06653423
20.21678162 -14.57828617 0.77443689 0.82586533 -0.73574626 0.16822898
23.33738708 -17.61521149 1.77068484 0.95334357 -0.88901573 0.38464144
20.28096390 -11.34463501 -0.48271662 0.82848722 -0.57254827 -0.10485932
18.30058861 -13.10906506 -0.84068185 0.74758792 -0.66159666 -0.18261921
22.12317276 -16.26783943 4.15975428 0.90374237 -0.82101572 0.90361297
17.30184174 -12.02422047 -0.08949410 0.70678866 -0.60684603 -0.01944058
16.52405930 -12.49358082 -0.20672725 0.67501587 -0.63053399 -0.04490684
16.48254204 -13.46234703 -0.30729139 0.67331982 -0.67942631 -0.06675214
23.29550362 -16.14039993 1.86357939 0.95163262 -0.81458402 0.40482068
21.04397392 -16.21923828 0.70614761 0.85965657 -0.81856287 0.15339467
16.78802109 -13.95183945 0.40760046 0.68579882 -0.70413035 0.08854203
21.84313202 -16.32804108 1.64222002 0.89230257 -0.82405400 0.35673535
20.25016403 -11.20254517 -0.48129213 0.82722902 -0.56537718 -0.10454988
19.43743896 -11.74382591 -0.60929066 0.79402882 -0.59269488 -0.13235468
19.07818031 -12.49463367 -0.70242143 0.77935290 -0.63058716 -0.15258524
18.47296906 -13.10141754 -0.84492552 0.75462973 -0.66121072 -0.18354104
22.36891747 -16.28688622 4.19175911 0.91378117 -0.82197696 0.91056532
19.17884827 -12.17781925 0.06605872 0.78346527 -0.61459798 0.01434977
17.38795090 -11.96298790 -0.08941149 0.71030623 -0.60375571 -0.01942263
16.54448700 -12.34650612 -0.20648785 0.67585033 -0.62311137 -0.04485484
16.18722153 -13.05184746 -0.30340612 0.66125584 -0.65870899 -0.06590815
22.33380890 -16.55488205 3.62280822 0.91234696 -0.83550239 0.78697354
23.64603424 -15.35566711 1.07500434 0.96595198 -0.77497959 0.23352049
22.37785530 -15.76800156 0.86413264 0.91414624 -0.79578960 0.18771337
16.87071609 -13.84227371 0.40745056 0.68917692 -0.69860071 0.08850946
22.13008118 -16.32659340 1.65720320 0.90402454 -0.82398093 0.35999009
20.53623199 -11.19261360 -0.48494238 0.83891505 -0.56487596 -0.10534281
19.69799614 -11.73316860 -0.61381501 0.80467272 -0.59215707 -0.13333750
18.93953514 -12.23475933 -0.69603682 0.77368921 -0.61747164 -0.15119833
18.29794884 -12.80491161 -0.83512765 0.74748009 -0.64624643 -0.18141268
16.62979317 -12.24823380 -0.20652109 0.67933512 -0.61815166 -0.04486206
16.18447876 -12.88254261 -0.30254629 0.66114384 -0.65016437 -0.06572137
23.02760887 -16.09363174 2.82855392 0.94068903 -0.81222367 0.61443967
22.31735229 -16.32655144 3.60269356 0.91167468 -0.82397884 0.78260410
19.80483246 -13.35282993 1.54891896 0.80903703 -0.67389917 0.33646777
19.74547768 -11.59396172 -0.61319238 0.80661237 -0.58513147 -0.13320224
19.05484009 -12.14019299 -0.69717515 0.77839947 -0.61269903 -0.15144561
18.46681595 -12.75110626 -0.83849764 0.75437838 -0.64353096 -0.18214473
21.25600624 -13.12249851 0.08636054 0.86831820 -0.66227466 0.01875988
17.13168526 -11.47162628 -0.09053137 0.69983768 -0.57895738 -0.01966590
17.43979454 -12.67547321 -0.20953362 0.71242410 -0.63971388 -0.04551646
16.28867149 -12.79915714 -0.30278513 0.66540015 -0.64595604 -0.06577326
22.50195885 -16.73532486 2.68480182 0.91921592 -0.84460908 0.58321279
17.45057297 -13.95547104 0.42049104 0.71286440 -0.70431364 0.09134221
22.25241470 -15.98904896 1.65068877 0.90902197 -0.80694550 0.35857499
20.95646858 -11.08207035 -0.48966098 0.85608190 -0.55929703 -0.10636783
19.82139397 -11.47167587 -0.61327541 0.80971354 -0.57895988 -0.13322029
21.79452705 -12.20861053 0.18008120 0.89031702 -0.61615193 0.03911859
19.00708771 -11.94268894 -0.69356215 0.77644879 -0.60273123 -0.15066077
23.21413422 -15.82079601 -1.01492107 0.94830865 -0.79845405 -0.22046876
21.25770760 -12.93987560 0.08551687 0.86838770 -0.65305793 0.01857661
17.28013992 -11.41454124 -0.09032024 0.70590210 -0.57607633 -0.01962004
17.43452644 -12.50511169 -0.20918781 0.71220887 -0.63111597 -0.04544134
16.74300957 -12.98743153 -0.30655894 0.68396008 -0.65545797 -0.06659303
22.33541679 -16.39481354 2.65094352 0.91241264 -0.82742393 0.57585782
17.59787750 -12.87598610 0.55481440 0.71888185 -0.64983350 0.12052094
16.79147148 -13.25515938 0.39670840 0.68593979 -0.66896987 0.08617597
22.54024124 -17.29249763 1.55446243 0.92077982 -0.87272882 0.33767197
21.35928154 -11.12355232 -0.49524018 0.87253702 -0.56139052 -0.10757978
19.92259216 -11.36377716 -0.61398101 0.81384754 -0.57351434 -0.13337356
19.52899170 -12.09957981 -0.70657891 0.79776877 -0.61064935 -0.15348837
21.34655571 -14.35035801 -0.94090688 0.87201715 -0.72424304 -0.20439084
21.22535706 -12.73822594 0.08433215 0.86706614 -0.64288092 0.01831926
18.19217110 -11.85466385 -0.08801623 0.74315900 -0.59828871 -0.01911955
17.81006050 -12.60532856 -0.21039812 0.72754961 -0.63617378 -0.04570426
16.61800194 -12.72371960 -0.30448890 0.67885345 -0.64214879 -0.06614336
24.35699654 -16.26392746 0.93414795 0.99499512 -0.82081825 0.20292261
17.65410614 -12.74763107 0.55386180 0.72117883 -0.64335561 0.12031401
16.87127304 -13.14693356 0.39660847 0.68919969 -0.66350782 0.08615426
22.94750786 -17.37733269 1.57682383 0.93741685 -0.87701035 0.34252948
20.93919373 -10.73859596 -0.48707908 0.85537624 -0.54196233 -0.10580697
20.52148819 -11.53571796 -0.62655789 0.83831275 -0.58219200 -0.13610560
19.36563301 -11.83092308 -0.69964981 0.79109550 -0.59709060 -0.15198317
21.40466309 -14.19493389 -0.93972117 0.87439090 -0.71639901 -0.20413327
21.21542549 -12.55173302 0.08339873 0.86666042 -0.63346887 0.01811650
18.36045647 -11.80076981 -0.08775921 0.75003356 -0.59556878 -0.01906371
17.42838097 -12.21293926 -0.20860924 0.71195781 -0.61637044 -0.04531566
16.33858109 -12.38756657 -0.30109727 0.66743898 -0.62518364 -0.06540661
21.84344673 -14.43460178 0.82045537 0.89231539 -0.72849470 0.17822546
17.67004585 -12.63294792 0.55214715 0.72182995 -0.63756770 0.11994154
21.46460152 -16.57118797 0.53975397 0.87683940 -0.83632529 0.11724940
21.88610649 -16.41060638 1.49166012 0.89405805 -0.82822096 0.32402959
20.44635582 -11.36687469 -0.62348628 0.83524358 -0.57367069 -0.13543837
19.57353783 -11.83144951 -0.70405471 0.79958850 -0.59711713 -0.15294003
24.47951317 -16.07192039 -1.05211544 1.00000000 -0.81112796 -0.22854839
23.43159676 -14.91113663 -0.07410952 0.95719212 -0.75254476 -0.01609863
17.46526337 -12.07593250 -0.20844963 0.71346450 -0.60945588 -0.04528099
16.54889488 -12.38425064 -0.30241889 0.67603040 -0.62501627 -0.06569370
22.36652565 -15.77274132 0.73154974 0.91368341 -0.79602879 0.15891272
23.43260574 -17.85889244 0.59836119 0.95723331 -0.90131396 0.12998050
20.74174309 -11.36133289 -0.62879926 0.84731030 -0.57339102 -0.13659249
19.77809334 -11.78590298 -0.70781624 0.80794472 -0.59481847 -0.15375714
19.39255714 -12.55332851 -0.85909182 0.79219538 -0.63354939 -0.18661836
21.10778046 -12.17699528 0.08086774 0.86226308 -0.61455637 0.01756670
19.34757805 -12.13781261 -0.08543225 0.79035795 -0.61257887 -0.01855823
17.41349411 -11.87929440 -0.20793758 0.71134967 -0.59953183 -0.04516976
16.58619118 -12.25028324 -0.30202082 0.67755395 -0.61825514 -0.06560723
22.99459648 -16.05867386 2.68520260 0.93934041 -0.81045938 0.58329982
22.42299271 -16.45734406 3.42778444 0.91599011 -0.83057976 0.74460900
23.75218582 -15.27252388 0.89573830 0.97028834 -0.77078348 0.19457899
22.19050026 -16.20736885 1.49903464 0.90649271 -0.81796384 0.32563153
20.53305244 -11.07956409 -0.62219954 0.83878517 -0.55917054 -0.13515884
19.91902542 -11.70083714 -0.70974648 0.81370187 -0.59052533 -0.15417644
19.21340179 -12.26642132 -0.84954357 0.78487676 -0.61906958 -0.18454422
21.83962250 -12.41623592 0.08763500 0.89215916 -0.62663054 0.01903673
19.25516891 -11.91169262 -0.08588662 0.78658301 -0.60116690 -0.01865694
17.26199150 -11.61799812 -0.20703316 0.70516074 -0.58634454 -0.04497330
17.00682640 -12.39709091 -0.30541247 0.69473714 -0.62566429 -0.06634399
22.49835587 -16.79759598 2.47200322 0.91906875 -0.84775180 0.53698707
22.53719330 -16.32428741 3.42956519 0.92065531 -0.82386458 0.74499583
21.03111839 -11.17875481 -0.63228595 0.85913140 -0.56417656 -0.13734989
19.91770935 -11.53243923 -0.70761824 0.81364810 -0.58202648 -0.15371414
19.06184959 -12.00146675 -0.84111869 0.77868581 -0.60569769 -0.18271410
17.24794960 -11.45186806 -0.20668735 0.70458710 -0.57796019 -0.04489817
17.55811691 -12.63147354 -0.31006205 0.71725762 -0.63749325 -0.06735400
22.24453545 -16.39102554 2.43053007 0.90870005 -0.82723272 0.52797794
19.18071938 -14.04997253 0.45626494 0.78354168 -0.70908296 0.09911329
22.22167587 -15.80561352 1.48654556 0.90776622 -0.79768777 0.32291856
21.41081619 -11.20895004 -0.63954979 0.87464225 -0.56570047 -0.13892780
19.17082787 -11.90258121 -0.84236681 0.78313762 -0.60070705 -0.18298523
17.43340683 -11.41767120 -0.20713957 0.71216315 -0.57623434 -0.04499641
17.38942337 -12.34469795 -0.30764171 0.71036637 -0.62302011 -0.06682824
22.90240288 -16.56075668 0.56838310 0.93557429 -0.83579886 0.12346844
20.54751778 -11.55423737 -0.72142690 0.83937609 -0.58312660 -0.15671375
18.94363403 -11.59687901 -0.83132088 0.77385664 -0.58527869 -0.18058576
21.69010925 -11.79631233 0.08375774 0.88605148 -0.59534383 0.01819448
17.72379875 -11.48855019 -0.20807724 0.72402579 -0.57981151 -0.04520009
17.56840324 -12.34783077 -0.30882004 0.71767783 -0.62317818 -0.06708420
23.66295815 -15.65015221 0.76336592 0.96664333 -0.78984189 0.16582407
19.53790474 -13.57254982 1.27922690 0.79813290 -0.68498808 0.27788326
21.55591774 -10.98467541 -0.64008939 0.88056970 -0.55438161 -0.13904501
23.63484573 -13.14066410 -0.80729777 0.96549493 -0.66319144 -0.17536727
19.08693314 -11.56141663 -0.83456600 0.77971047 -0.58348894 -0.18129067
17.68435097 -11.30596924 -0.20763832 0.72241431 -0.57059687 -0.04510475
17.55531120 -12.17443371 -0.30794424 0.71714300 -0.61442709 -0.06689396
20.96022606 -13.67696381 0.65718502 0.85623538 -0.69025773 0.14275865
20.79379082 -10.43137169 -0.62078828 0.84943646 -0.52645713 -0.13485228
19.52285385 -11.65887642 -0.84779620 0.79751807 -0.58840764 -0.18416464
19.28873634 -12.15955925 -0.21366334 0.78795427 -0.61367643 -0.04641355
17.42362404 -11.92139435 -0.30593792 0.71176350 -0.60165656 -0.06645813
20.09329796 -14.00393391 0.47415188 0.82082099 -0.70675945 0.10299882
20.91806030 -10.32978439 -0.62215805 0.85451293 -0.52133018 -0.13514984
21.25983429 -11.47531796 -0.73592842 0.86847454 -0.57914364 -0.15986389
20.11397552 -11.84170055 -0.86658061 0.82166564 -0.59763449 -0.18824513
20.19565201 -11.50689220 -0.08450513 0.82500219 -0.58073717 -0.01835684
19.38854790 -12.05288696 -0.21375644 0.79203159 -0.60829282 -0.04643378
17.35572052 -11.71531868 -0.30456853 0.70898962 -0.59125620 -0.06616066
23.15261269 -16.01708221 2.47903895 0.94579548 -0.80836034 0.53851539
24.12090492 -15.30728245 0.76965296 0.98535067 -0.77253771 0.16718978
20.20394135 -13.89328766 0.47485137 0.82534081 -0.70117533 0.10315077
23.33742332 -15.57254505 1.53340936 0.95334506 -0.78592515 0.33309868
21.03468323 -10.22354317 -0.62336177 0.85927701 -0.51596832 -0.13541131
20.97828293 -11.15408802 -0.72602975 0.85697305 -0.56293166 -0.15771362
19.83026123 -11.50708580 -0.85366243 0.81007582 -0.58074695 -0.18543895
20.21177483 -11.34839058 -0.08465200 0.82566082 -0.57273781 -0.01838874
17.39904404 -11.58605671 -0.30428192 0.71075940 -0.58473253 -0.06609840
21.00834846 -10.04796028 -0.62128639 0.85820127 -0.50710690 -0.13496049
21.42893600 -11.22115040 -0.73667085 0.87538242 -0.56631619 -0.16002516
20.45197487 -11.69734859 -0.87344533 0.83547312 -0.59034926 -0.18973634
20.39287758 -11.28226566 -0.08436285 0.83305895 -0.56940061 -0.01832593
17.63520622 -11.58427048 -0.30584240 0.72040671 -0.58464235 -0.06643738
21.28266144 -10.01556301 -0.62614280 0.86940706 -0.50547183 -0.13601543
21.29990387 -10.98382378 -0.73112756 0.87011141 -0.55433863 -0.15882100
20.52506828 -11.56861496 -0.87344533 0.83845901 -0.58385223 -0.18973634
20.54410553 -11.19801235 -0.08415173 0.83923668 -0.56514841 -0.01828007
20.72226334 -12.38942909 -0.21812558 0.84651452 -0.62527764 -0.04738287
17.74321938 -11.53597450 -0.30635193 0.72481912 -0.58220494 -0.06654806
23.37955666 -15.49245071 0.56298703 0.95506626 -0.78188288 0.12229626
20.69454384 -12.19712639 -0.21771993 0.84538215 -0.61557233 -0.04729475
17.56129646 -11.26100349 -0.30394751 0.71738750 -0.56832749 -0.06602576
23.32755852 -15.24778080 0.55854028 0.95294207 -0.76953471 0.12133031
21.34805107 -11.72584724 -0.89828318 0.87207824 -0.59178752 -0.19513181
20.52650070 -10.89723682 -0.08451431 0.83851755 -0.54996872 -0.01835883
20.69810295 -12.02472401 -0.21744062 0.84552753 -0.60687143 -0.04723408
20.96463776 -10.35692120 -0.71672499 0.85641563 -0.52269971 -0.15569237
20.41083717 -11.04360771 -0.86239934 0.83379263 -0.55735582 -0.18733685
19.92140388 -12.42693424 -0.32479101 0.81379902 -0.62717044 -0.07055353
21.66058731 -13.77093792 0.50353044 0.88484550 -0.69500047 0.10938065
21.07427025 -10.24681091 -0.71796232 0.86089414 -0.51714259 -0.15596116
20.62970161 -10.99519539 -0.86770391 0.84273332 -0.55491257 -0.18848914
20.23938560 -11.42118073 -0.21511972 0.82678872 -0.57641143 -0.04672992
20.98667336 -10.04183769 -0.71380490 0.85731578 -0.50679785 -0.15505804
20.49138641 -10.75647163 -0.86040235 0.83708310 -0.54286450 -0.18690304
20.40168381 -11.34424877 -0.21546553 0.83341867 -0.57252878 -0.04680504
19.57008553 -11.86820316 -0.32007775 0.79944748 -0.59897208 -0.06952968
21.10183525 -9.93442917 -0.71524024 0.86202019 -0.50137711 -0.15536985
20.66683960 -10.68360043 -0.86420918 0.84425044 -0.53918678 -0.18772998
21.49388123 -11.77421093 -0.21933591 0.87803549 -0.59422839 -0.04764579
19.40065193 -11.59905815 -0.31781664 0.79252607 -0.58538866 -0.06903851
21.07011604 -10.72521687 -0.87600398 0.86072445 -0.54128706 -0.19029215
20.77156258 -11.50806427 0.61647809 0.84852844 -0.58079636 0.13391599
20.16766357 -11.75933647 -0.32372415 0.82385886 -0.59347773 -0.07032178
20.70302582 -11.30082703 0.61139762 0.84572864 -0.57033736 0.13281237
20.94145775 -10.37113953 -0.86745429 0.85546869 -0.52341729 -0.18843491
20.67391586 -10.86601543 -0.21550544 0.84453952 -0.54839301 -0.04681370
19.73681259 -11.34196472 -0.31909049 0.80625838 -0.57241350 -0.06931522
20.74191666 -11.15351009 0.61025453 0.84731734 -0.56290245 0.13256405
21.05470276 -10.26304817 -0.86913925 0.86009485 -0.51796204 -0.18880095
20.59606934 -10.66064453 -0.21496013 0.84135944 -0.53802824 -0.04669525
20.14338303 -11.40824413 -0.32216367 0.82286698 -0.57575858 -0.06998280
20.47756386 -10.84641838 0.59825206 0.83651841 -0.54740399 0.12995680
21.05571556 -10.10024071 -0.86695504 0.86013621 -0.50974542 -0.18832646
20.80347824 -10.60264778 -0.21548548 0.84983218 -0.53510118 -0.04680937
20.28273964 -11.31952477 -0.32278469 0.82855976 -0.57128102 -0.07011771
21.36271095 -10.08314610 -0.87537992 0.87267709 -0.50888264 -0.19015658
20.47411537 -11.30028534 -0.32404262 0.83637756 -0.57031000 -0.07039096
21.94243622 -10.23117542 -0.89372748 0.89635915 -0.51635349 -0.19414218
20.58510399 -11.19342995 -0.32440886 0.84091151 -0.56491715 -0.07047052
21.96957588 -11.76947689 -0.33628759 0.89746785 -0.59398949 -0.07305091
20.58445930 -10.86002636 -0.32315093 0.84088516 -0.54809076 -0.07019727
20.70849228 -11.15150642 0.44986960 0.84595197 -0.56280136 0.09772404
20.49796104 -10.65011978 -0.32176560 0.83735168 -0.53749704 -0.06989633
20.68281364 -10.97049809 0.44717157 0.84490299 -0.55366611 0.09713796
20.71236610 -10.81992817 0.44607237 0.84611022 -0.54606706 0.09689918
21.14241219 -10.52561665 -0.32588971 0.86367780 -0.53121352 -0.07079221
