22.32267189 -26.26168442 -0.64935136 0.88877237 -0.99149561 -0.52318734
22.12688828 -25.78458023 -0.64208055 0.88097727 -0.97348279 -0.51732922
21.99178314 -25.30410194 -0.63537365 0.87559807 -0.95534259 -0.51192540
22.17017174 -25.18792915 -0.63581878 0.88270062 -0.95095652 -0.51228404
22.07499313 -24.76465797 -0.63018024 0.87891108 -0.93497616 -0.50774103
23.86835670 -26.10059357 0.51109475 0.95031345 -0.98541367 0.41179293
22.01694870 -24.38957787 -0.62546164 0.87660003 -0.92081523 -0.50393921
22.15490532 -24.23453522 -0.62513518 0.88209277 -0.91496170 -0.50367618
22.63258171 -24.52348900 -0.63308853 0.90111136 -0.92587095 -0.51008427
22.25350189 -26.07124901 -0.84941268 0.88601834 -0.98430580 -0.68437827
21.99860191 -25.04742432 0.28642091 0.87586957 -0.94565183 0.23077151
22.30389214 -23.86535263 -0.62261266 0.88802463 -0.90102339 -0.50164378
22.42732620 -25.94301987 -0.84974474 0.89293915 -0.97946459 -0.68464583
22.13429260 -24.88478851 0.28601366 0.88127208 -0.93951166 0.23044339
24.21955681 -25.58857346 -0.66071755 0.96429640 -0.96608263 -0.53234518
22.19236946 -25.34701729 -0.83720940 0.88358438 -0.95696282 -0.67454600
24.31200981 -25.36519051 -0.65926337 0.96797740 -0.95764893 -0.53117353
22.02506638 -24.83883667 -0.82699853 0.87692326 -0.93777674 -0.66631901
23.78700256 -24.19673729 0.48471397 0.94707435 -0.91353464 0.39053774
22.30113411 -24.44650841 0.28329027 0.88791484 -0.92296457 0.22824913
22.19805336 -24.71931076 -0.82753813 0.88381070 -0.93326414 -0.66675377
23.88492203 -23.99298286 0.48331973 0.95097303 -0.90584201 0.38941440
23.95697212 -24.37491608 -0.64504826 0.95384169 -0.92026168 -0.51972032
22.19832230 -24.40913391 -0.82276475 0.88382143 -0.92155355 -0.66290784
23.33915710 -23.15280151 0.46534115 0.92924351 -0.87412143 0.37492892
22.69531631 -24.25932121 0.28494468 0.90360910 -0.91589743 0.22958210
24.29142570 -24.48307991 -0.64967781 0.96715784 -0.92434531 -0.52345037
24.31448936 -26.48694038 -0.88423765 0.96807611 -1.00000000 -0.71243703
22.01780319 -25.05140305 0.16150059 0.87663406 -0.94580209 0.13012226
24.34124756 -24.22704887 -0.64751142 0.96914148 -0.91467905 -0.52170491
22.58918381 -24.29691887 -0.82654196 0.89938349 -0.91731691 -0.66595113
22.17210960 -24.90958023 0.16146469 0.88277775 -0.94044763 0.13009334
22.16608810 -23.54269791 -0.80910867 0.88253802 -0.88884175 -0.65190500
24.66831207 -25.47348213 0.31345126 0.98216349 -0.96173745 0.25255007
23.05818558 -24.18491173 -0.83152288 0.91805667 -0.91308814 -0.66996431
23.36131668 -23.82075500 0.28677723 0.93012577 -0.89933962 0.23105860
22.06641579 -24.86750031 -0.96087557 0.87856954 -0.93885893 -0.77418476
23.27769852 -24.11008453 -0.83355671 0.92679656 -0.91026312 -0.67160302
22.58877182 -24.43440819 0.16081847 0.89936709 -0.92250776 0.12957267
23.51115036 -24.04775810 -0.83600569 0.93609136 -0.90790999 -0.67357618
23.43488121 -23.30238342 0.28275576 0.93305475 -0.87976879 0.22781847
22.72954178 -24.27886581 0.16065691 0.90497178 -0.91663533 0.12944250
21.96995354 -25.30794525 -0.06093717 0.87472898 -0.95548767 -0.04909754
23.46896553 -23.11726379 0.28140679 0.93441176 -0.87277967 0.22673160
21.82373238 -25.62639427 -1.18872344 0.86890721 -0.96751052 -0.95776355
23.06225395 -24.40246201 0.16351102 0.91821867 -0.92130166 0.13174208
24.79831123 -24.81378746 -0.86609876 0.98733938 -0.93683100 -0.69782239
24.33151627 -23.66838837 0.29415840 0.96875405 -0.89358711 0.23700567
21.81470299 -25.29187584 -1.18061066 0.86854768 -0.95488101 -0.95122701
23.17084694 -24.21086884 0.16293661 0.92254227 -0.91406816 0.13127927
22.04258156 -24.83437157 -0.06164398 0.87762064 -0.93760818 -0.04966702
24.74761200 -24.45357895 -0.86008012 0.98532081 -0.92323154 -0.69297314
22.26084137 -23.62782860 -0.94147420 0.88631058 -0.89205581 -0.75855297
21.71165848 -24.85455513 -1.16819167 0.86444497 -0.93837017 -0.94122094
23.24312592 -23.98299408 0.16191344 0.92542005 -0.90546489 0.13045490
22.17279816 -24.66710854 -0.06173119 0.88280517 -0.93129325 -0.04973729
23.28998756 -24.40987587 -0.97305089 0.92728579 -0.92158157 -0.78399450
22.25389671 -25.15507126 -1.18641448 0.88603407 -0.94971603 -0.95590317
23.40036392 -23.84361267 0.16200319 0.93168044 -0.90020263 0.13052720
22.30312920 -24.50066948 -0.06181380 0.88799429 -0.92500943 -0.04980385
23.48738289 -24.30904579 -0.97463471 0.93514508 -0.91777480 -0.78527063
22.27154350 -24.85833359 -1.17986178 0.88673669 -0.93851286 -0.95062363
22.31574249 -24.20703506 -0.06229112 0.88849646 -0.91392344 -0.05018843
21.87202835 -25.60044479 -0.24980684 0.87083006 -0.96653086 -0.20127127
23.59068680 -24.11100197 -0.97290242 0.93925810 -0.91029775 -0.78387487
22.32124519 -24.60088730 -1.17493165 0.88871557 -0.92879307 -0.94665140
23.55760384 -23.40821075 0.16022611 0.93794090 -0.88376427 0.12909539
22.57105637 -24.17751503 -0.06194231 0.89866173 -0.91280890 -0.04990739
21.92837143 -25.42292213 -0.24948098 0.87307334 -0.95982856 -0.20100872
23.82003403 -26.16789818 1.15736306 0.94838953 -0.98795474 0.93249625
22.45986557 -24.52050209 -1.17599261 0.89423472 -0.92575818 -0.94750619
23.56497002 -23.19598961 0.15893368 0.93823421 -0.87575197 0.12805408
22.84649086 -24.24273300 -0.06140073 0.90962809 -0.91527116 -0.04947103
21.83355331 -24.99409485 -0.24819750 0.86929822 -0.94363844 -0.19997461
23.17865181 -24.98893166 -1.20195365 0.92285299 -0.94344348 -0.96842325
23.06321716 -24.16674805 -0.06118501 0.91825700 -0.91240239 -0.04929723
21.85755157 -24.70670509 -0.24753249 0.87025368 -0.93278819 -0.19943881
22.83323669 -24.30776978 -1.17905045 0.90910035 -0.91772658 -0.94996995
23.56323814 -24.38255119 -0.06003300 0.93816525 -0.92054993 -0.04836905
21.97496223 -24.52719879 -0.24734628 0.87492836 -0.92601103 -0.19928879
23.34075165 -24.53772736 -1.19515133 0.92930698 -0.92640853 -0.96294254
23.56918335 -24.08384132 -0.06051492 0.93840194 -0.90927231 -0.04875733
21.92287827 -24.16215134 -0.24632882 0.87285465 -0.91222888 -0.19846900
21.76584244 -25.91290665 -0.40728918 0.86660230 -0.97832769 -0.32815599
23.32814980 -24.21772385 -1.18766260 0.92880523 -0.91432697 -0.95690882
23.38799858 -23.59982109 -0.06159808 0.93118811 -0.89099836 -0.04963005
23.83594513 -25.93881607 -0.25498065 0.94902301 -0.97930586 -0.20543985
21.97873306 -25.83507538 -0.40791020 0.87507850 -0.97538918 -0.32865635
24.67535782 -25.29774284 -1.24114501 0.98244405 -0.95510250 -1.00000000
23.62926483 -23.54563332 -0.06129517 0.94079405 -0.88895255 -0.04938598
22.72510910 -24.42179871 -0.24876942 0.90479529 -0.92203170 -0.20043541
22.11061859 -25.66160393 -0.40754396 0.88032949 -0.96883988 -0.32836127
23.90501595 -26.18075943 0.98836541 0.95177305 -0.98844028 0.79633355
23.72048187 -24.01374245 -1.19165659 0.94442588 -0.90662575 -0.96012682
23.76961517 -23.38968468 -0.06131811 0.94638211 -0.88306481 -0.04940447
22.23261261 -25.55863571 -0.40755987 0.88518667 -0.96495235 -0.32837409
23.75438499 -23.82237816 -1.18816185 0.94577569 -0.89940089 -0.95731103
23.88672829 -23.28439713 -0.06129517 0.95104492 -0.87908971 -0.04938598
23.29295540 -24.48616791 -0.25021914 0.92740399 -0.92446190 -0.20160347
23.07446480 -26.19318962 -0.41577625 0.91870481 -0.98890960 -0.33499411
24.45294762 -24.21735954 -1.21231318 0.97358882 -0.91431320 -0.97676998
24.00519562 -23.10748482 -0.06138237 0.95576167 -0.87241048 -0.04945624
23.86425591 -24.77263451 -0.25222084 0.95015019 -0.93527734 -0.20321625
22.11960411 -24.79197693 -0.40238485 0.88068724 -0.93600756 -0.32420453
23.70920753 -24.30456734 -0.25074449 0.94397700 -0.91760570 -0.20202675
21.98016167 -24.32586479 -0.39888173 0.87513536 -0.91840976 -0.32138205
23.78409767 -24.07691002 -0.25037876 0.94695872 -0.90901059 -0.20173207
22.09884071 -24.15037346 -0.39848366 0.87986058 -0.91178417 -0.32106131
23.78000832 -23.84708977 -0.24982679 0.94679588 -0.90033388 -0.20128734
22.47413635 -24.32966042 -0.40155682 0.89480287 -0.91855305 -0.32353738
24.24219894 -24.00662231 -0.25128981 0.96519792 -0.90635693 -0.20246612
22.64021301 -24.20258522 -0.40171605 0.90141517 -0.91375542 -0.32366568
24.66252899 -26.03705406 -0.42338756 0.98193324 -0.98301476 -0.34112659
23.00205040 -23.97827148 -0.40240076 0.91582167 -0.90528655 -0.32421735
23.95859718 -24.66435051 -0.41162032 0.95390636 -0.93118912 -0.33164564
23.49216843 -23.88134956 -0.40456632 0.93533558 -0.90162736 -0.32596216
23.57545853 -23.66663933 -0.40381792 0.93865180 -0.89352107 -0.32535917
24.16291428 -24.02940750 -0.40916812 0.96204120 -0.90721720 -0.32966986
25.11629868 -24.66652870 -0.41813290 1.00000000 -0.93127137 -0.33689287
