19.67000198 -19.08344650 0.36499137 0.89675200 -0.94390434 0.13003281
19.49073792 -18.91478348 -0.54091263 0.88857943 -0.93556195 -0.19270699
20.68302917 -19.56667709 0.38454765 0.94293576 -0.96780586 0.13699998
20.51750565 -19.16762161 0.37731951 0.93538958 -0.94806784 0.13442487
20.30514336 -18.73213959 0.36902738 0.92570800 -0.92652804 0.13147068
20.58530045 -18.89945793 2.30826664 0.93848032 -0.93480390 0.82234925
20.55567360 -18.78451157 0.37306339 0.93712962 -0.92911845 0.13290855
20.18934631 -19.87230492 0.22268835 0.92042881 -0.98292285 0.07933555
20.60239601 -19.20823288 1.36286235 0.93925971 -0.95007652 0.48553699
19.62843895 -18.17071342 -0.53479928 0.89485717 -0.89875883 -0.19052902
20.44600296 -18.45018768 0.36744967 0.93212980 -0.91258216 0.13090861
20.78883934 -19.13923073 1.36765122 0.94775963 -0.94666356 0.48724309
20.55704117 -18.31736946 0.36733958 0.93719196 -0.90601271 0.13086939
19.86076164 -19.06268501 0.21250743 0.90544873 -0.94287747 0.07570846
20.03644943 -18.08596420 -0.53841978 0.91345829 -0.89456695 -0.19181888
19.58035469 -19.09065056 -0.70554703 0.89266503 -0.94426072 -0.25136009
20.59961891 -18.12449646 0.36557841 0.93913311 -0.89647281 0.13024195
20.62704277 -19.55156898 0.22385916 0.94038337 -0.96705860 0.07975266
20.90129471 -18.76317406 1.35860562 0.95288646 -0.92806304 0.48402047
20.12130737 -17.93445587 -0.53785592 0.91732699 -0.88707304 -0.19161800
19.30839729 -18.58972740 -0.69425690 0.88026655 -0.91948408 -0.24733782
20.78408432 -18.05629349 0.36730289 0.94754285 -0.89309937 0.13085631
19.89008904 -18.61603355 0.20886776 0.90678573 -0.92078519 0.07441179
20.20505333 -17.78259468 -0.53729212 0.92114490 -0.87956172 -0.19141713
21.45450020 -18.40274429 0.38076848 0.97810698 -0.91023552 0.13565360
19.99639130 -18.48118401 0.20868959 0.91163206 -0.91411531 0.07434831
20.59782219 -18.97044373 2.17034078 0.93905121 -0.93831503 0.77321142
20.38667297 -17.77252769 -0.53922111 0.92942494 -0.87906379 -0.19210435
20.43112755 -18.70570946 0.21469633 0.93145162 -0.92522073 0.07648829
20.54749298 -20.21756363 0.12087900 0.93675667 -1.00000000 0.04306468
21.33055305 -18.35968781 -0.55551362 0.97245628 -0.90810585 -0.19790877
20.32736397 -18.37697411 0.21090394 0.92672104 -0.90896088 0.07513721
20.47122955 -18.92766571 1.19106042 0.93327987 -0.93619913 0.42433038
20.78374100 -17.66374397 -0.54263389 0.94752717 -0.87368309 -0.19332020
20.71675110 -18.49414635 0.21558715 0.94447315 -0.91475642 0.07680566
19.89162064 -19.08746719 0.10958825 0.90685558 -0.94410324 0.03904220
20.74308014 -18.93886757 1.20096445 0.94567347 -0.93675321 0.42785880
20.84219742 -17.48914146 -0.54162490 0.95019221 -0.86504692 -0.19296074
20.00846863 -18.14508820 -0.69857371 0.91218263 -0.89749134 -0.24887574
20.60016251 -18.15847015 0.21164206 0.93915790 -0.89815325 0.07540017
19.64250565 -19.14637756 -0.81689948 0.89549845 -0.94701707 -0.29103079
19.91673088 -18.87276459 0.10842148 0.90800035 -0.93348360 0.03862653
20.83201218 -18.78138542 1.19905984 0.94972789 -0.92896384 0.42718026
20.00597000 -17.91488075 -0.69533610 0.91206872 -0.88610482 -0.24772230
20.77716446 -18.08386993 0.21271105 0.94722736 -0.89446336 0.07578101
19.36888313 -18.64434433 -0.80338782 0.88302404 -0.92218554 -0.28621709
20.01299858 -18.72677231 0.10815223 0.91238916 -0.92626256 0.03853060
21.19352531 -17.33464241 -0.54417711 0.96620917 -0.85740513 -0.19386999
20.21843338 -17.87764549 -0.69811714 0.92175490 -0.88426310 -0.24871308
20.96616554 -18.01819420 0.21398367 0.95584393 -0.89121491 0.07623439
19.43634033 -18.47548103 -0.80170506 0.88609940 -0.91383320 -0.28561759
19.98915863 -18.47046661 0.10642900 0.91130233 -0.91358519 0.03791668
20.61343002 -18.95139313 2.01350307 0.93976277 -0.93737274 0.71733600
21.55329132 -17.45969391 -0.54948920 0.98261088 -0.86359042 -0.19576250
20.24533463 -17.73206329 -0.69653982 0.92298132 -0.87706232 -0.24815114
21.08279991 -17.94643974 0.21451816 0.96116126 -0.88766581 0.07642481
20.16159821 -18.45432091 0.10747011 0.91916382 -0.91278660 0.03828759
20.61106300 -19.26765823 1.07586396 0.93965483 -0.95301580 0.38329017
21.65631676 -17.31893539 -0.54937053 0.98730779 -0.85662824 -0.19572021
20.61178207 -17.82575035 -0.70355463 0.93968761 -0.88169628 -0.25065026
20.44046783 -18.47466850 0.10944465 0.93187743 -0.91379303 0.03899104
20.43787766 -18.86692047 1.05867124 0.93175936 -0.93319458 0.37716505
21.30995941 -18.19753838 -0.71957660 0.97151738 -0.90008563 -0.25635830
20.41430092 -18.21947098 0.10773937 0.93068451 -0.90117043 0.03838351
20.74368286 -18.90895081 1.06958866 0.94570094 -0.93527347 0.38105452
20.97929382 -17.68788719 -0.70749789 0.95644242 -0.87487727 -0.25205508
19.92106438 -18.06208611 -0.80353630 0.90819794 -0.89338589 -0.28626999
20.51035690 -18.07499123 0.10752396 0.93506366 -0.89402419 0.03830678
20.83979034 -18.75820732 1.06829917 0.95008248 -0.92781740 0.38059512
20.98711205 -17.46993637 -0.70471686 0.95679885 -0.86409700 -0.25106430
20.78203583 -18.08349228 0.10940875 0.94744945 -0.89444470 0.03897826
19.83390808 -18.60128975 -0.07544512 0.90422446 -0.92005593 -0.02687828
21.11546135 -17.40903664 -0.70596206 0.96265024 -0.86108482 -0.25150794
19.75253296 -18.88097191 -0.99095696 0.90051460 -0.93388957 -0.35304099
21.03224945 -18.12755585 0.11136533 0.95885664 -0.89662415 0.03967531
20.93751717 -19.45309448 -0.07225989 0.95453781 -0.96218789 -0.02574350
21.39026070 -17.41120911 -0.71040338 0.97517830 -0.86119223 -0.25309020
20.25876427 -17.74020004 -0.80447668 0.92359358 -0.87746477 -0.28660500
19.69209671 -18.58757973 -0.98328096 0.89775932 -0.91937780 -0.35030630
21.08782005 -17.94583893 0.11068323 0.96139008 -0.88763607 0.03943230
20.70881462 -18.99911118 -0.07335223 0.94411129 -0.93973297 -0.02613266
20.54955673 -19.27787971 0.89347029 0.93685079 -0.95352143 0.31831011
20.70734978 -18.87875938 1.84103322 0.94404453 -0.93378013 0.65589142
20.43036652 -17.66482353 -0.80645639 0.93141693 -0.87373650 -0.28731030
20.04124641 -18.15503502 -0.07578935 0.91367698 -0.89798331 -0.02700092
20.70376396 -17.67489052 -0.81175220 0.94388103 -0.87423444 -0.28919700
20.15045166 -18.02475166 -0.07580312 0.91865563 -0.89153928 -0.02700582
20.53047562 -18.87608528 2.80691767 0.93598086 -0.93364787 1.00000000
20.71501923 -18.94927597 0.88973910 0.94439417 -0.93726802 0.31698084
20.38614273 -18.00644875 -0.07542676 0.92940074 -0.89063394 -0.02687174
20.99226761 -18.96221352 0.89756733 0.95703387 -0.93790793 0.31976974
21.04417992 -17.51300049 -0.81561267 0.95940053 -0.86622703 -0.29057235
19.95524979 -17.90911484 -0.97498089 0.90975642 -0.88581961 -0.34734932
20.58021736 -17.94905090 -0.07517892 0.93824857 -0.88779497 -0.02678344
19.81505585 -18.66479111 -0.22836015 0.90336502 -0.92319685 -0.08135620
21.12142944 -18.83926201 0.89807945 0.96292233 -0.93182653 0.31995219
21.09969902 -17.33604622 -0.81388038 0.96193165 -0.85747457 -0.28995520
20.13615608 -17.84441948 -0.97785157 0.91800392 -0.88261968 -0.34837201
20.63957977 -17.77367020 -0.07533956 0.94095492 -0.87912029 -0.02684067
19.74914551 -18.42805481 -0.22766188 0.90036017 -0.91148740 -0.08110743
20.63592148 -19.04566002 1.69511724 0.94078815 -0.94203538 0.60390699
20.25605392 -17.78100967 -0.97934932 0.92347002 -0.87948328 -0.34890559
20.80218124 -17.74376297 -0.07510090 0.94836789 -0.87764102 -0.02675565
19.96609688 -18.39703941 -0.22812074 0.91025096 -0.90995336 -0.08127090
20.44268990 -19.18961143 0.75282407 0.93197870 -0.94915551 0.26820311
20.72861290 -18.89144707 1.69277215 0.94501394 -0.93440771 0.60307151
20.42624855 -17.70449448 -0.98178321 0.93122917 -0.87569869 -0.34977272
20.96217918 -17.65397263 -0.07495403 0.95566213 -0.87319982 -0.02670332
20.00875854 -18.20532990 -0.22779489 0.91219586 -0.90047103 -0.08115482
20.67520523 -17.69418716 -0.98746222 0.94257909 -0.87518889 -0.35179594
21.25250244 -17.67165756 -0.07441703 0.96889794 -0.87407452 -0.02651201
20.18825531 -18.13801575 -0.22808748 0.92037910 -0.89714152 -0.08125906
20.53196335 -18.86355019 2.66857386 0.93604869 -0.93302786 0.95071328
20.55089188 -18.81118584 0.74717206 0.93691164 -0.93043780 0.26618952
20.80275726 -17.57813835 -0.98814869 0.94839412 -0.86944890 -0.35204050
21.37856483 -17.55047798 -0.07437114 0.97464514 -0.86808074 -0.02649566
20.35421944 -18.05722618 -0.22832024 0.92794538 -0.89314550 -0.08134198
20.72971725 -18.80631638 2.67939258 0.94506425 -0.93019694 0.95456755
20.73694038 -18.74329948 0.75009334 0.94539356 -0.92708004 0.26723027
20.93426895 -17.46502876 -0.98902237 0.95438975 -0.86385429 -0.35235175
20.56361771 -18.01325035 -0.22874585 0.93749183 -0.89097041 -0.08149361
21.53087807 -17.73512840 -1.00874281 0.98158902 -0.87721395 -0.35937741
20.63618279 -17.90567017 -0.22869265 0.94080001 -0.88564926 -0.08147465
19.57314873 -18.32926178 -0.35135093 0.89233649 -0.90660089 -0.12517323
20.17509842 -19.21140480 0.55829048 0.91977930 -0.95023340 0.19889806
20.58984566 -19.06068611 1.53352833 0.93868756 -0.94277859 0.54633892
21.86344528 -17.83710480 -1.01879036 0.99675071 -0.88225788 -0.36295697
20.82882690 -17.84456253 -0.22904511 0.94958264 -0.88262677 -0.08160023
19.61456108 -18.13797188 -0.35055476 0.89422446 -0.89713937 -0.12488957
20.58069992 -19.35292053 0.56808329 0.93827057 -0.95723307 0.20238687
20.69300270 -18.91611290 1.53221989 0.94339043 -0.93562770 0.54587275
20.89164352 -17.67204285 -0.22883230 0.95244646 -0.87409359 -0.08152441
20.03215981 -18.29240990 -0.35383496 0.91326272 -0.90477818 -0.12605819
20.30657005 -18.85561371 0.55459315 0.92577302 -0.93263531 0.19758084
20.80404091 -18.77902794 1.53162527 0.94845265 -0.92884725 0.54566091
20.91471481 -17.46741867 -0.22845325 0.95349824 -0.86397249 -0.08138937
20.57268715 -18.55087471 -0.35840490 0.93790531 -0.91756231 -0.12768629
20.55311966 -18.95281410 2.46089435 0.93701321 -0.93744302 0.87672478
20.42317009 -18.72630119 0.55454320 0.93108881 -0.92623925 0.19756304
21.41160011 -17.65473557 -0.23012243 0.97615117 -0.87323755 -0.08198404
20.22760201 -18.00995636 -0.35348466 0.92217290 -0.89080745 -0.12593339
20.67179680 -18.82330322 2.46089435 0.94242370 -0.93103719 0.87672478
20.52709579 -18.58552170 0.55409354 0.93582678 -0.91927606 0.19740285
21.53141785 -17.52742386 -0.23016234 0.98161364 -0.86694044 -0.08199825
20.55111504 -18.37349129 0.55099577 0.93692183 -0.90878862 0.19629923
21.61377335 -17.42576599 -0.23016234 0.98536825 -0.86191225 -0.08199825
20.85848427 -18.16504860 -0.35807052 0.95093471 -0.89847863 -0.12756716
20.52976990 -18.18092346 0.54739839 0.93594867 -0.89926380 0.19501762
20.71154976 -17.80916405 -0.35533175 0.94423598 -0.88087589 -0.12659144
21.48708725 -18.55315781 0.57153076 0.97959262 -0.91767526 0.20361508
20.90919685 -17.52692223 -0.35507697 0.95324671 -0.86691564 -0.12650067
21.13439178 -17.49091911 -0.35627121 0.96351331 -0.86513484 -0.12692614
21.46055984 -17.53510094 -0.35850045 0.97838324 -0.86732018 -0.12772033
21.84437561 -17.67807007 -0.36158955 0.99588132 -0.87439173 -0.12882087
21.93471718 -17.52422714 -0.36138257 1.00000000 -0.86678237 -0.12874712
