17.01279640 -14.41777992 -0.46879825 0.75423151 -1.00000000 -0.18935159
17.06214142 -14.09147167 0.26816392 0.75641912 -0.97736764 0.10831368
16.36170387 -13.69144535 -0.45446438 0.72536647 -0.94962227 -0.18356201
17.10691643 -13.94864750 0.26713657 0.75840414 -0.96746153 0.10789873
16.60940933 -13.72195625 -0.45758045 0.73634803 -0.95173848 -0.18482062
16.66733170 -13.41755486 0.25473502 0.73891592 -0.93062556 0.10288963
16.48438072 -13.44562435 -0.45354441 0.73080516 -0.93257242 -0.18319044
16.98630905 -13.49896240 0.26023868 0.75305724 -0.93627191 0.10511261
16.59659386 -13.36433411 -0.45407858 0.73577988 -0.92693424 -0.18340619
16.84879112 -13.21814728 0.25506523 0.74696064 -0.91679490 0.10302301
16.69850540 -13.31711102 -0.45482051 0.74029797 -0.92365891 -0.18370587
16.90299034 -13.13247681 0.25488180 0.74936342 -0.91085291 0.10294892
17.00199127 -13.38490295 -0.45897526 0.75375247 -0.92836088 -0.18538399
17.07409477 -13.09407520 0.25693649 0.75694907 -0.90818942 0.10377882
17.19004631 -13.35870361 -0.46093389 0.76208955 -0.92654371 -0.18617511
17.08157539 -14.35086536 -0.60098910 0.75728071 -0.99535888 -0.24274459
17.15762520 -12.98774338 0.25697318 0.76065224 -0.90081435 0.10379364
17.41178513 -13.35619545 -0.46351579 0.77191991 -0.92636979 -0.18721795
16.40708923 -13.60809612 -0.58035982 0.72737855 -0.94384128 -0.23441225
17.42965508 -13.02192783 0.26133940 0.77271217 -0.90318537 0.10555720
16.53022766 -13.32051182 0.13233268 0.73283768 -0.92389482 0.05345029
17.57672882 -13.30802059 -0.46502930 0.77923244 -0.92302841 -0.18782927
16.49690437 -13.50854397 -0.58048433 0.73136038 -0.93693650 -0.23446254
17.59487724 -12.97379017 0.26324734 0.78003699 -0.89984661 0.10632783
16.61828613 -13.22012711 0.13240905 0.73674160 -0.91693223 0.05348114
17.86500359 -13.39398193 -0.46921372 0.79201257 -0.92899060 -0.18951941
16.65969467 -13.51135826 -0.58314085 0.73857737 -0.93713170 -0.23553553
17.66066742 -12.89426613 0.26335740 0.78295368 -0.89433092 0.10637229
16.72435188 -13.17636395 0.13312171 0.74144381 -0.91389686 0.05376899
17.43772125 -13.00076962 1.02093983 0.77306974 -0.90171784 0.41236624
17.63030052 -13.04623508 -0.46333772 0.78160745 -0.90487128 -0.18714604
16.71774483 -13.38514614 -0.58243519 0.74115092 -0.92837775 -0.23525052
17.79815674 -12.82390785 0.26464158 0.78904903 -0.88945091 0.10689098
16.88410568 -13.13125515 0.13436887 0.74852622 -0.91076815 0.05427273
17.58184052 -12.93705368 1.02509010 0.77945906 -0.89729857 0.41404259
17.78949547 -12.99174404 -0.46476221 0.78866506 -0.90109187 -0.18772140
16.84540749 -13.31460094 -0.58359742 0.74681062 -0.92348480 -0.23571995
18.44915390 -13.11686039 0.27748343 0.81790978 -0.90976977 0.11207791
17.05663109 -13.09440994 0.13581966 0.75617480 -0.90821266 0.05485871
16.30229950 -13.87883186 -0.66787511 0.72273290 -0.96261919 -0.26976043
17.60456276 -12.78413677 1.02125907 0.78046638 -0.88669246 0.41249520
17.82207108 -12.84468079 -0.46387190 0.79010922 -0.89089173 -0.18736179
17.35091591 -13.53854561 -0.59472150 0.76922143 -0.93901736 -0.24021305
17.64667320 -12.38131905 0.25767031 0.78233325 -0.85875350 0.10407522
17.14812469 -12.99423885 0.13597237 0.76023102 -0.90126491 0.05492039
17.93014526 -12.75212669 -0.46437642 0.79490048 -0.88447231 -0.18756558
16.98289490 -13.07988071 -0.58285028 0.75290585 -0.90720493 -0.23541817
17.65502167 -12.22245884 0.25612929 0.78270340 -0.84773517 0.10345279
17.46948051 -13.06613064 0.13979021 0.77447778 -0.90625119 0.05646245
17.14367867 -14.22640038 -0.68935519 0.76003391 -0.98672616 -0.27843642
16.75911713 -13.51324368 0.05537828 0.74298507 -0.93726248 0.02236775
17.33200073 -13.26801968 0.90250903 0.76838285 -0.92025399 0.36453104
18.16060829 -12.74476433 -0.46710667 0.80511767 -0.88396162 -0.18866834
17.21744537 -13.08923340 -0.58683503 0.76330423 -0.90785360 -0.23702765
17.92643929 -12.24419117 0.26045883 0.79473621 -0.84924251 0.10520153
17.59786034 -12.99059582 0.14052834 0.78016925 -0.90101224 0.05676059
16.69493294 -13.28949261 0.05367300 0.74013960 -0.92174333 0.02167898
17.38956070 -13.18257236 0.90222335 0.77093464 -0.91432750 0.36441568
18.22210693 -12.66018295 -0.46713635 0.80784410 -0.87809515 -0.18868034
17.63332748 -13.27526855 -0.59604973 0.78174162 -0.92075676 -0.24074954
18.04361343 -12.19984531 0.26177970 0.79993087 -0.84616673 0.10573504
17.67501640 -12.91934013 0.14078285 0.78358984 -0.89607000 0.05686339
16.76458931 -13.60415554 -0.67232949 0.74322766 -0.94356799 -0.27155957
16.74951363 -13.20448971 0.05358324 0.74255931 -0.91584766 0.02164273
19.12585449 -13.21035290 1.10054076 0.84791011 -0.91625428 0.44451773
17.48483276 -13.08263779 0.90298522 0.77515835 -0.90739614 0.36472338
19.22283173 -12.88501072 1.88770533 0.85220939 -0.89368898 0.76246017
17.82925606 -12.22249699 -0.45864880 0.79042774 -0.84773779 -0.18525214
17.76450729 -13.20003605 -0.59729493 0.78755724 -0.91553873 -0.24125248
18.24641991 -12.17044640 0.26456821 0.80892193 -0.84412766 0.10686135
17.68776703 -12.75883007 0.13971385 0.78415507 -0.88493723 0.05643161
16.79976463 -13.45859814 -0.67074573 0.74478710 -0.93347228 -0.27091989
16.06420517 -13.87378025 -0.80055439 0.71217740 -0.96226883 -0.32335070
16.82583046 -13.09408188 0.05351144 0.74594271 -0.90818989 0.02161372
18.06573296 -12.31264210 1.02689922 0.80091155 -0.85399014 0.41477332
17.53778076 -12.95113087 0.90127105 0.77750570 -0.89827496 0.36403102
19.35329628 -12.79689980 1.89293838 0.85799330 -0.88757771 0.76457387
17.68856239 -11.96367168 -0.45476115 0.78419036 -0.82978600 -0.18368189
17.83098030 -13.07631874 -0.59687984 0.79050422 -0.90695786 -0.24108483
18.07514381 -11.89311886 0.25913793 0.80132872 -0.82489252 0.10466801
17.87666893 -12.72524643 0.14141916 0.79252970 -0.88260788 0.05712040
16.76315117 -13.25739193 -0.66693473 0.74316394 -0.91951686 -0.26938060
16.22705078 -13.83749962 -0.80367476 0.71939689 -0.95975244 -0.32461104
17.09188080 -13.12925434 0.05559368 0.75773758 -0.91062939 0.02245476
18.20907402 -12.24340343 1.03115594 0.80726629 -0.84918785 0.41649264
17.63655472 -12.85364246 0.90231860 0.78188467 -0.89151329 0.36445412
17.73175621 -11.83123779 -0.45419729 0.78610528 -0.82060051 -0.18345414
17.96459007 -13.00158882 -0.59820813 0.79642755 -0.90177470 -0.24162133
18.19986343 -11.81192780 0.26023868 0.80685794 -0.81926119 0.10511261
17.90066719 -12.57353973 0.14055379 0.79359365 -0.87208569 0.05677086
17.08111572 -13.33490753 -0.67430925 0.75726032 -0.92489326 -0.27235922
16.35951233 -13.77393818 -0.80554694 0.72526932 -0.95534390 -0.32536724
17.15330505 -13.00591564 0.05536032 0.76046067 -0.90207475 0.02236050
16.37255859 -13.39167881 -0.08930593 0.72584772 -0.92883086 -0.03607142
18.19571304 -12.06922150 1.02540934 0.80667394 -0.83710676 0.41417152
17.76234818 -12.77527905 0.90498507 0.78746152 -0.88607812 0.36553115
18.02637672 -11.86451054 -0.45811462 0.79916674 -0.82290828 -0.18503638
17.86705399 -12.76045895 -0.59364229 0.79210347 -0.88505018 -0.23977716
18.46246147 -11.81790829 0.26434806 0.81849974 -0.81967598 0.10677242
17.71485329 -12.27716732 0.13645597 0.78535593 -0.85152966 0.05511572
16.93000603 -13.04691792 -0.66698426 0.75056112 -0.90491867 -0.26940060
17.33509827 -14.41161251 -0.84168035 0.76852018 -0.99957222 -0.33996183
17.43817902 -13.04987144 0.05764002 0.77309006 -0.90512347 0.02328129
16.62118721 -13.42188931 -0.08881942 0.73687023 -0.93092620 -0.03587492
19.60731125 -12.82709408 1.11043775 0.86925459 -0.88967192 0.44851524
18.17105865 -11.79668236 -0.45936105 0.80558097 -0.81820381 -0.18553983
18.07264709 -12.73675632 -0.59683836 0.80121803 -0.88340622 -0.24106808
18.54650116 -11.70806789 0.26456821 0.82222551 -0.81205761 0.10686135
17.86258316 -12.21422482 0.13755041 0.79190522 -0.84716403 0.05555778
17.04668236 -12.96688366 -0.66807306 0.75573379 -0.89936757 -0.26984036
16.66563606 -13.67773628 -0.81097633 0.73884076 -0.94867146 -0.32756022
17.67276001 -13.05278111 0.05934530 0.78348976 -0.90532529 0.02397007
16.74894714 -13.35214138 -0.08869091 0.74253422 -0.92608857 -0.03582301
17.47987938 -13.24029064 0.80542135 0.77493876 -0.91833073 0.32531652
17.06314468 -13.96089363 0.66908467 0.75646359 -0.96831089 0.27024898
18.39142418 -11.81670570 -0.46226937 0.81535047 -0.81959260 -0.18671452
18.57658386 -12.96192932 -0.60808694 0.82355917 -0.89902395 -0.24561147
18.00269508 -12.18604279 0.13882303 0.79811686 -0.84520936 0.05607180
17.11878395 -12.89482021 -0.66841954 0.75893027 -0.89436930 -0.26998031
16.77175522 -13.63313389 -0.81266129 0.74354535 -0.94557786 -0.32824078
17.75992012 -12.98822117 0.05963250 0.78735387 -0.90084749 0.02408607
16.88383484 -13.33014297 -0.08847979 0.74851424 -0.92456281 -0.03573774
18.82537270 -13.05347061 0.95402926 0.83458877 -0.90537316 0.38534051
19.32178688 -12.98683739 1.78104103 0.85659641 -0.90075153 0.71937758
17.47945023 -13.06806278 0.80095124 0.77491975 -0.90638524 0.32351100
18.69517326 -11.84627628 -0.46630540 0.82881665 -0.82164359 -0.18834470
17.75566483 -12.22277737 -0.58534074 0.78716522 -0.84775722 -0.23642409
20.63487434 -12.70877457 0.30679950 0.91480976 -0.88146544 0.12391892
18.17198181 -12.13496876 0.14024836 0.80562186 -0.84166694 0.05664750
17.43389320 -12.96094608 -0.67564559 0.77290004 -0.89895576 -0.27289897
16.80099869 -13.48239136 -0.81041467 0.74484181 -0.93512255 -0.32733336
17.75192451 -12.81208706 0.05864523 0.78699940 -0.88863105 0.02368731
16.82854080 -13.11547375 -0.08888368 0.74606287 -0.90967357 -0.03590087
19.78712082 -12.46196079 1.10799015 0.87722611 -0.86434674 0.44752660
18.04521942 -12.34422112 0.90422320 0.80000210 -0.85618043 0.36522341
19.31666946 -12.80782604 1.77249587 0.85636955 -0.88833553 0.71592611
17.55799484 -12.95560932 0.80077928 0.77840185 -0.89858562 0.32344154
18.71323967 -11.69365788 -0.46532607 0.82961756 -0.81105816 -0.18794915
17.53290558 -11.90735054 -0.57782781 0.77728957 -0.82587963 -0.23338956
20.24746704 -12.29591084 0.29678288 0.89763474 -0.85282969 0.11987312
18.32464409 -12.07122898 0.14141916 0.81238991 -0.83724600 0.05712040
17.59080124 -12.90667057 -0.67797172 0.77985626 -0.89519125 -0.27383852
16.95114136 -13.42875957 -0.81303573 0.75149810 -0.93140274 -0.32839203
17.94128799 -12.77792740 0.05984791 0.79539448 -0.88626176 0.02417308
17.07535362 -13.13646317 -0.08840635 0.75700486 -0.91112942 -0.03570808
16.32194328 -13.59402657 -0.20847625 0.72360379 -0.94286543 -0.08420532
18.11580276 -12.22612000 0.90384227 0.80313128 -0.84798908 0.36506957
17.66652870 -12.86500454 0.80224067 0.78321356 -0.89230138 0.32403180
19.04527283 -11.73506832 -0.46983692 0.84433764 -0.81393033 -0.18977112
17.41480064 -11.66766167 -0.57301295 0.77205360 -0.80925506 -0.23144479
21.32850838 -12.76849842 0.31824708 0.94556075 -0.88560778 0.12854269
18.37666512 -11.94057846 0.14106283 0.81469613 -0.82818425 0.05697647
17.68775368 -12.80760098 -0.67846668 0.78415447 -0.88831991 -0.27403843
17.59850311 -13.76337719 -0.83537728 0.78019774 -0.95461142 -0.33741596
17.98519897 -12.63968277 0.05945300 0.79734123 -0.87667328 0.02401357
17.17506218 -13.04223824 -0.08835587 0.76142526 -0.90459406 -0.03568769
18.25209236 -12.15196609 0.90727061 0.80917341 -0.84284586 0.36645430
17.78111076 -12.77820492 0.80404592 0.78829330 -0.88628101 0.32476097
19.58375931 -11.89717484 -0.47790900 0.86821049 -0.82517385 -0.19303149
17.60946465 -11.63861275 -0.57604301 0.78068370 -0.80724031 -0.23266865
21.42554283 -12.64438534 0.31861398 0.94986260 -0.87699950 0.12869088
18.47151947 -11.83784676 0.14136826 0.81890136 -0.82105893 0.05709984
17.79880714 -12.71827030 -0.67940706 0.78907788 -0.88212407 -0.27441826
17.70835304 -13.67087650 -0.83631337 0.78506774 -0.94819570 -0.33779407
17.77318382 -12.32498455 0.05627579 0.78794187 -0.85484624 0.02273027
17.45497513 -13.08299255 -0.08778675 0.77383471 -0.90742075 -0.03545781
16.37803841 -13.29594135 -0.20799078 0.72609067 -0.92219061 -0.08400924
19.61806297 -12.88595867 0.98088455 0.86973125 -0.89375472 0.39618757
17.94748878 -12.72741222 0.80860204 0.79566938 -0.88275814 0.32660121
20.83736992 -12.47876072 -0.49829689 0.92378706 -0.86551195 -0.20126633
18.24303055 -11.89410877 -0.58994806 0.80877167 -0.82496119 -0.23828502
20.51886177 -11.93719578 0.29770014 0.90966654 -0.82794964 0.12024361
18.59453011 -11.75258446 0.14210637 0.82435477 -0.81514525 0.05739797
17.81623268 -12.56246281 -0.67752630 0.78985041 -0.87131745 -0.27365860
17.05823898 -12.99769592 -0.80741912 0.75624609 -0.90150470 -0.32612342
17.85357666 -12.21532536 0.05631169 0.79150593 -0.84724039 0.02274477
17.81158829 -13.17671204 -0.08700191 0.78964448 -0.91392100 -0.03514081
16.57622147 -13.32751274 -0.20856935 0.73487675 -0.92438036 -0.08424293
19.31475258 -13.55886364 0.87728721 0.85628456 -0.94042659 0.35434374
20.05937767 -11.88572502 -0.48387399 0.88929617 -0.82437968 -0.19544081
18.33749580 -11.83298111 -0.59090275 0.81295961 -0.82072145 -0.23867063
20.68412971 -11.90311241 0.30001166 0.91699338 -0.82558566 0.12117726
17.82109642 -12.44064903 -0.67589301 0.79006600 -0.86286855 -0.27299893
17.17830086 -12.96177292 -0.80972821 0.76156884 -0.89901310 -0.32705608
18.03686714 -12.21617317 0.05767592 0.79963183 -0.84729916 0.02329579
17.90895462 -13.11866379 -0.08690094 0.79396105 -0.90989488 -0.03510003
16.76937294 -13.31002998 -0.20903485 0.74343973 -0.92316777 -0.08443095
19.26807785 -13.34633160 0.87041008 0.85421532 -0.92568564 0.35156602
17.45595169 -13.08683872 0.66067111 0.77387798 -0.90768749 0.26685068
19.28171730 -12.94363880 1.64634407 0.85482001 -0.89775532 0.66497231
17.03538513 -13.78055096 0.55818015 0.75523293 -0.95580256 0.22545370
20.92667198 -12.22170067 -0.49749562 0.92774606 -0.84768254 -0.20094270
19.02852631 -12.11104107 -0.60609460 0.84359521 -0.84000736 -0.24480675
20.74980927 -11.76799202 0.29982823 0.91990519 -0.81621385 0.12110317
17.01906395 -11.72362232 -0.64946359 0.75450933 -0.81313646 -0.26232386
17.42922783 -12.98030758 -0.81634331 0.77269322 -0.90029866 -0.32972798
18.14654541 -12.12479496 0.05803492 0.80449420 -0.84096128 0.02344080
17.85334969 -12.90615940 -0.08729106 0.79149592 -0.89515579 -0.03525760
16.91411400 -13.25245094 -0.20929420 0.74985659 -0.91917419 -0.08453570
17.95342445 -12.27129078 0.79759860 0.79593253 -0.85112208 0.32215685
17.55870438 -12.99237633 0.66162223 0.77843332 -0.90113568 0.26723483
19.34769058 -12.81233788 1.64496493 0.85774481 -0.88864845 0.66441530
21.46602440 -12.35595894 -0.50541931 0.95165730 -0.85699457 -0.20414315
19.52740479 -12.25738049 -0.61647147 0.86571211 -0.85015726 -0.24899806
21.03290749 -11.75427055 0.30423114 0.93245584 -0.81526220 0.12288154
19.43008995 -11.81668663 0.15157463 0.86139780 -0.81959128 0.06122228
17.10066223 -11.62206841 -0.64971107 0.75812685 -0.80609280 -0.26242381
17.48951721 -12.85513115 -0.81553197 0.77536607 -0.89161652 -0.32940027
18.31259537 -12.06988621 0.05900424 0.81185573 -0.83715290 0.02383231
17.91619110 -12.78093624 -0.08734155 0.79428184 -0.88647050 -0.03527799
17.00021362 -13.14836025 -0.20930751 0.75367367 -0.91195458 -0.08454107
16.32932091 -13.63843536 -0.30724362 0.72393084 -0.94594562 -0.12409830
19.88401794 -12.40007210 0.97907513 0.88152188 -0.86005419 0.39545676
18.12300491 -12.22071743 0.80241263 0.80345058 -0.84761435 0.32410127
17.59644127 -12.84992981 0.65964687 0.78010631 -0.89125580 0.26643696
19.40943718 -12.67854023 1.64327931 0.86048222 -0.87936842 0.66373444
21.42141914 -12.15187168 -0.50334191 0.94967979 -0.84283930 -0.20330407
19.57854462 -12.11863708 -0.61584890 0.86797929 -0.84053421 -0.24874659
19.44223976 -11.65729427 0.15065834 0.86193645 -0.80853599 0.06085218
17.44587517 -11.69672966 -0.65782797 0.77343124 -0.81127119 -0.26570231
17.66211319 -12.81197929 -0.81908917 0.78301775 -0.88862360 -0.33083707
18.37800407 -11.94805622 0.05889654 0.81475550 -0.82870293 0.02378881
17.53034592 -12.33958054 -0.08864961 0.77717614 -0.85585856 -0.03580633
17.17475891 -13.11158752 -0.20969321 0.76141179 -0.90940404 -0.08469687
16.38231277 -13.50881577 -0.30690923 0.72628015 -0.93695533 -0.12396324
18.32595062 -12.19059849 0.80894589 0.81244779 -0.84552538 0.32674012
17.72544289 -12.77421665 0.66184169 0.78582537 -0.88600439 0.26732346
21.56720352 -12.05601120 -0.50452900 0.95614290 -0.83619052 -0.20378354
19.59800720 -11.96095753 -0.61447912 0.86884212 -0.82959771 -0.24819332
20.34790611 -12.02816582 0.16297726 0.90208751 -0.83425921 0.06582790
17.46395683 -11.55053997 -0.65619469 0.77423286 -0.80113167 -0.26504260
17.76175690 -12.71473408 -0.81983805 0.78743529 -0.88187879 -0.33113953
18.39206886 -11.79354191 0.05825033 0.81537902 -0.81798601 0.02352780
17.64528847 -12.25546837 -0.08854404 0.78227186 -0.85002464 -0.03576369
17.61804390 -13.27508926 -0.21119614 0.78106403 -0.92074436 -0.08530391
16.44517136 -13.38791943 -0.30668631 0.72906685 -0.92857009 -0.12387320
19.40464020 -12.80165577 2.47580838 0.86026955 -0.88790756 1.00000000
18.06786156 -11.85627842 0.79175305 0.80100590 -0.82233733 0.31979576
17.89650536 -12.72754478 0.66593874 0.79340911 -0.88276732 0.26897830
17.39059067 -13.35904503 0.55875170 0.77098030 -0.92656744 0.22568455
21.77396202 -11.99251366 -0.50675476 0.96530914 -0.83178645 -0.20468254
19.59742737 -11.79215622 -0.61265278 0.86881644 -0.81788987 -0.24745566
20.36436081 -11.86579800 0.16211188 0.90281701 -0.82299757 0.06547836
18.29858208 -11.93691444 -0.67871416 0.81123447 -0.82793015 -0.27413839
16.92103004 -11.95153332 -0.78464073 0.75016320 -0.82894409 -0.31692305
18.48948479 -11.69269276 0.05850163 0.81969780 -0.81099123 0.02362930
17.85219193 -12.23379612 -0.08818146 0.79144460 -0.84852147 -0.03561724
17.89053726 -13.34840488 -0.21206731 0.79314452 -0.92582941 -0.08565579
16.51429939 -13.31530190 -0.30675000 0.73213154 -0.92353344 -0.12389892
19.34273148 -13.21306324 1.51636791 0.85752493 -0.91644228 0.61247385
17.43583679 -13.26364899 0.55805314 0.77298623 -0.91995084 0.22540240
17.00331688 -13.94543648 0.41164750 0.75381124 -0.96723884 0.16626792
19.63560677 -11.68943024 -0.61223769 0.87050903 -0.81076491 -0.24728799
20.68154907 -11.92072392 0.16595517 0.91687900 -0.82680720 0.06703070
18.36639404 -11.85813236 -0.67906058 0.81424081 -0.82246590 -0.27427831
16.96079063 -11.86019135 -0.78401667 0.75192589 -0.82260871 -0.31667098
20.78348160 -13.00381184 0.08219606 0.92139798 -0.90192884 0.03319968
17.98903847 -12.20350170 -0.08796115 0.79751140 -0.84642029 -0.03552825
17.68397713 -13.02253342 -0.21087028 0.78398705 -0.90322739 -0.08517230
16.70083046 -13.29358006 -0.30780095 0.74040103 -0.92202681 -0.12432341
17.99928093 -12.50487518 0.66432917 0.79796553 -0.86732322 0.26832819
19.32946968 -13.02651978 1.50819492 0.85693699 -0.90350384 0.60917270
17.54602432 -13.17421436 0.55913275 0.77787119 -0.91374779 0.22583847
17.10768127 -13.85218239 0.41219711 0.75843805 -0.96077085 0.16648991
20.14130020 -11.82023239 -0.62265617 0.89292806 -0.81983721 -0.25149611
18.71559906 -11.91729259 -0.68712801 0.82972217 -0.82656920 -0.27753684
16.83108521 -11.61241817 -0.77627826 0.74617565 -0.80542344 -0.31354538
21.05379868 -12.98937416 0.08418854 0.93338203 -0.90092748 0.03400446
17.90755653 -11.98441029 -0.08839718 0.79389906 -0.83122438 -0.03570437
17.81240082 -12.94521904 -0.21106315 0.78968048 -0.89786494 -0.08525019
16.84688187 -13.23787022 -0.30843788 0.74687600 -0.91816288 -0.12458067
17.97534943 -12.32138062 0.65979320 0.79690456 -0.85459626 0.26649606
19.34285927 -12.85946751 1.50241745 0.85753059 -0.89191729 0.60683912
17.46291542 -12.94127464 0.55259168 0.77418673 -0.89759135 0.22319646
17.19437981 -13.74441910 0.41219711 0.76228166 -0.95329648 0.16648991
21.18050003 -12.25296497 -0.64581746 0.93899906 -0.84985101 -0.26085114
20.95529556 -11.73033619 0.16778775 0.92901504 -0.81360209 0.06777089
19.48133850 -12.23264790 -0.70732129 0.86366981 -0.84844184 -0.28569308
16.95490837 -11.54135895 -0.77821285 0.75166512 -0.80049485 -0.31432676
19.80845070 -12.05136299 0.07025909 0.87817174 -0.83586812 0.02837824
18.36448479 -12.12435150 -0.08734614 0.81415617 -0.84093052 -0.03527984
17.94054794 -12.86680508 -0.21125600 0.79536170 -0.89242625 -0.08532809
16.91235352 -13.11825752 -0.30826271 0.74977857 -0.90986669 -0.12450992
17.99119377 -12.16671181 0.65708619 0.79760695 -0.84386861 0.26540267
17.57617378 -12.85486889 0.55386180 0.77920783 -0.89159834 0.22370948
16.80517006 -13.26039314 0.39705816 0.74502677 -0.91972506 0.16037516
21.36818886 -12.18311977 -0.64847392 0.94731992 -0.84500664 -0.26192412
21.08109474 -11.62745953 0.16855131 0.93459213 -0.80646670 0.06807930
17.33224106 -11.63996601 -0.78969568 0.76839352 -0.80733413 -0.31896478
19.56118202 -11.73354912 0.06688444 0.86720955 -0.81382495 0.02701519
18.37330246 -11.96500683 -0.08752973 0.81454706 -0.82987857 -0.03535400
18.03737450 -12.76536655 -0.21132250 0.79965430 -0.88539058 -0.08535495
17.12297440 -13.11033821 -0.30955249 0.75911605 -0.90931743 -0.12503088
19.94679642 -12.25171757 0.86912066 0.88430506 -0.84976453 0.35104519
18.18359375 -12.13118362 0.66220748 0.80613667 -0.84140444 0.26747122
19.43260765 -12.56981850 1.49649906 0.86150944 -0.87182760 0.60444868
17.66308403 -12.74885464 0.55411583 0.78306079 -0.88424534 0.22381209
21.57674217 -12.12316799 -0.65162849 0.95656574 -0.84084845 -0.26319829
21.18359375 -11.51103210 0.16898400 0.93913621 -0.79839146 0.06825407
19.56180573 -11.94318390 -0.70524257 0.86723721 -0.82836497 -0.28485346
17.55492210 -11.63034534 -0.79531229 0.77826566 -0.80666685 -0.32123336
20.05133438 -11.85638428 0.07122841 0.88893956 -0.82234466 0.02876976
18.49016190 -11.87638950 -0.08741499 0.81972784 -0.82373220 -0.03530765
17.68266296 -12.39025116 -0.20964001 0.78392881 -0.85937303 -0.08467538
17.60817146 -13.35131454 -0.31378806 0.78062636 -0.92603123 -0.12674166
19.23985672 -12.77679062 2.30066657 0.85296416 -0.88618296 0.92925876
18.14221764 -11.98028851 0.65789098 0.80430233 -0.83093852 0.26572776
17.81410408 -12.73048019 0.55767208 0.78975600 -0.88297093 0.22524849
17.45934486 -13.46851540 0.41314641 0.77402842 -0.93416017 0.16687334
21.67206573 -12.04275513 -0.65254170 0.96079177 -0.83527112 -0.26356712
19.64355469 -11.86635303 -0.70598495 0.87086141 -0.82303607 -0.28515330
18.24436188 -11.96465969 -0.81902677 0.80883074 -0.82985449 -0.33081186
20.40923309 -11.93821335 0.07436972 0.90480638 -0.82802022 0.03003856
19.24934196 -12.23718262 -0.08550109 0.85338467 -0.84875637 -0.03453461
17.81613350 -12.31752205 -0.20986612 0.78984600 -0.85432863 -0.08476671
17.80851746 -13.32800102 -0.31495047 0.78950834 -0.92441422 -0.12721117
18.33596611 -11.94362450 0.66308546 0.81289184 -0.82839555 0.26782584
17.12079048 -13.03596783 0.39985612 0.75901920 -0.90415919 0.16150528
19.31214333 -13.19529438 1.38880813 0.85616887 -0.91520989 0.56095135
21.88755417 -11.98328304 -0.65586227 0.97034502 -0.83114618 -0.26490834
19.64209938 -11.69774914 -0.70380723 0.87079686 -0.81134194 -0.28427371
18.31079102 -11.84435463 -0.81871474 0.81177574 -0.82151031 -0.33068582
20.49944115 -11.81872082 0.07453127 0.90880555 -0.81973237 0.03010381
19.63069153 -12.30748940 -0.08467495 0.87029111 -0.85363275 -0.03420093
17.78901863 -12.13443375 -0.20944716 0.78864390 -0.84162986 -0.08459748
17.73597336 -13.10044289 -0.31340590 0.78629225 -0.90863109 -0.12658730
17.57039833 -12.22627163 0.54211330 0.77895176 -0.84799957 0.21896416
17.40200806 -13.07847595 0.40610155 0.77148646 -0.90710747 0.16402785
19.30360031 -13.01241875 1.38164222 0.85579014 -0.90252584 0.55805701
19.76006317 -11.60038280 -0.70509410 0.87602657 -0.80458868 -0.28479350
17.78356552 -11.34467888 -0.79643559 0.78840214 -0.78685337 -0.32168710
20.98038101 -11.92052841 0.07873165 0.93012714 -0.82679361 0.03180038
19.45940208 -12.03013706 -0.08534504 0.86269730 -0.83439595 -0.03447159
17.68891716 -11.90422821 -0.20874225 0.78420609 -0.82566303 -0.08431277
17.74687386 -12.93684483 -0.31270528 0.78677547 -0.89728409 -0.12630431
17.97173500 -12.33821678 0.55462384 0.79674429 -0.85576397 0.22401728
17.55123711 -13.01896954 0.40820003 0.77810228 -0.90298021 0.16487545
19.44982719 -12.93391705 1.38672352 0.86227286 -0.89708102 0.56010938
19.94337273 -11.53998756 -0.70826167 0.88415331 -0.80039978 -0.28607288
17.94073486 -11.28709030 -0.79961830 0.79536998 -0.78285909 -0.32297263
21.07232285 -11.79822540 0.07891115 0.93420327 -0.81831080 0.03187288
19.47486687 -11.87114620 -0.08550568 0.86338294 -0.82336855 -0.03453647
18.11015892 -12.02260685 -0.21012548 0.80288106 -0.83387363 -0.08487146
17.87972450 -12.86250401 -0.31321484 0.79266518 -0.89212793 -0.12651013
18.12839508 -12.27878952 0.55767208 0.80368954 -0.85164219 0.22524849
17.57626343 -12.86704731 0.40645128 0.77921176 -0.89244306 0.16416912
20.21010780 -11.52521420 -0.71380490 0.89597851 -0.79937512 -0.28831184
19.46789551 -12.07974625 -0.85316318 0.86307389 -0.83783680 -0.34459984
21.17056465 -11.67909622 0.07916246 0.93855864 -0.81004816 0.03197439
19.59019089 -11.77331066 -0.08539553 0.86849558 -0.81658280 -0.03449198
18.23389244 -11.94030952 -0.21031833 0.80836660 -0.82816559 -0.08494936
17.92107391 -12.72208881 -0.31283268 0.79449832 -0.88238889 -0.12635577
17.66324043 -12.76104832 0.40665114 0.78306776 -0.88509107 0.16424984
21.58130264 -12.12661362 -0.75067741 0.95676792 -0.84108746 -0.30320498
19.55363655 -11.96345711 -0.85353762 0.86687505 -0.82977110 -0.34475109
21.24528503 -11.54680157 0.07918040 0.94187123 -0.80087239 0.03198164
21.47469521 -12.72506428 -0.08056261 0.95204169 -0.88259524 -0.03253992
18.27652168 -11.84556198 -0.21026513 0.81025648 -0.82159406 -0.08492787
18.00371933 -12.65361786 -0.31305560 0.79816228 -0.87763983 -0.12644581
19.43819427 -12.90644455 2.21058393 0.86175710 -0.89517558 0.89287359
20.05205727 -12.22682571 0.72176081 0.88897163 -0.84803802 0.29152530
18.10882378 -11.97740841 0.55182964 0.80282187 -0.83073872 0.22288866
17.81093407 -12.74056721 0.40934917 0.78961545 -0.88367051 0.16533960
21.79382133 -12.11108875 -0.75508237 0.96618956 -0.84001064 -0.30498418
19.78583908 -11.97796631 -0.85996550 0.87716931 -0.83077747 -0.34734735
21.34352303 -11.47018909 0.07962916 0.94622642 -0.79555863 0.03216289
20.56694221 -12.05551815 -0.08313741 0.91179812 -0.83615637 -0.03357990
20.18508530 -12.90077209 -0.21750048 0.89486915 -0.89478213 -0.08785029
17.81023407 -12.35080719 -0.31041235 0.78958446 -0.85663724 -0.12537818
20.38015747 -12.25218868 0.73251551 0.90351737 -0.84979719 0.29586923
18.19712448 -11.87211704 0.55233765 0.80673653 -0.82343584 0.22309385
18.04570770 -12.73808479 0.41409573 0.80002373 -0.88349837 0.16725677
19.35750961 -13.26096439 1.25983906 0.85818011 -0.91976464 0.50885969
21.88878632 -11.98446274 -0.75562674 0.97039968 -0.83122802 -0.30520403
20.13178062 -12.01551914 -0.86982572 0.89250600 -0.83338207 -0.35132998
20.39303398 -11.78176880 -0.08379833 0.90408820 -0.81716943 -0.03384686
19.45317841 -12.26248837 -0.21430841 0.86242139 -0.85051155 -0.08656099
17.78026772 -12.16515160 -0.30937734 0.78825593 -0.84376037 -0.12496013
19.79359818 -12.73508835 0.60980999 0.87751329 -0.88329053 0.24630743
17.72204781 -12.34296989 0.40180469 0.78567487 -0.85609365 0.16229232
18.08157349 -12.21894646 1.16206741 0.80161381 -0.84749156 0.46936888
19.72470093 -11.60453701 -0.85235190 0.87445885 -0.80487680 -0.34427217
21.03644562 -11.97848320 -0.08229291 0.93261272 -0.83081329 -0.03323881
19.48395538 -12.11155128 -0.21412885 0.86378586 -0.84004271 -0.08648846
17.62774277 -11.89856911 -0.30717993 0.78149402 -0.82527053 -0.12407257
18.81773186 -11.94199276 0.57011914 0.83425003 -0.82828236 0.23027596
17.79925156 -12.23137569 0.40180469 0.78909755 -0.84835362 0.16229232
19.36490631 -12.91131783 1.24853945 0.85850805 -0.89551359 0.50429565
19.97006607 -11.58081055 -0.85859257 0.88533670 -0.80323118 -0.34679282
21.31352043 -11.95977116 -0.08176051 0.94489628 -0.82951546 -0.03302376
19.67568398 -12.05986023 -0.21458106 0.87228578 -0.83645749 -0.08667111
17.81195259 -11.86083984 -0.30823088 0.78966063 -0.82265371 -0.12449706
18.12878799 -12.29119968 0.40944910 0.80370694 -0.85250294 0.16537996
19.56901169 -12.87068081 1.25734127 0.86755669 -0.89269507 0.50785083
20.29569817 -11.60015392 -0.86770391 0.89977300 -0.80457282 -0.35047296
21.65416527 -11.97293568 -0.08106288 0.95999819 -0.83042854 -0.03274198
21.17596436 -12.79537868 -0.22011398 0.93879801 -0.88747221 -0.08890590
17.95294571 -11.79267406 -0.30886778 0.79591131 -0.81792581 -0.12475432
18.06780624 -12.08466244 0.40530214 0.80100346 -0.83817774 0.16370498
20.65891075 -11.63649082 -0.87812585 0.91587538 -0.80709308 -0.35468248
20.72765732 -12.39209843 -0.21814553 0.91892314 -0.85950112 -0.08811083
18.20437431 -11.83567047 -0.31073081 0.80705792 -0.82090795 -0.12550682
19.27980042 -12.84428024 2.01542735 0.85473502 -0.89086396 0.81404817
20.01644516 -12.22153187 0.60714281 0.88739282 -0.84767085 0.24523012
18.14954376 -12.01596546 0.40605161 0.80462712 -0.83341300 0.16400769
21.84983826 -12.17330360 -0.91875255 0.96867299 -0.84432578 -0.37109193
20.63617134 -12.16224480 -0.21749382 0.91486728 -0.84355879 -0.08784760
18.41129875 -11.80646706 -0.31198874 0.81623155 -0.81888247 -0.12601490
18.22301102 -11.90059757 0.40600163 0.80788416 -0.82541126 0.16398750
19.72272110 -12.48893547 1.25270247 0.87437111 -0.86621767 0.50597715
22.55646515 -12.38258457 -0.94121891 1.00000000 -0.85884130 -0.38016629
20.68622780 -12.01729774 -0.21739407 0.91708642 -0.83350545 -0.08780731
19.08481216 -12.07059860 -0.31764150 0.84609056 -0.83720231 -0.12829809
20.57090759 -12.20741367 0.62200302 0.91197389 -0.84669161 0.25123230
18.41333389 -11.86067867 0.40944910 0.81632179 -0.82264251 0.16537996
20.95407486 -11.99722862 -0.21813224 0.92896092 -0.83211344 -0.08810546
19.46046257 -12.13805294 -0.32045990 0.86274433 -0.84188086 -0.12943648
18.52797127 -11.77051926 0.41064823 0.82140404 -0.81638914 0.16586430
21.25210381 -11.99094677 -0.21898346 0.94217348 -0.83167773 -0.08844928
19.52612877 -12.00924492 -0.32036436 0.86565554 -0.83294690 -0.12939788
18.54906845 -11.62091732 0.40909937 0.82233936 -0.80601293 0.16523871
21.72924995 -12.08036613 -0.22051299 0.96332693 -0.83787978 -0.08906706
19.57727051 -11.87178326 -0.32014143 0.86792278 -0.82341272 -0.12930784
22.01211929 -12.10194969 -0.22137085 0.97586739 -0.83937681 -0.08941356
19.87810326 -11.92675114 -0.32241845 0.88125968 -0.82722521 -0.13022755
20.09372711 -11.88523197 -0.32372415 0.89081895 -0.82434547 -0.13075493
20.41149330 -11.90099144 -0.32596934 0.90490657 -0.82543856 -0.13166177
21.22418785 -12.19764137 -0.33275262 0.94093591 -0.84601384 -0.13440160
20.44463539 -11.97611427 0.45421642 0.90637589 -0.83064896 0.18346186
21.18734932 -11.99988747 -0.33171761 0.93930274 -0.83229786 -0.13398355
20.69773483 -11.95054626 0.45936269 0.91759658 -0.82887560 0.18554048
21.63606453 -12.12015247 -0.33530033 0.95919573 -0.84063929 -0.13543065
20.76596832 -11.85982895 0.45971242 0.92062157 -0.82258356 0.18568175
21.74154282 -12.00042439 -0.33557102 0.96387190 -0.83233511 -0.13553998
