10.64779949 -17.67046165 -0.44401819 0.79196239 -0.96730095 -0.15608989
11.05797005 -17.58764839 0.24332413 0.82247007 -0.96276766 0.08553801
10.39846897 -16.31298447 0.21709010 0.77341765 -0.89299113 0.07631572
10.86389446 -16.57882690 0.22582255 0.80803508 -0.90754366 0.07938552
10.63845539 -17.98529625 -0.57164317 0.79126740 -0.98453534 -0.20095509
11.06130219 -16.70740318 0.22978517 0.82271791 -0.91458207 0.08077854
10.93545818 -17.90622330 0.12917660 0.81335789 -0.98020679 0.04541066
11.28882217 -16.82009125 0.23382118 0.83964038 -0.92075074 0.08219735
11.13501358 -17.97835732 0.13128914 0.82820040 -0.98415554 0.04615330
11.35598373 -16.69265366 0.23257369 0.84463573 -0.91377467 0.08175881
11.22969913 -17.87923241 0.13085645 0.83524293 -0.97872931 0.04600120
10.22373486 -18.26780128 -0.65609568 0.76042128 -1.00000000 -0.23064348
11.28885269 -16.82422638 -0.43852800 0.83964264 -0.92097706 -0.15415986
11.78007984 -17.08324814 0.24288385 0.87617916 -0.93515623 0.08538324
10.42254448 -16.36185646 0.10904384 0.77520835 -0.89566642 0.03833320
10.20973110 -17.97731400 -0.64966160 0.75937968 -0.98409837 -0.22838165
10.07559204 -14.49004745 1.40678990 0.74940270 -0.79320151 0.49454206
11.32338142 -16.64886093 -0.43665835 0.84221083 -0.91137737 -0.15350261
10.21240997 -14.61752224 0.18931504 0.75957894 -0.80017960 0.06655169
10.35507298 -16.03212357 0.10504782 0.77018994 -0.87761647 0.03692845
10.51448059 -18.24522972 -0.65916431 0.78204638 -0.99876440 -0.23172222
11.29250050 -16.38159180 -0.43312684 0.83991396 -0.89674675 -0.15226114
12.21719170 -17.24859238 0.24996521 0.90869069 -0.94420737 0.08787262
10.67545128 -16.30326080 0.11016374 0.79401904 -0.89245886 0.03872690
10.35092926 -17.70442200 -0.64555365 0.76988173 -0.96915996 -0.22693753
9.96311855 -14.47360420 2.00565648 0.74103713 -0.79230136 0.70506728
9.94982719 -14.39956188 0.79458773 0.74004859 -0.78824824 0.27932888
10.14733791 -14.57672882 -0.40143210 0.75473905 -0.79794651 -0.14111920
10.94384956 -16.54318428 0.11459244 0.81398201 -0.90559250 0.04028376
10.42099762 -17.63308334 -0.64491022 0.77509332 -0.96525484 -0.22671135
11.12097740 -16.58379364 0.11627229 0.82715642 -0.90781552 0.04087429
10.61396313 -17.70436478 -0.64886969 0.78944570 -0.96915686 -0.22810325
11.40905476 -16.78502274 0.12044647 0.84858304 -0.91883105 0.04234168
10.14130497 -18.15352631 -0.78707457 0.75429028 -0.99374443 -0.27668771
11.44178486 -16.60753632 0.11881752 0.85101748 -0.90911525 0.04176904
11.00589371 -17.84511185 -0.65688759 0.81859672 -0.97686148 -0.23092186
10.16659069 -17.93285179 -0.78145796 0.75617099 -0.98166448 -0.27471325
10.12014294 -14.57681751 1.32469440 0.75271630 -0.79795140 0.46568227
11.29294586 -16.66909027 -0.55582875 0.83994710 -0.91248477 -0.19539569
10.23801804 -14.65821266 0.08970009 0.76148367 -0.80240709 0.03153311
11.21124458 -17.92468834 -0.66124302 0.83387029 -0.98121762 -0.23245297
10.24722195 -17.81313896 -0.77946097 0.76216823 -0.97511125 -0.27401122
11.22198391 -17.39240837 0.04792889 0.83466911 -0.95208001 0.01684889
10.85475254 -18.26588249 -0.08908562 0.80735517 -0.99989498 -0.03131711
11.32060146 -16.48563957 -0.55300623 0.84200406 -0.90244246 -0.19440347
12.10060883 -17.10118866 0.12876937 0.90001947 -0.93613833 0.04526750
10.40622234 -17.82959366 -0.78239411 0.77399433 -0.97601205 -0.27504236
11.30691910 -17.28475952 0.04753399 0.84098637 -0.94618720 0.01671007
10.06018448 -14.56301308 1.92158008 0.74825674 -0.79719573 0.67551106
10.05243587 -14.58801937 0.70652264 0.74768043 -0.79856461 0.24837054
10.24195862 -14.76164913 -0.51083440 0.76177675 -0.80806929 -0.17957841
10.40657139 -13.49530602 0.17482211 0.77402031 -0.73874825 0.06145686
10.27514076 -17.41514397 -0.76916391 0.76424474 -0.95332456 -0.27039140
11.17731762 -16.91281700 0.04410547 0.83134687 -0.92582661 0.01550481
12.63024998 -16.16116142 0.23848093 0.93941313 -0.88468015 0.08383544
10.50734615 -17.55619621 -0.77665269 0.78151572 -0.96104592 -0.27302402
10.82518482 -16.15983200 0.03672789 0.80515593 -0.88460737 0.01291130
9.87876129 -12.81550598 -0.37798750 0.73476285 -0.70153522 -0.13287750
10.61123276 -17.47957039 -0.77627826 0.78924263 -0.95685136 -0.27289239
11.29894638 -16.63875961 0.04266945 0.84039342 -0.91082442 0.01499999
9.97259235 -14.63802910 2.44731975 0.74174178 -0.80130219 0.86032927
11.50433254 -16.71395493 0.04426702 0.85566962 -0.91494071 0.01556160
9.96750069 -14.43514252 2.42246509 0.74136311 -0.79019594 0.85159189
10.16813278 -14.64548492 1.23183453 0.75628573 -0.80171031 0.43303835
10.02538300 -14.62467957 2.83568454 0.74566829 -0.80057144 0.99685484
10.92940712 -17.50433731 -0.78214449 0.81290781 -0.95820713 -0.27495459
10.22489071 -14.66131878 0.02258304 0.76050723 -0.80257708 0.00793883
11.06616688 -17.17549515 -0.09095821 0.82307971 -0.94020593 -0.03197539
10.12619591 -14.46943569 2.43980551 0.75316656 -0.79207319 0.85768771
11.38458252 -16.59461975 -0.63605088 0.84676284 -0.90840816 -0.22359695
10.04372978 -14.45609379 2.81491518 0.74703288 -0.79134285 0.98955357
11.21208858 -17.16426849 -0.09079757 0.83393312 -0.93959135 -0.03191892
10.03188515 -14.63556290 1.85686707 0.74615186 -0.80116719 0.65276194
10.05025005 -14.58719635 0.62412333 0.74751782 -0.79851955 0.21940394
10.37196255 -12.81837749 -0.38255769 0.77144617 -0.70169240 -0.13448410
10.20355129 -14.72779751 -0.58141029 0.75892007 -0.80621618 -0.20438862
10.21738815 -14.55877590 2.84463143 0.75994921 -0.79696375 1.00000000
11.30759716 -17.55015564 0.62628531 0.84103686 -0.96071529 0.22016396
13.09550953 -15.96986485 -0.44434461 0.97401822 -0.87420839 -0.15620463
12.80178928 -16.39545631 0.12688589 0.95217192 -0.89750570 0.04460539
10.77828026 -16.10845184 -0.09336779 0.80166727 -0.88179481 -0.03282245
10.93773842 -13.17429066 -0.39196521 0.81352746 -0.72117549 -0.13779122
12.73851204 -16.10435677 0.12347529 0.94746548 -0.88157064 0.04340643
11.16110039 -16.97123337 -0.77203459 0.83014071 -0.92902440 -0.27140057
11.05077553 -16.29383850 -0.09266557 0.82193494 -0.89194304 -0.03257560
10.92453671 -17.52544212 -0.20651445 0.81254554 -0.95936245 -0.07259797
13.32350922 -15.83768368 -0.44499752 0.99097639 -0.86697263 -0.15643416
12.86567402 -16.05680084 0.12400979 0.95692354 -0.87896734 0.04359433
11.36787605 -16.53745079 -0.09179353 0.84552026 -0.90527868 -0.03226904
10.96058655 -17.33987999 -0.20605560 0.81522685 -0.94920456 -0.07243666
10.00814247 -14.53190041 2.34820652 0.74438596 -0.79549259 0.82548708
10.04588890 -14.50887585 1.10828173 0.74719346 -0.79423219 0.38960469
10.88467503 -17.58602905 0.51912439 0.80958074 -0.96267903 0.18249267
13.44482994 -15.77951336 -0.44550201 1.00000000 -0.86378831 -0.15661150
10.21578312 -14.65931988 -0.09684217 0.75982988 -0.80246764 -0.03404384
11.00770855 -17.17475319 -0.20567653 0.81873173 -0.94016534 -0.07230340
10.11056709 -14.48498344 2.35099840 0.75200409 -0.79292428 0.82646853
10.25282669 -11.88873863 -0.37083539 0.76258510 -0.65080291 -0.13036324
10.82105732 -13.54263210 -0.49771798 0.80484897 -0.74133891 -0.17496747
10.10597229 -14.64756870 0.51347065 0.75166231 -0.80182439 0.18050516
10.51703739 -12.04072762 -0.37510884 0.78223658 -0.65912300 -0.13186553
10.72127724 -13.24568176 -0.49161637 0.79742754 -0.72508353 -0.17282252
11.28273201 -17.18467140 -0.20620190 0.83918738 -0.94070828 -0.07248809
10.09078503 -14.55381489 1.73181701 0.75053275 -0.79669219 0.60880190
10.17032146 -14.59321880 0.51317799 0.75644851 -0.79884923 0.18040228
10.45842648 -11.86068630 -0.37252697 0.77787721 -0.64926732 -0.13095790
11.01280689 -13.09422588 0.07990096 0.81911093 -0.71679264 0.02808833
9.57223988 -12.64020252 -0.53038269 0.71196437 -0.69193894 -0.18645041
12.60162354 -16.15230751 0.04602616 0.93728399 -0.88419551 0.01618001
11.25661278 -17.26446342 0.51683819 0.83724469 -0.94507617 0.18168898
10.52473831 -11.78580093 -0.37234890 0.78280932 -0.64516801 -0.13089530
11.00250244 -13.29197216 -0.49605769 0.81834447 -0.72761750 -0.17438382
11.11946774 -13.05372715 0.08038455 0.82704413 -0.71457571 0.02825833
9.97735405 -14.40596294 2.64224076 0.74209595 -0.78859860 0.92885172
10.47414398 -13.25858212 0.01380533 0.77904624 -0.72578973 0.00485312
11.51831245 -17.42504311 0.52566540 0.85670942 -0.95386648 0.18479210
10.93756294 -17.93725967 0.38711542 0.81351441 -0.98190576 0.13608631
13.29488850 -15.86378384 -0.56753391 0.98884767 -0.86840141 -0.19951053
10.11983490 -14.41748810 2.65612960 0.75269341 -0.78922951 0.93373418
11.13655663 -16.28596306 -0.20344874 0.82831520 -0.89151192 -0.07152025
10.01715374 -14.55959606 2.25234342 0.74505621 -0.79700869 0.79178745
10.87155628 -17.57892990 0.37862161 0.80860496 -0.96229041 0.13310041
9.92339802 -14.35403252 1.00106847 0.73808283 -0.78575587 0.35191500
11.31581783 -12.35376835 -0.38647503 0.84164828 -0.67625916 -0.13586119
11.15444469 -13.13588238 -0.49560109 0.82964563 -0.71907300 -0.17422330
13.01734161 -16.05160522 0.04764169 0.96820426 -0.87868291 0.01674793
9.96329784 -13.24724960 -0.09980710 0.74105048 -0.72516936 -0.03508613
10.17529011 -14.68475533 -0.19725081 0.75681806 -0.80386001 -0.06934143
10.10616493 -14.49312115 2.25180697 0.75167668 -0.79336977 0.79159886
11.22346210 -16.52537918 0.49670696 0.83477902 -0.90461785 0.17461206
11.50215626 -12.39958477 -0.38884917 0.85550773 -0.67876720 -0.13669580
10.07296085 -13.21941757 -0.09970612 0.74920702 -0.72364581 -0.03505063
11.10123634 -17.45612335 0.37907130 0.82568812 -0.95556784 0.13325849
11.64290047 -12.39404106 -0.39021429 0.86597604 -0.67846376 -0.13717569
10.29037952 -11.81134892 -0.46305907 0.76537818 -0.64656651 -0.16278350
10.38112354 -12.84753704 -0.54676497 0.77212757 -0.70328861 -0.19220942
10.15582180 -13.15586662 -0.09970612 0.75537002 -0.72016692 -0.03505063
10.92311764 -16.68403244 -0.29662284 0.81243998 -0.91330272 -0.10427462
10.09565544 -14.57636833 1.64661133 0.75089496 -0.79792678 0.57884872
10.18273258 -14.64776230 0.42881975 0.75737160 -0.80183500 0.15074703
11.59370899 -12.22598267 -0.38789952 0.86231726 -0.66926408 -0.13636196
10.41053867 -11.83638000 -0.46509293 0.77431536 -0.64793676 -0.16349849
10.36939907 -12.71025848 -0.54394382 0.77125549 -0.69577384 -0.19121768
11.00678921 -13.10842896 0.01577986 0.81866330 -0.71757013 0.00554724
10.13790703 -13.00523567 -0.10000445 0.75403756 -0.71192122 -0.03515550
11.19551373 -17.18381691 0.37462452 0.83270031 -0.94066149 0.13169527
11.29083443 -12.67810059 -0.49028811 0.83979005 -0.69401348 -0.17235558
11.24073505 -13.21708107 0.01788005 0.83606374 -0.72351789 0.00628554
10.30233574 -13.04654694 -0.09969694 0.76626748 -0.71418267 -0.03504740
11.33924484 -16.85430145 -0.29958457 0.84339070 -0.92262346 -0.10531577
11.28455639 -17.08475304 0.37377515 0.83932310 -0.93523860 0.13139670
11.76178074 -12.09508228 -0.38822594 0.87481809 -0.66209841 -0.13647671
11.32880974 -12.56082821 -0.48900136 0.84261459 -0.68759388 -0.17190324
11.07449532 -13.22989464 -0.56497848 0.82369918 -0.72421932 -0.19861218
11.34316349 -13.16889858 0.01814931 0.84368217 -0.72088033 0.00638020
9.87149239 -13.37772274 -0.19312772 0.73422217 -0.73231161 -0.06789200
9.99134636 -14.54437542 2.12379909 0.74313670 -0.79617548 0.74659902
11.53829670 -17.23295784 0.38037035 0.85819578 -0.94335151 0.13371517
10.03121853 -14.53013802 0.91383219 0.74610227 -0.79539609 0.32124802
11.91762161 -12.10206509 -0.38991752 0.88640922 -0.66248065 -0.13707137
10.00093365 -13.37624741 -0.19338043 0.74384975 -0.73223084 -0.06798084
10.15916061 -14.69372845 -0.28007862 0.75561839 -0.80435121 -0.09845867
10.06895447 -14.46175957 2.12074661 0.74890900 -0.79165298 0.74552596
11.74276543 -17.30249023 0.38466719 0.87340379 -0.94715780 0.13522567
10.20230293 -14.58142185 0.92215824 0.75882721 -0.79820347 0.32417494
13.13983440 -16.01783943 -0.09030189 0.97731501 -0.87683457 -0.03174467
10.04849434 -13.26536274 -0.19318093 0.74738723 -0.72616088 -0.06791071
11.57174110 -12.35383224 -0.48925042 0.86068332 -0.67626268 -0.17199080
13.19808865 -15.88415813 -0.09045335 0.98164785 -0.86951667 -0.03179792
10.12544155 -14.65118122 1.51737821 0.75311041 -0.80202216 0.53341824
10.19146061 -14.66179562 0.30832294 0.75802082 -0.80260319 0.10838766
11.59003830 -12.25698376 -0.48804671 0.86204427 -0.67096108 -0.17156765
10.44263458 -11.89665127 -0.52973926 0.77670264 -0.65123606 -0.18622422
11.68201447 -12.19982433 -0.48850328 0.86888528 -0.66783214 -0.17172815
11.34462547 -12.75919914 -0.56052411 0.84379095 -0.69845289 -0.19704631
10.37526894 -12.56161880 -0.64653492 0.77169210 -0.68763715 -0.22728249
11.19371128 -13.16929245 -0.09818235 0.83256620 -0.72090191 -0.03451496
11.80014420 -12.16929913 -0.48974851 0.87767148 -0.66616112 -0.17216589
13.26782227 -15.86824131 -0.78364223 0.98683453 -0.86864537 -0.27548110
11.15042305 -12.62730312 -0.09918749 0.82934654 -0.69123280 -0.03486831
11.05167580 -13.54237366 -0.19596733 0.82200187 -0.74132478 -0.06889024
12.28347683 -11.31548023 -0.38570344 0.91362083 -0.61942214 -0.13558996
10.60067368 -12.08095264 -0.63967019 0.78845727 -0.66132492 -0.22486927
10.41136074 -13.69870281 0.29208478 0.77437651 -0.74988240 0.10267930
13.04258537 -16.43792152 -0.30491883 0.97008187 -0.89983034 -0.10719098
11.41412544 -12.52539539 -0.66694188 0.84896022 -0.68565422 -0.23445635
10.90378475 -12.57707119 -0.19319423 0.81100208 -0.68848306 -0.06791538
10.36252689 -12.88608074 -0.26950562 0.77074438 -0.70539856 -0.09474184
11.07386971 -13.59679890 -0.27746722 0.82365263 -0.74430406 -0.09754065
12.37326336 -11.43048573 -0.48754859 0.92029899 -0.62571764 -0.17139253
13.23585892 -16.10188484 -0.30380422 0.98445714 -0.88143528 -0.10679915
11.03555107 -12.75164223 -0.27211702 0.82080257 -0.69803923 -0.09565985
11.08254337 -12.64441204 -0.27171895 0.82429779 -0.69216937 -0.09551992
11.85060024 -11.53872967 -0.65427333 0.88142431 -0.63164306 -0.23000285
11.33817291 -12.33704948 -0.27125716 0.84331101 -0.67534399 -0.09535757
11.38552761 -12.23332310 -0.27090684 0.84683317 -0.66966587 -0.09523442
12.14893627 -11.27621937 -0.19296147 0.90361398 -0.61727291 -0.06783356
