5.18055296 6.20515060 1.80122459 0.93774468 0.91842449 0.79185569
5.10312462 6.19082737 1.78749502 0.92372918 0.91630453 0.78581989
5.05062675 6.20609474 1.78262329 0.91422641 0.91856426 0.78367817
5.00666237 6.23161173 1.78085172 0.90626830 0.92234105 0.78289932
4.98069811 6.27978897 1.78572345 0.90156847 0.92947173 0.78504103
4.92316675 6.28787899 1.77908015 0.89115459 0.93066913 0.78212053
5.29969072 6.50924015 1.42868328 0.95931011 0.96343279 0.62807876
4.91968679 6.34498405 1.78882372 0.89052463 0.93912125 0.78640401
5.23530531 6.51317549 1.42215967 0.94765556 0.96401531 0.62521088
4.89035654 6.38973618 1.79280972 0.88521552 0.94574505 0.78815633
5.31819582 6.23443747 1.77908254 0.96265978 0.92275923 0.78212154
5.18817377 6.53820896 1.42044294 0.93912417 0.96772051 0.62445617
4.87003040 6.44684267 1.80033886 0.88153625 0.95419735 0.79146630
5.22214413 6.20065832 1.75963640 0.94527322 0.91775960 0.77357262
5.12639999 6.54425907 1.41460609 0.92794234 0.96861595 0.62189019
4.85731220 6.51491117 1.81096816 0.87923408 0.96427220 0.79613912
5.16304493 6.20937395 1.75272226 0.93457550 0.91904962 0.77053303
4.85084200 6.59251499 1.82425487 0.87806290 0.97575831 0.80198026
5.09782934 6.21006107 1.74364746 0.92277068 0.91915131 0.76654357
5.07104349 6.25710869 1.74796879 0.91792208 0.92611480 0.76844329
5.01942968 6.25358009 1.74019039 0.90857935 0.92559254 0.76502377
4.98490524 6.29110432 1.74191892 0.90232998 0.93114650 0.76578367
4.94648552 6.32383585 1.74235106 0.89537555 0.93599111 0.76597363
4.93179846 6.38718557 1.75142586 0.89271700 0.94536752 0.76996309
4.89631987 6.42424726 1.75315440 0.88629496 0.95085299 0.77072299
4.89001656 6.50005341 1.76568639 0.88515395 0.96207309 0.77623236
5.29953957 6.21805906 1.71310222 0.95928276 0.92033511 0.75311524
4.88061619 6.57290220 1.77735400 0.88345242 0.97285545 0.78136164
5.21767855 6.20024824 1.69888008 0.94446486 0.91769892 0.74686289
5.16093731 6.19164705 1.68967760 0.93419403 0.91642582 0.74281728
5.10458708 6.20276546 1.68382144 0.92399389 0.91807151 0.74024284
5.07657814 6.24840546 1.68758607 0.91892391 0.92482668 0.74189782
4.88273239 6.60295010 2.23263693 0.88383543 0.97730285 0.98151350
5.01770067 6.25571918 1.68089330 0.90826637 0.92590916 0.73895556
4.93123627 6.75629902 2.27468801 0.89261526 1.00000000 1.00000000
4.98676777 6.29787731 1.68382144 0.90266716 0.93214899 0.74024284
4.94380188 6.30434418 1.67922020 0.89488977 0.93310612 0.73822004
4.91602564 6.35077810 1.68340313 0.88986194 0.93997884 0.74005890
5.33896923 6.20799732 1.64320397 0.96641999 0.91884583 0.72238654
4.89732838 6.40956783 1.69093251 0.88647753 0.94868028 0.74336898
5.25152588 6.18478680 1.62795103 0.95059168 0.91541046 0.71568102
4.88512754 6.47775888 1.70097160 0.88426900 0.95877326 0.74778235
5.19109964 6.19218969 1.62112737 0.93965375 0.91650617 0.71268117
4.89088345 6.57119656 1.71770346 0.88531089 0.97260296 0.75513804
5.14331913 6.21414042 1.61831772 0.93100488 0.91975510 0.71144605
4.90950298 6.68390942 1.73945487 0.88868123 0.98928559 0.76470041
5.08178854 6.21908092 1.61109269 0.91986710 0.92048633 0.70826972
4.91001415 6.42223549 2.13161969 0.88877380 0.95055526 0.93710423
5.05489826 6.24599886 1.61189544 0.91499960 0.92447048 0.70862263
4.88116312 6.46840858 2.13679647 0.88355136 0.95738935 0.93938005
5.01555443 6.27763605 1.61189544 0.90787786 0.92915308 0.70862263
4.87147617 6.54085970 2.15077400 0.88179791 0.96811283 0.94552481
4.98453283 6.31977320 1.61470520 0.90226257 0.93538982 0.70985788
4.89983988 6.66646338 2.18235254 0.88693213 0.98670340 0.95940739
4.95076418 6.35868168 1.61671209 0.89615005 0.94114864 0.71074015
4.92868137 6.41291952 1.62273300 0.89215279 0.94917637 0.71338707
4.91680527 6.48115253 1.63236642 0.89000309 0.95927554 0.71762210
5.36083269 6.19996977 1.56662703 0.97037756 0.91765767 0.68872172
5.00711298 6.31570768 2.05046701 0.90634990 0.93478805 0.90142781
4.91218519 6.53864908 1.64119697 0.88916677 0.96778566 0.72150421
5.27348089 6.17668104 1.55205894 0.95456582 0.91421074 0.68231726
4.96972609 6.35008717 2.05146885 0.89958239 0.93987656 0.90186822
4.93306160 6.65264463 1.66247070 0.89294565 0.98465812 0.73085660
5.21438599 6.18562984 1.54592490 0.94386888 0.91553521 0.67962062
4.93922997 6.39342117 2.05547619 0.89406222 0.94629043 0.90362996
5.14537191 6.18198538 1.53672397 0.93137646 0.91499585 0.67557573
4.91898727 6.45045328 2.06399179 0.89039803 0.95473176 0.90737355
5.09027719 6.19443607 1.53174007 0.92140365 0.91683865 0.67338467
4.89471722 6.50284958 2.07100487 0.88600487 0.96248692 0.91045666
5.04755783 6.22171450 1.53058994 0.91367090 0.92087615 0.67287904
4.88272619 6.57225990 2.08352780 0.88383430 0.97276038 0.91596204
5.02185965 6.25003099 1.53174007 0.90901923 0.92506725 0.67338467
4.90580940 6.66836739 2.10707116 0.88801265 0.98698527 0.92631215
4.97154713 6.26759243 1.52828979 0.89991200 0.92766654 0.67186785
4.95739985 6.33122540 1.53634059 0.89735121 0.93708485 0.67540717
4.90794992 6.34979963 1.53327358 0.88840014 0.93983400 0.67405885
5.47942257 6.36585188 1.52905476 0.99184382 0.94220990 0.67220420
4.88812971 6.40709257 1.53979099 0.88481241 0.94831395 0.67692405
5.50061035 6.47192192 1.54661942 0.99567908 0.95790935 0.67992598
4.95819664 6.27411270 1.95554543 0.89749539 0.92863160 0.85969830
4.86542892 6.46124411 1.54554152 0.88070333 0.95632893 0.67945212
5.52448130 6.58301592 1.56528175 1.00000000 0.97435236 0.68813032
4.94366503 6.33734083 1.96568835 0.89486504 0.93799001 0.86415732
4.91225624 6.61006546 1.57429457 0.88917965 0.97835594 0.69209254
5.38865614 6.50426531 1.53783703 0.97541398 0.96269649 0.67606503
4.91083002 6.37752199 1.96858633 0.88892144 0.94393718 0.86543137
5.24536276 6.39305639 1.50490344 0.94947606 0.94623643 0.66158676
4.91239119 6.44234180 1.98162723 0.88920408 0.95353121 0.87116438
5.22246981 6.44723558 1.51002645 0.94533217 0.95425552 0.66383892
4.87530565 6.47774076 1.98307621 0.88249111 0.95877057 0.87180144
4.89333248 6.58785057 2.00770879 0.88575417 0.97506791 0.88263041
5.12393188 6.49078798 1.50490344 0.92749554 0.96070170 0.66158676
4.93303776 6.72980118 2.04200149 0.89294136 0.99607807 0.89770621
5.08304834 6.52285385 1.50490344 0.92009515 0.96544778 0.66158676
5.06454945 6.26821470 1.88330030 0.91674662 0.92775863 0.82793784
5.04436922 6.55777407 1.50563526 0.91309375 0.97061634 0.66190845
5.00802612 6.27866077 1.87681794 0.90651518 0.92930478 0.82508808
4.98806238 6.31438017 1.88052213 0.90290147 0.93459159 0.82671648
4.93995142 6.57048798 1.49575520 0.89419281 0.97249812 0.65756500
4.94348860 6.33947134 1.87866998 0.89483309 0.93830532 0.82590228
4.92260981 6.39502716 1.88607848 0.89105374 0.94652814 0.82915920
4.89296103 6.43974686 1.89024568 0.88568693 0.95314711 0.83099121
4.87582731 6.50143576 1.89950633 0.88258553 0.96227771 0.83506238
4.89179373 6.60842991 1.92219460 0.88547564 0.97811389 0.84503657
