7.65240335 -8.52735424 2.56742406 0.94434631 -0.95321155 0.99195755
7.57607889 -8.74719048 1.98250186 0.93492746 -0.97778547 0.76596528
7.70188808 -8.47478104 2.56609535 0.95045298 -0.94733477 0.99144417
7.58532333 -8.64765453 1.97048473 0.93606830 -0.96665907 0.76132232
7.78939056 -8.46347332 2.57761049 0.96125120 -0.94607073 0.99589318
7.60279608 -8.55864334 1.96087098 0.93822449 -0.95670915 0.75760788
7.85440445 -8.42718315 2.58159661 0.96927428 -0.94201416 0.99743330
7.64585829 -8.49900532 1.95812416 0.94353861 -0.95004261 0.75654662
7.92731667 -8.39890671 2.58823991 0.97827202 -0.93885332 1.00000000
7.70176697 -8.45370579 1.95881093 0.95043802 -0.94497889 0.75681198
7.74552727 -8.42166233 1.95984089 0.95583826 -0.94139701 0.75720990
7.79828882 -8.37282944 1.95984089 0.96234930 -0.93593836 0.75720990
7.64160824 -8.72496891 2.53229523 0.94301414 -0.97530144 0.97838503
7.89543962 -8.37088776 1.97117138 0.97433823 -0.93572128 0.76158756
7.64454842 -8.61825752 2.51500988 0.94337696 -0.96337295 0.97170663
8.01741314 -8.39365673 1.98868203 0.98939037 -0.93826646 0.76835304
7.59405994 -8.83259106 1.93487394 0.93714643 -0.98733175 0.74756360
7.65426588 -8.52058601 2.50031734 0.94457614 -0.95245498 0.96603000
7.58090830 -8.70576000 1.91720772 0.93552345 -0.97315425 0.74073803
7.72076559 -8.48679256 2.50463867 0.95278257 -0.94867742 0.96769959
7.59380198 -8.61055374 1.90654135 0.93711460 -0.96251184 0.73661691
7.77921963 -8.44386864 2.50636721 0.95999610 -0.94387931 0.96836740
7.62546587 -8.53762817 1.90087485 0.94102204 -0.95436001 0.73442763
7.85206366 -8.41627693 2.51284909 0.96898544 -0.94079500 0.97087181
7.65243435 -8.48692989 1.89754164 0.94435012 -0.94869280 0.73313975
7.93573570 -8.42617035 2.52710962 0.97931099 -0.94190091 0.97638154
7.70958948 -8.44305706 1.89854157 0.95140338 -0.94378859 0.73352611
7.77852154 -8.41185284 1.90254152 0.95990992 -0.94030046 0.73507154
7.85543776 -8.38876629 1.90854132 0.96940178 -0.93771982 0.73738962
7.60473680 -8.76003170 2.44679403 0.93846399 -0.97922087 0.94535053
7.95674896 -8.39084339 1.92054093 0.98190415 -0.93795198 0.74202585
7.58457851 -8.62701702 2.42253280 0.93597633 -0.96435213 0.93597692
8.10338688 -8.43899632 1.94354033 1.00000000 -0.94333464 0.75091195
7.63081503 -8.57044220 2.42002296 0.94168216 -0.95802802 0.93500721
7.77198362 -8.94591999 1.59128249 0.95910311 -1.00000000 0.61481261
7.50315905 -8.69698811 1.82501471 0.92592877 -0.97217369 0.70511806
7.63967752 -8.49953461 2.40998387 0.94277585 -0.95010179 0.93112850
7.83982706 -8.91026211 1.59388351 0.96747535 -0.99601406 0.61581755
7.58368874 -8.67936230 1.83140528 0.93586653 -0.97020346 0.70758712
7.68765402 -8.44558907 2.40831065 0.94869643 -0.94407159 0.93048203
7.91148615 -8.87853146 1.59735155 0.97631848 -0.99246711 0.61715746
7.59218836 -8.57987309 1.82022178 0.93691546 -0.95908225 0.70326626
7.74720812 -8.40429783 2.41040230 0.95604569 -0.93945599 0.93129015
7.98704052 -8.85065079 1.60168672 0.98564225 -0.98935056 0.61883241
7.64066648 -8.52612972 1.81894362 0.94289792 -0.95307469 0.70277244
7.81055737 -8.36687374 2.41374850 0.96386331 -0.93527257 0.93258297
7.67148638 -8.45313931 1.81351161 0.94670123 -0.94491559 0.70067370
7.88451052 -8.34033489 2.42044139 0.97298950 -0.93230599 0.93516886
7.73515558 -8.41638184 1.81606781 0.95455837 -0.94080675 0.70166129
8.00721645 -8.36396980 2.44219279 0.98813206 -0.93494797 0.94357282
7.73197699 -8.90151215 1.52294207 0.95416611 -0.99503595 0.58840841
7.78818464 -8.39428711 1.81926310 0.96110243 -0.93833691 0.70289588
7.58136606 -8.72675514 2.33399844 0.93557990 -0.97550112 0.90177053
7.84519625 -8.91828060 1.53522611 0.96813792 -0.99691039 0.59315449
7.87328005 -8.37966156 1.82693183 0.97160363 -0.93670207 0.70585877
7.59213161 -8.62885666 2.32035112 0.93690842 -0.96455777 0.89649773
7.91685390 -8.88658333 1.53857625 0.97698087 -0.99336720 0.59444886
7.97485924 -8.38143253 1.83843482 0.98413903 -0.93690002 0.71030307
7.62148142 -8.55314636 2.31272459 0.94053036 -0.95609468 0.89355111
7.97385740 -8.83813763 1.53885543 0.98401541 -0.98795182 0.59455675
7.56843042 -8.74953270 1.73281956 0.93398362 -0.97804725 0.66949725
7.66852140 -8.49780655 2.31071782 0.94633532 -0.94990861 0.89277577
7.56994820 -8.64074039 1.72044039 0.93417090 -0.96588618 0.66471440
7.70989037 -8.43641758 2.30710530 0.95144051 -0.94304639 0.89138001
7.60444689 -8.57078838 1.71591139 0.93842822 -0.95806676 0.66296458
7.78001261 -8.40653324 2.31232333 0.96009392 -0.93970585 0.89339608
7.64627886 -8.50958347 1.71319389 0.94359052 -0.95122510 0.66191465
7.84738874 -8.37323666 2.31673861 0.96840852 -0.93598384 0.89510196
7.68364286 -8.47052288 1.71259010 0.94820142 -0.94685876 0.66168135
7.92170382 -8.37323093 2.32717490 0.97757936 -0.93598324 0.89913416
7.73804760 -8.42353630 1.71289206 0.95491523 -0.94160646 0.66179800
8.06345272 -8.41682625 2.35366654 0.99507189 -0.94085640 0.90936953
7.78947735 -8.37330151 1.71259010 0.96126193 -0.93599111 0.66168135
7.59143829 -8.84342098 2.24213052 0.93682289 -0.98854238 0.86627614
7.89335346 -8.37897015 1.72406352 0.97408080 -0.93662477 0.66611427
7.57071543 -8.70828247 2.21951151 0.93426555 -0.97343624 0.85753703
8.00986576 -8.39655781 1.73825431 0.98845899 -0.93859076 0.67159706
7.57849121 -8.60758781 2.20571017 0.93522513 -0.96218026 0.85220468
7.59414291 -8.54394817 2.19842601 0.93715668 -0.95506644 0.84939033
7.63056993 -8.47712898 2.19344211 0.94165194 -0.94759721 0.84746474
7.68765736 -8.43336201 2.19459224 0.94869679 -0.94270486 0.84790915
7.74182749 -8.38633347 2.19497561 0.95538169 -0.93744785 0.84805727
7.82122803 -8.36615467 2.20264316 0.96518016 -0.93519223 0.85101968
7.90203190 -8.34673214 2.21069407 0.97515178 -0.93302113 0.85413027
8.06319427 -8.41007996 2.24136376 0.99504000 -0.94010228 0.86597991
7.59777689 -8.83605194 2.13466787 0.93760508 -0.98771864 0.82475656
7.56214905 -8.71092606 2.11271214 0.93320847 -0.97373170 0.81627369
7.59081841 -8.63366127 2.10539365 0.93674642 -0.96509486 0.81344610
7.60315657 -8.53873158 2.09368372 0.93826896 -0.95448333 0.80892181
7.64745760 -8.48055363 2.09112239 0.94373596 -0.94798005 0.80793220
7.70588446 -8.43815327 2.09258604 0.95094615 -0.94324040 0.80849773
7.76408005 -8.39535332 2.09404969 0.95812780 -0.93845612 0.80906320
7.83569765 -8.39322376 2.10283208 0.96696573 -0.93821806 0.81245643
7.93411970 -8.39248562 2.11527371 0.97911155 -0.93813556 0.81726336
8.06405640 -8.42356205 2.13613153 0.99514639 -0.94160938 0.82532209
