-8.41269112 5.04322243 1.67520630 -0.95882142 0.99128926 0.81062448
-8.37288284 4.94831038 1.66078579 -0.95428437 0.97263348 0.80364650
-8.35948944 4.86991119 1.65185881 -0.95275784 0.95722342 0.79932678
-8.35841656 4.81674147 1.64705193 -0.95263559 0.94677246 0.79700071
-8.36107063 4.74861860 1.64155841 -0.95293808 0.93338227 0.79434246
-8.39074230 4.69599104 1.64155841 -0.95631987 0.92303789 0.79434246
-8.43217373 4.64981270 1.64396179 -0.96104193 0.91396111 0.79550540
-8.46468925 4.59861422 1.64464843 -0.96474785 0.90389764 0.79583770
-8.51428604 4.55645037 1.64876866 -0.97040051 0.89560997 0.79783142
-8.57401943 4.53646898 1.65632224 -0.97720855 0.89168245 0.80148661
-8.36888218 4.99723291 1.61354923 -0.95382839 0.98224962 0.78078890
-8.67931938 4.52240801 1.67142951 -0.98920989 0.88891864 0.80879694
-8.34240437 4.91041851 1.60221624 -0.95081061 0.96518546 0.77530497
-8.33901978 4.83804083 1.59554970 -0.95042485 0.95095903 0.77207905
-8.34531498 4.77179527 1.59088314 -0.95114237 0.93793786 0.76982093
-8.35453987 4.70760536 1.58688331 -0.95219374 0.92532080 0.76788539
-8.39428616 4.66078520 1.58888328 -0.95672375 0.91611791 0.76885319
-8.42651558 4.62689352 1.59088314 -0.96039706 0.90945619 0.76982093
-8.46928120 4.58139277 1.59354973 -0.96527117 0.90051264 0.77111125
-8.45421124 5.00107336 2.06656265 -0.96355361 0.98300451 1.00000000
-8.53788280 4.54950190 1.60121620 -0.97308993 0.89424419 0.77482104
-8.41442108 4.90662622 2.04899406 -0.95901859 0.96444005 0.99149865
-8.41806126 5.02957535 1.29273868 -0.95943350 0.98860681 0.62555021
-8.62385941 4.52613020 1.61221588 -0.98288894 0.88965029 0.78014374
-8.38057232 4.81676197 2.03309894 -0.95516074 0.94677645 0.98380709
-8.36242390 4.92554331 1.27799940 -0.95309234 0.96815836 0.61841792
-8.74487591 4.52003908 1.62988210 -0.99668157 0.88845301 0.78869230
-8.39514923 4.98320103 1.54606593 -0.95682210 0.97949153 0.74813408
-8.41067123 4.76401043 2.03309894 -0.95859122 0.93640769 0.98380709
-8.35893536 4.85310268 1.27221930 -0.95269471 0.95391953 0.61562097
-8.35804939 4.89061451 1.53328478 -0.95259374 0.96129286 0.74194932
-8.43359852 4.70727253 2.03142571 -0.96120429 0.92525536 0.98299742
-8.36109447 4.80187464 1.26875114 -0.95294076 0.94385022 0.61394274
-8.34849834 4.83245039 1.52721369 -0.95150518 0.94986016 0.73901159
-8.44883060 4.66371202 2.02975249 -0.96294034 0.91669315 0.98218775
-8.36868382 4.73662090 1.26499414 -0.95380574 0.93102407 0.61212474
-8.35122490 4.76430511 1.52210128 -0.95181590 0.93646562 0.73653769
-8.49860764 4.62170362 2.03477216 -0.96861362 0.90843606 0.98461676
-8.38616657 4.67722368 1.26297104 -0.95579833 0.91934901 0.61114579
-8.36031914 4.70017242 1.51826692 -0.95285243 0.92385978 0.73468226
-8.55681992 4.58385277 2.04188299 -0.97524828 0.90099615 0.98805761
-8.45011711 4.64342785 1.26875114 -0.96308696 0.91270614 0.61394274
-8.40601826 5.01531839 1.24068820 -0.95806092 0.98580444 0.60036319
-8.38449860 4.64469147 1.51730835 -0.95560825 0.91295451 0.73421842
-8.38799477 5.00402498 1.96672535 -0.95600671 0.98358464 0.95168918
-8.47041321 4.58555079 1.26730609 -0.96540022 0.90132987 0.61324346
-8.33677101 4.90295839 1.22421646 -0.95016855 0.96371913 0.59239262
-8.42739582 4.59945583 1.51986456 -0.96049738 0.90406305 0.73545533
-8.35854435 4.91534090 1.95227528 -0.95265013 0.96615303 0.94469684
-8.52003670 4.54336929 1.27077425 -0.97105592 0.89303875 0.61492169
-8.33832169 4.83353472 1.21947026 -0.95034528 0.95007330 0.59009594
-8.47005653 4.55386448 1.52242076 -0.96535957 0.89510167 0.73669231
-8.35370827 4.84201717 1.94384611 -0.95209897 0.95174062 0.94061804
-8.60269070 4.53534365 1.28088951 -0.98047626 0.89146125 0.61981642
-8.33698273 4.78034544 1.21556175 -0.95019269 0.93961847 0.58820462
-8.51585484 4.52682209 1.52689421 -0.97057933 0.88978624 0.73885697
-8.41202927 5.06083441 1.46530724 -0.95874602 0.99475104 0.70905530
-8.36285210 4.79477310 1.94063497 -0.95314109 0.94245440 0.93906420
-8.70838261 4.52116489 1.29360569 -0.99252236 0.88867432 0.62596977
-8.37374210 4.73178005 1.21667850 -0.95438230 0.93007255 0.58874506
-8.60541534 4.50514793 1.53807771 -0.98078680 0.88552600 0.74426860
-8.35534477 4.95525265 1.44960666 -0.95228547 0.97399801 0.70145786
-8.39281273 4.74213314 1.94063497 -0.95655584 0.93210751 0.93906420
-8.39812279 4.67617226 1.21584094 -0.95716101 0.91914237 0.58833975
-8.74246883 4.50685310 1.55788851 -0.99640727 0.88586122 0.75385499
-8.33176327 4.87061310 1.43994486 -0.94959784 0.95736140 0.69678259
-8.40021515 4.67686892 1.93541682 -0.95739949 0.91927928 0.93653917
-8.43427563 4.62713814 1.21695769 -0.96128148 0.90950423 0.58888012
-8.34680271 4.80925131 1.43722749 -0.95131189 0.94530016 0.69546765
-8.45860386 4.64007807 1.94224048 -0.96405423 0.91204774 0.93984109
-8.51190853 4.60052156 1.22477484 -0.97012955 0.90427256 0.59266281
-8.40199566 4.96795082 1.18171811 -0.95760244 0.97649395 0.57182789
-8.35281467 4.74299383 1.43300045 -0.95199710 0.93227673 0.69342220
-8.50825119 4.59806156 1.94705725 -0.96971273 0.90378898 0.94217187
-8.57556915 4.56563616 1.23035848 -0.97738516 0.89741552 0.59536469
-8.48790550 4.94688368 1.19030023 -0.96739388 0.97235304 0.57598072
-8.38245010 4.69041824 1.43300045 -0.95537478 0.92194253 0.69342220
-8.56634235 4.56022596 1.95388079 -0.97633356 0.89635211 0.94547379
-8.59173775 4.52239561 1.22952092 -0.97922796 0.88891619 0.59495944
-8.48189831 4.89006281 1.18574095 -0.96670920 0.96118438 0.57377452
-8.40445995 4.65086508 1.43300045 -0.95788330 0.91416800 0.69342220
-8.65528202 4.55553770 1.96953511 -0.98647028 0.89543056 0.95304883
-8.73063087 4.52597427 1.24710941 -0.99505806 0.88961965 0.60347039
-8.53488350 4.84935522 1.18922746 -0.97274810 0.95318294 0.57546163
-8.43004894 4.59606695 1.43239653 -0.96079975 0.90339696 0.69312996
-8.36291981 5.01022816 1.86987531 -0.95314884 0.98480392 0.90482390
-8.59115505 4.81010342 1.19325042 -0.97916156 0.94546765 0.57740831
-8.49529552 4.56273079 1.43873715 -0.96823609 0.89684445 0.69619817
-8.33839035 4.92475986 1.85722399 -0.95035315 0.96800441 0.89870203
-8.60383415 4.74649143 1.19056845 -0.98060662 0.93296421 0.57611048
-8.54474354 4.52040195 1.44236028 -0.97387189 0.88852435 0.69795138
-8.32840633 4.84865475 1.84802294 -0.94921523 0.95304525 0.89424968
-8.67183971 4.71308088 1.19646871 -0.98835742 0.92639703 0.57896560
-8.65879822 4.51156855 1.45715499 -0.98687106 0.88678807 0.70511049
-8.33825111 4.78455067 1.84342253 -0.95033723 0.94044507 0.89202356
-8.68029118 4.64731884 1.19325042 -0.98932064 0.91347092 0.57740831
-8.34874058 4.73844767 1.84073889 -0.95153278 0.93138313 0.89072496
-8.77399158 4.64423037 1.20424628 -1.00000000 0.91286391 0.58272916
-8.38177872 4.68780661 1.84150565 -0.95529824 0.92142916 0.89109600
-8.40762520 4.63316298 1.84073889 -0.95824403 0.91068852 0.89072496
-8.57173347 4.78665209 1.11998999 -0.97694802 0.94085813 0.54195791
-8.46420288 4.59517145 1.84687293 -0.96469241 0.90322095 0.89369315
-8.61205578 4.73845959 1.12151623 -0.98154366 0.93138546 0.54269648
-8.52756596 4.56033945 1.85454035 -0.97191405 0.89637440 0.89740342
-8.40039635 5.08753872 1.79362166 -0.95742017 1.00000000 0.86792511
-8.60647202 4.53309202 1.86565816 -0.98090726 0.89101869 0.90278327
-8.37318230 4.99925518 1.78081417 -0.95431846 0.98264712 0.86172765
-8.34423065 4.92863274 1.76947033 -0.95101875 0.96876568 0.85623842
-8.33430195 4.85227823 1.76068807 -0.94988716 0.95375752 0.85198873
-8.34929466 4.79097748 1.75739467 -0.95159590 0.94170833 0.85039508
-8.37239456 4.73453712 1.75593102 -0.95422870 0.93061447 0.84968680
-8.40712357 4.68472052 1.75702882 -0.95818686 0.92082256 0.85021800
-8.43639278 4.63180494 1.75702882 -0.96152276 0.91042155 0.85021800
-8.48919392 4.60895061 1.76361549 -0.96754068 0.90592933 0.85340530
-8.55089092 4.57320833 1.77056813 -0.97457248 0.89890391 0.85676962
-8.63680077 4.54975271 1.78264380 -0.98436391 0.89429349 0.86261302
