28.48794746 -12.90986443 2.59992075 0.92595059 -0.96996123 0.81495017
28.53027153 -12.71361065 2.59625769 0.92732620 -0.95521605 0.81380200
28.71729088 -12.58120155 2.60654926 0.93340498 -0.94526768 0.81702787
29.26668167 -12.74459171 0.44783956 0.95126194 -0.95754373 0.14037617
28.75733566 -12.38399410 2.60288620 0.93470657 -0.93045086 0.81587970
29.17516518 -12.48738670 0.44442731 0.94828737 -0.93821907 0.13930659
28.91471481 -12.71468925 1.54505074 0.93982190 -0.95529705 0.48429912
28.48953438 -12.05730247 2.57009244 0.92600214 -0.90590543 0.80560040
29.24567604 -12.30073261 0.44428053 0.95057917 -0.92419511 0.13926059
29.02928543 -12.60211468 1.54824328 0.94354582 -0.94683897 0.48529986
29.51149368 -12.32541561 2.66167045 0.95921910 -0.92604965 0.83430570
29.17075157 -12.54362965 -0.60908008 0.94814390 -0.94244480 -0.19091733
29.29038429 -12.15742111 0.44402370 0.95203233 -0.91342765 0.13918008
29.09870529 -12.41555786 1.54771125 0.94580215 -0.93282235 0.48513308
29.57176018 -12.13295174 2.66010070 0.96117800 -0.91158921 0.83381367
29.23793221 -12.35543537 -0.60890198 0.95032752 -0.92830515 -0.19086149
29.06375885 -12.18544865 1.54121971 0.94466627 -0.91553348 0.48309830
28.54909325 -12.78115368 2.44050050 0.92793798 -0.96029079 0.76497960
29.47386360 -12.23733044 -0.61145419 0.95799601 -0.91943151 -0.19166149
29.64032173 -12.20840454 1.57005906 0.96340644 -0.91725820 0.49213803
28.70361328 -12.63449574 2.44723821 0.93296039 -0.94927186 0.76709151
29.51498032 -12.03757381 -0.61089033 0.95933247 -0.90442312 -0.19148475
28.85741234 -12.48639870 2.45397568 0.93795937 -0.93814486 0.76920342
29.65316391 -11.87713051 -0.61189938 0.96382385 -0.89236850 -0.19180104
29.13834763 -12.51043797 0.26572818 0.94709069 -0.93995100 0.08329301
28.61255264 -12.16734314 2.42505336 0.93000060 -0.91417313 0.76013768
29.24953461 -12.34112549 0.26618633 0.95070463 -0.92723000 0.08343662
29.04164314 -12.63291168 1.37171447 0.94394743 -0.94915283 0.42996654
29.47169685 -12.31520939 2.49505830 0.95792562 -0.92528284 0.78208083
29.18264961 -12.58278370 -0.79756957 0.94853061 -0.94538659 -0.24999972
29.31911087 -12.15403461 0.26608452 0.95296603 -0.91317320 0.08340470
29.13204956 -12.50933552 1.37333345 0.94688594 -0.93986815 0.43047401
29.57546043 -12.19521618 2.49916673 0.96129823 -0.91626734 0.78336865
29.17356491 -12.41610909 -0.79603380 0.94823533 -0.93286377 -0.24951833
29.64438248 -12.12569046 0.26977509 0.96353847 -0.91104364 0.08456152
29.12358856 -12.28948879 1.36885762 0.94661093 -0.92335033 0.42907107
29.65334702 -12.00989819 2.49933100 0.96382982 -0.90234375 0.78342015
28.60197830 -12.77044582 2.26879811 0.92965692 -0.95948625 0.71115917
29.35058975 -12.27428532 -0.79827517 0.95398921 -0.92220807 -0.25022089
29.27956200 -12.13920879 1.37295258 0.95168060 -0.91205931 0.43035462
28.77114868 -12.62970066 2.27630687 0.93515551 -0.94891161 0.71351278
29.52883148 -12.13148594 -0.80055809 0.95978266 -0.91147906 -0.25093648
29.00927162 -12.51730824 2.28963852 0.94289529 -0.94046718 0.71769160
29.58222771 -11.93671989 -0.80006003 0.96151823 -0.89684564 -0.25078037
29.22434616 -12.53722763 0.14757113 0.94988590 -0.94196379 0.04625646
28.71456337 -12.17699242 2.25853109 0.93331629 -0.91489810 0.70794094
30.76616478 -12.19105053 -0.82484013 1.00000000 -0.91595435 -0.25854772
29.28595352 -12.34637737 0.14740959 0.95188832 -0.92762458 0.04620582
29.05622864 -12.60690594 1.22466755 0.94442153 -0.94719893 0.38387442
29.44598007 -12.26895332 2.31308389 0.95708972 -0.92180747 0.72504061
30.48816681 -11.85955048 -0.81695366 0.99096417 -0.89104766 -0.25607571
29.12679100 -12.54827976 -0.92296368 0.94671506 -0.94279420 -0.28930473
29.36110115 -12.16136169 0.14739163 0.95433086 -0.91372371 0.04620019
29.12082672 -12.47219849 1.22492552 0.94652116 -0.93707794 0.38395527
29.56434822 -12.15504169 2.31814075 0.96093708 -0.91324890 0.72662568
30.47278976 -11.68849087 -0.81537634 0.99046439 -0.87819535 -0.25558129
29.18191910 -12.40932178 -0.92286468 0.94850689 -0.93235379 -0.28927371
29.56992912 -12.08481026 0.14886355 0.96111846 -0.90797216 0.04666157
29.12492943 -12.25802422 1.22148693 0.94665456 -0.92098629 0.38287744
29.33127975 -12.25573921 -0.92479491 0.95336157 -0.92081463 -0.28987876
29.31034660 -12.11976528 1.22655880 0.95268118 -0.91059846 0.38446721
28.68565178 -12.67000198 2.07678199 0.93237656 -0.95193958 0.65097129
29.57051659 -12.13791275 -0.92915034 0.96113753 -0.91196191 -0.29124397
28.96410370 -12.57625294 2.09214139 0.94142717 -0.94489586 0.65578574
29.19055557 -12.56944275 -0.06491183 0.94878757 -0.94438422 -0.02034674
28.94165802 -12.35088539 2.08439112 0.94069761 -0.92796326 0.65335643
29.23397064 -12.37095451 -0.06499903 0.95019871 -0.92947114 -0.02037407
29.04194832 -12.66716385 1.02186835 0.94395739 -0.95172632 0.32030660
28.86050797 -12.10234451 2.07227254 0.93805999 -0.90928960 0.64955783
30.47443008 -11.84230804 -0.94721538 0.99051768 -0.88975215 -0.29690647
29.02246475 -12.55292988 -1.12506878 0.94332409 -0.94314355 -0.35265496
29.37020111 -12.21163845 -0.06485216 0.95462668 -0.91750121 -0.02032804
29.11600113 -12.53649998 1.02245367 0.94636434 -0.94190913 0.32049006
29.54750061 -12.22750568 2.12046504 0.96038949 -0.91869336 0.66466385
29.09599876 -12.42231464 -1.12556803 0.94571418 -0.93333000 -0.35281146
29.45331764 -12.08374310 -0.06478790 0.95732820 -0.90789199 -0.02030789
29.16291237 -12.34005165 1.02120984 0.94788909 -0.92714930 0.32010019
29.27852058 -12.28340340 -1.12912524 0.95164675 -0.92289311 -0.35392648
29.20481491 -12.14197254 1.01981986 0.94925106 -0.91226697 0.31966451
28.73468781 -12.68128967 1.91230881 0.93397039 -0.95278764 0.59941691
29.46043968 -12.14268780 -1.13268232 0.95755970 -0.91232067 -0.35504144
29.00975800 -12.58535862 1.92624974 0.94291109 -0.94558001 0.60378671
29.64174271 -12.00016975 -1.13623953 0.96345264 -0.90161282 -0.35615647
29.14165878 -12.60637379 -0.24342270 0.94719827 -0.94715899 -0.07630131
29.22522926 -11.80396080 3.19028187 0.94991463 -0.88687098 1.00000000
29.12131500 -12.41690636 1.92859495 0.94653708 -0.93292367 0.60452181
29.71469879 -11.81295013 -1.13617718 0.96582395 -0.88754642 -0.35613692
29.22397423 -12.42458630 -0.24343601 0.94987381 -0.93350065 -0.07630549
28.23418427 -12.37950802 2.96528554 0.91770244 -0.93011379 0.92947447
29.17914391 -12.73307037 0.87348425 0.94841671 -0.95667809 0.27379534
28.94651222 -12.12819290 1.91074538 0.94085538 -0.91123164 0.59892684
29.34491920 -12.31300449 -0.24366210 0.95380491 -0.92511714 -0.07637636
28.00358582 -12.12161636 2.93363094 0.91020721 -0.91073751 0.91955227
29.07538414 -12.52514362 0.86783224 0.94504416 -0.94105589 0.27202368
29.56047821 -12.22158051 1.95009267 0.96081126 -0.91824818 0.61126029
29.44759750 -12.13903713 -0.24375521 0.95714229 -0.91204643 -0.07640554
29.18665123 -12.35621834 0.86897534 0.94866067 -0.92836398 0.27238199
29.26293945 -12.23158073 3.05463958 0.95114028 -0.91899949 0.95748264
29.22678757 -12.15725994 0.86770523 0.94996524 -0.91341555 0.27198386
28.83708000 -12.78419113 1.74120378 0.93729848 -0.96051896 0.54578370
29.51597786 -12.11992741 3.07387280 0.95936489 -0.91061062 0.96351135
29.19091988 -13.30967045 2.84433675 0.94879943 -1.00000000 0.89156282
28.88024139 -12.58677483 1.73882496 0.93870139 -0.94568646 0.54503804
29.58970070 -11.93349171 3.07367253 0.96176112 -0.89660311 0.96344858
28.40745544 -12.73680496 2.75602102 0.92333430 -0.95695871 0.86388010
29.07984352 -12.45703030 1.74667525 0.94518912 -0.93593830 0.54749870
29.15508270 -12.51922798 -0.39047429 0.94763464 -0.94061142 -0.12239492
28.55818176 -12.64316463 2.76527834 0.92823339 -0.94992322 0.86678183
28.94335747 -12.23731899 1.73406720 0.94075286 -0.91943067 0.54354668
29.29948425 -12.36382866 -0.39104751 0.95232815 -0.92893577 -0.12257460
28.61880112 -12.45552063 2.76342678 0.93020374 -0.93582487 0.86620146
29.14229584 -12.59002781 0.65541953 0.94721901 -0.94593084 0.20544252
29.20583916 -12.13269901 1.74608052 0.94928437 -0.91157019 0.54731232
29.44307899 -12.20710850 -0.39162076 0.95699543 -0.91716081 -0.12275428
28.20045471 -12.06288528 2.71325159 0.91660613 -0.90632486 0.85047394
29.18402863 -12.39102268 0.65442026 0.94857544 -0.93097895 0.20512930
29.53771591 -12.02942753 -0.39177999 0.96007144 -0.90381110 -0.12280419
29.38788795 -12.35383034 2.82545161 0.95520157 -0.92818457 0.88564324
29.25023842 -12.20278454 0.65412050 0.95072746 -0.91683596 0.20503533
29.50541115 -12.18568802 2.82952476 0.95902145 -0.91555142 0.88691998
29.61460114 -12.01355648 2.83285761 0.96257043 -0.90261865 0.88796467
