10.72278214 11.49514580 0.15056938 0.97077942 0.93622309 0.07125088
10.80568695 11.67948055 1.25468314 0.97828519 0.95123625 0.59372813
10.34840965 10.95129299 -0.36145756 0.93688589 0.89192891 -0.17104520
10.57458401 11.47982979 0.14851469 0.95736241 0.93497562 0.07027858
10.58581638 11.58662415 1.23566973 0.95837933 0.94367355 0.58473080
10.24261379 10.97657108 -0.36065629 0.92730772 0.89398772 -0.17066602
10.47537327 11.51642418 0.14778087 0.94838047 0.93795609 0.06993133
10.87354565 11.67900848 1.80866909 0.98442870 0.95119780 0.85587966
10.89191246 11.74062252 0.71530592 0.98609155 0.95621592 0.33848965
10.50747681 11.64698315 1.23497200 0.95128691 0.94858944 0.58440065
10.23433495 11.10697079 -0.36199173 0.92655826 0.90460813 -0.17129798
10.40013885 11.57903671 0.14770749 0.94156915 0.94305557 0.06989661
10.50341702 11.42373276 1.75512147 0.95091939 0.93040681 0.83054036
10.59429455 11.56408310 0.69764048 0.95914692 0.94183767 0.33013019
10.41291618 11.68894291 1.23218107 0.94272596 0.95200688 0.58307993
10.53793526 11.58275890 -0.37024188 0.95404446 0.94335872 -0.17520203
10.32453060 11.64115810 0.14763410 0.93472403 0.94811505 0.06986188
10.41410923 11.47037125 1.75197160 0.94283396 0.93420529 0.82904983
10.50804710 11.61559296 0.69657630 0.95133859 0.94603288 0.32962662
10.36686039 11.78558922 1.23584425 0.93855631 0.95987827 0.58481342
10.46361637 11.64725208 -0.37021220 0.94731605 0.94861138 -0.17518798
10.21698284 11.66664028 0.14668015 0.92498726 0.95019042 0.06941046
10.39970970 11.56365490 1.75924051 0.94153029 0.94180280 0.83248955
10.46251011 11.67540550 0.69732124 0.94721591 0.95090431 0.32997912
10.37542725 11.65904045 -0.36947027 0.93933189 0.94957149 -0.17483689
10.15273285 11.70407104 0.14642331 0.91917044 0.95323902 0.06928892
10.75884342 11.53786659 0.06292427 0.97404420 0.93970245 0.02977637
10.33869457 11.64214516 1.76142120 0.93600637 0.94819546 0.83352149
10.41273212 11.76786518 0.69923675 0.94270927 0.95843470 0.33088556
10.81815720 11.68186569 1.17433178 0.97941417 0.95143050 0.55570513
10.52603626 11.97967052 -0.37451532 0.95296723 0.97568524 -0.17722426
10.27834415 10.85266781 -0.44815782 0.93054259 0.88389641 -0.21207260
10.10626984 11.79956055 0.14719382 0.91496396 0.96101618 0.06965353
10.50843048 11.41274548 0.05959002 0.95137328 0.92951196 0.02819857
10.28363800 11.72779655 1.76481330 0.93102187 0.95517135 0.83512664
10.60041714 11.59240055 1.15674841 0.95970124 0.94414401 0.54738450
10.46364498 12.06069279 -0.37481210 0.94731867 0.98228407 -0.17736469
10.20311356 10.90974140 -0.44795027 0.92373163 0.88854474 -0.21197438
10.45403004 11.49775887 0.05992090 0.94644815 0.93643588 0.02835515
10.74756050 11.58794117 1.70096958 0.97302276 0.94378078 0.80491519
10.93777561 11.76511192 0.62776619 0.99024373 0.95821047 0.29706502
10.51800632 11.64843273 1.15559804 0.95224023 0.94870752 0.54684013
10.44611645 12.19461727 -0.37614754 0.94573170 0.99319160 -0.17799664
10.17784023 11.02058125 -0.44927850 0.92144352 0.89757210 -0.21260291
10.39763737 11.58105183 0.06022633 0.94134271 0.94321966 0.02849968
10.54286385 11.51183987 1.67830729 0.95449066 0.93758273 0.79419118
10.63770866 11.58812618 0.61186254 0.96307737 0.94379586 0.28953925
10.43132591 11.69942856 1.15395474 0.94439268 0.95286089 0.54606253
10.57392883 11.59340286 -0.46359867 0.95730311 0.94422561 -0.21937935
10.32068062 11.64166927 0.06014997 0.93437546 0.94815665 0.02846355
10.43696499 11.54106236 1.67252612 0.94490319 0.93996274 0.79145545
10.51094437 11.59560013 0.60805327 0.95160085 0.94440460 0.28773665
10.37475872 11.78416538 1.15609109 0.93927139 0.95976228 0.54707342
9.74939823 11.67340565 -0.36356461 0.88265485 0.95074147 -0.17204228
10.47943592 11.63586617 -0.46293455 0.94874829 0.94768405 -0.21906509
10.21830845 11.67321873 0.05959002 0.92510730 0.95072621 0.02819857
10.39573860 11.60489655 1.67483854 0.94117081 0.94516170 0.79254973
10.41905308 11.04671574 2.07825851 0.94328153 0.89970064 0.98345196
10.45351124 11.64203358 0.60786283 0.94640118 0.94818634 0.28764656
9.69555378 11.72076130 -0.36359429 0.87778008 0.95459837 -0.17205632
10.37383080 11.62848663 -0.46135724 0.93918741 0.94708300 -0.21831869
10.12907219 11.68200207 0.05892826 0.91702837 0.95144159 0.02788542
10.68244934 11.43264580 0.00258638 0.96712792 0.93113273 0.00122390
10.32393646 11.67147160 1.67506981 0.93467021 0.95058393 0.79265916
10.29287148 11.05106258 2.06612015 0.93185776 0.90005469 0.97770798
10.41466618 11.74630451 0.61033887 0.94288439 0.95667869 0.28881824
10.86118603 11.72248077 1.08978260 0.98330975 0.95473838 0.51569563
9.57878113 11.72872925 -0.36258528 0.86720812 0.95524728 -0.17157884
10.30188656 11.69493580 -0.46139875 0.93267399 0.95249498 -0.21833834
10.03984165 11.72720432 0.05862283 0.90894991 0.95512307 0.02774089
10.26220894 10.81087303 -0.50687337 0.92908180 0.88049239 -0.23985736
10.49529171 11.37445354 0.00106060 0.95018375 0.92639327 0.00050189
10.28704453 11.77795506 1.68154478 0.93133026 0.95925647 0.79572320
10.26068878 11.15635204 2.07421231 0.92894417 0.90862995 0.98153722
10.43027115 11.91360378 0.61681461 0.94429719 0.97030443 0.29188260
10.59778500 11.58280373 1.06817603 0.95946294 0.94336236 0.50547117
9.51241779 11.79803371 -0.36276335 0.86119998 0.96089178 -0.17166311
10.50024796 12.07138348 -0.46999085 0.95063245 0.98315477 -0.22240420
9.96983910 11.79463196 0.05869919 0.90261227 0.96061474 0.02777702
10.18725300 10.86783600 -0.50662589 0.92229569 0.88513178 -0.23974025
10.44648170 11.46533394 0.00136575 0.94576478 0.93379503 0.00064629
10.19703197 11.22793484 2.07565737 0.92318106 0.91446006 0.98222107
10.82165337 11.63261604 0.54555225 0.97973067 0.94741935 0.25816059
10.53147411 11.65656853 1.06894219 0.95345950 0.94937015 0.50583375
9.43561459 11.85443592 -0.36270398 0.85424668 0.96548545 -0.17163502
10.44767952 12.16439438 -0.47073799 0.94587320 0.99073005 -0.22275776
10.13232994 10.94632053 -0.50712079 0.91732329 0.89152396 -0.23997444
10.40095139 11.56051445 0.00172476 0.94164270 0.94154704 0.00081617
10.76528263 11.66245842 1.64630640 0.97462720 0.94984984 0.77904803
10.14739227 11.31538486 2.08028150 0.91868693 0.92158240 0.98440927
10.65250778 11.59578037 0.53944886 0.96441722 0.94441926 0.25527239
10.44874668 11.71208191 1.06786954 0.94596982 0.95389146 0.50532615
10.57652664 11.57274246 -0.52597779 0.95753831 0.94254291 -0.24889776
10.34269905 11.64210224 0.00192221 0.93636888 0.94819194 0.00090961
10.53670502 11.55928326 1.62037742 0.95393306 0.94144672 0.76677823
10.00011635 11.29288292 2.06351900 0.90535343 0.91974974 0.97647709
10.52313423 11.60025215 0.53583837 0.95270449 0.94478345 0.25356388
10.39601135 11.80146980 1.07032132 0.94119549 0.96117163 0.50648636
10.49825382 11.63302326 -0.52577978 0.95045191 0.94745249 -0.24880406
10.22588921 11.65718651 0.00132985 0.92579359 0.94942051 0.00062930
10.45855713 11.61934280 1.61948335 0.94685805 0.94633830 0.76635510
10.04472160 11.48824215 2.08924055 0.90939170 0.93566078 0.98864877
10.56345177 11.21547985 2.03272986 0.95635456 0.91344565 0.96190733
10.44338417 11.65869141 0.53540856 0.94548434 0.94954306 0.25336048
9.64236832 11.66635418 -0.45205954 0.87296498 0.95016712 -0.21391892
10.36518383 11.63150597 -0.52355260 0.93840456 0.94732893 -0.24775013
10.10929966 11.67126465 0.00073749 0.91523826 0.95056707 0.00034899
10.44167995 11.21015263 -0.10268941 0.94533008 0.91301179 -0.04859362
10.40896988 11.67443943 1.62037742 0.94236869 0.95082563 0.76677823
9.95942688 11.49950504 2.08230448 0.90166962 0.93657809 0.98536652
10.41848373 11.16679001 2.01374555 0.94323003 0.90948009 0.95292377
10.40554333 11.72722721 0.53652608 0.94205844 0.95512497 0.25388932
9.60504627 11.73330116 -0.45264062 0.86958605 0.95561963 -0.21419391
10.26797962 11.63220024 -0.52196878 0.92960423 0.94738549 -0.24700065
10.12644672 10.66832638 -0.59710890 0.91679066 0.86888272 -0.28255770
10.03598499 11.69750023 0.00048619 0.90860075 0.95270383 0.00023007
10.38466263 11.25482941 -0.10270318 0.94016802 0.91665047 -0.04860013
10.34983730 11.75603771 1.62283623 0.93701518 0.95747143 0.76794171
10.02438354 11.72297287 2.11322832 0.90755045 0.95477843 1.00000000
10.29167461 11.17093277 2.00201988 0.93174946 0.90981752 0.94737512
10.43289375 11.90823174 0.54314530 0.94453460 0.96986687 0.25702158
10.61899567 11.58320236 0.97173631 0.96138322 0.94339484 0.45983499
9.52358055 11.78409863 -0.45239159 0.86221057 0.95975685 -0.21407606
10.19600105 11.69799423 -0.52201831 0.92308772 0.95274407 -0.24702409
10.12904072 10.80602837 -0.60029161 0.91702551 0.88009787 -0.28406379
9.94421959 11.73893929 0.00023488 0.90029281 0.95607883 0.00011115
10.42165756 11.43798256 -0.10233600 0.94351733 0.93156743 -0.04842638
10.22929096 11.24415493 2.00369477 0.92610157 0.91578108 0.94816768
10.94713306 11.75189686 0.44996664 0.99109089 0.95713419 0.21292855
10.51650906 11.61719322 0.96863621 0.95210469 0.94616324 0.45836800
9.44560432 11.83901978 -0.45226705 0.85515106 0.96422988 -0.21401712
10.45045948 12.14415073 -0.53449064 0.94612491 0.98908132 -0.25292611
10.08678341 10.89729500 -0.60147732 0.91319978 0.88753104 -0.28462487
9.89332485 11.82883263 0.00055799 0.89568514 0.96340024 0.00026405
10.41388798 11.57452011 -0.10211570 0.94281393 0.94268769 -0.04832213
10.75579548 11.63676357 1.53498828 0.97376829 0.94775712 0.72637123
10.29230976 11.45682526 2.03189230 0.93180692 0.93310207 0.96151102
10.64409161 11.57214069 0.43760240 0.96365523 0.94249392 0.20707767
10.45529270 11.69641209 0.96990448 0.94656247 0.95261520 0.45896813
9.32517624 11.84007454 -0.45073128 0.84424818 0.96431583 -0.21329038
10.43211937 12.27821255 -0.53671783 0.94446450 1.00000000 -0.25398004
10.58405399 11.57793045 -0.62762570 0.95821977 0.94296545 -0.29699853
10.49527168 11.81296062 -0.10158330 0.95018196 0.96210754 -0.04807020
10.56968021 11.58085918 1.51734304 0.95691848 0.94320399 0.71802133
10.20695972 11.50646973 2.02910042 0.92407984 0.93714535 0.96018988
10.53349209 11.59741402 0.43555388 0.95364219 0.94455230 0.20610829
10.40539455 11.78876591 0.97244090 0.94204497 0.96013695 0.46016839
9.22478199 11.86531639 -0.44985962 0.83515906 0.96637166 -0.21287790
10.70292091 11.85614872 -0.63654983 0.96898133 0.96562499 -0.30122152
10.43405056 11.89368820 -0.10153740 0.94463933 0.96868241 -0.04804847
10.47137260 11.61900234 1.51335192 0.94801825 0.94631058 0.71613270
10.12662029 11.56144619 2.02742529 0.91680634 0.94162291 0.95939720
10.43368816 11.63364506 0.43409064 0.94460654 0.94750315 0.20541587
10.36393738 11.89146900 0.97596377 0.93829167 0.96850163 0.46183544
10.11650372 11.67965794 -0.10238649 0.91589046 0.95125067 -0.04845027
10.44947052 11.11492157 -0.18857238 0.94603539 0.90525568 -0.08923426
10.41782951 11.66970062 1.51356196 0.94317079 0.95043969 0.71623212
10.09282303 11.63294411 2.03189230 0.91374654 0.94744605 0.96151102
10.54958534 11.28888416 1.95169938 0.95509923 0.91942406 0.92356294
10.39603233 11.70208549 0.43504176 0.94119740 0.95307726 0.20586595
9.66639423 11.78195000 -0.51513875 0.87514013 0.95958185 -0.24376862
10.24595451 11.60490131 -0.62119782 0.92761022 0.94516212 -0.29395679
10.00526810 11.66200447 -0.10258385 0.90581983 0.94981289 -0.04854367
10.34681702 11.14513588 -0.18841279 0.93674171 0.90771645 -0.08915874
10.34561825 11.73641682 1.51377201 0.93663317 0.95587343 0.71633148
10.14986324 11.84786224 2.06008983 0.91891062 0.96495008 0.97485435
10.43818188 11.31119633 1.94365358 0.94501334 0.92124128 0.91975558
10.37773991 11.83020687 0.43811452 0.93954128 0.96351212 0.20732002
10.65193272 11.59611225 0.88980174 0.96436512 0.94444627 0.42106277
9.51679420 11.74913216 -0.51216912 0.86159617 0.95690900 -0.24236336
10.16099644 11.65550327 -0.62063617 0.91991860 0.94928342 -0.29369101
9.92661762 11.71854115 -0.10260221 0.89869928 0.95441753 -0.04855235
10.36430550 11.30587006 -0.18884504 0.93832505 0.92080748 -0.08936329
10.29092598 11.29295635 1.92836654 0.93168163 0.91975576 0.91252160
10.53869438 11.61841202 0.88589311 0.95411319 0.94626248 0.41921315
9.43156528 11.79462624 -0.51172370 0.85388005 0.96061426 -0.24215259
10.09278774 11.72517014 -0.62088579 0.91374338 0.95495743 -0.29380915
9.82837486 11.75156403 -0.10268941 0.88980490 0.95710707 -0.04859362
10.42440701 11.51624870 -0.18949676 0.94376624 0.93794179 -0.08967169
10.81772804 11.68583965 1.46469760 0.97937530 0.95175415 0.69310904
10.39317894 11.55062389 1.96349978 0.94093907 0.94074148 0.92914701
10.73264694 11.63399220 0.36493337 0.97167253 0.94753140 0.17268999
10.47878170 11.69928265 0.88719594 0.94868904 0.95284903 0.41982967
9.32511711 11.81280708 -0.51043689 0.84424281 0.96209502 -0.24154365
10.05003548 11.82486916 -0.62238353 0.90987283 0.96307743 -0.29451787
9.76454830 11.82540894 -0.10265269 0.88402641 0.96312135 -0.04857624
10.51021671 11.75917339 -0.19028811 0.95153499 0.95772684 -0.09004617
10.59660912 11.59182549 1.44265962 0.95935649 0.94409716 0.68268043
10.29016685 11.58158112 1.95733142 0.93161291 0.94326282 0.92622811
10.54910564 11.57987881 0.35972592 0.95505577 0.94312418 0.17022577
10.42487049 11.78734112 0.88915032 0.94380820 0.96002096 0.42075449
9.20286560 11.80959415 -0.50850666 0.83317488 0.96183336 -0.24063025
9.98197460 11.89542961 -0.62269557 0.90371096 0.96882421 -0.29466555
10.51293468 11.87453365 -0.19058073 0.95178103 0.96712232 -0.09018464
10.51385689 11.61061954 1.43845236 0.95186454 0.94562781 0.68068951
10.21978664 11.61206913 1.95411313 0.92524111 0.94574589 0.92470515
10.46366215 11.59528828 0.35826531 0.94732022 0.94437915 0.16953459
10.41516876 11.88893700 0.89371043 0.94292986 0.96829540 0.42291239
9.09589863 11.78628063 -0.50642788 0.82349068 0.95993459 -0.23964655
9.93860531 11.95769310 -0.62331963 0.89978456 0.97389525 -0.29496086
10.49069214 12.00065136 -0.19084673 0.94976735 0.97739398 -0.09031051
10.36752319 11.01390076 -0.25827974 0.93861634 0.89702803 -0.12222046
10.43275166 11.66754055 1.43725026 0.94452173 0.95026380 0.68012065
10.14013386 11.66856384 1.95277214 0.91802979 0.95034713 0.92407060
11.04553890 11.80904770 1.93453562 1.00000000 0.96178883 0.91544092
10.38130569 11.65034485 0.35782075 0.93986410 0.94886327 0.16932422
8.94668102 11.74448586 -0.50335932 0.80998141 0.95653057 -0.23819448
9.87978840 12.03997040 -0.62413096 0.89445961 0.98059636 -0.29534480
10.07711983 11.67377090 -0.18912435 0.91232485 0.95077121 -0.08949547
10.28720760 11.06711960 -0.25815237 0.93134505 0.90136242 -0.12216019
10.37896347 11.75526142 1.44025540 0.93965209 0.95740819 0.68154275
10.16197681 11.84347630 1.97261834 0.92000735 0.96459287 0.93346202
10.53712749 11.40952110 1.85262322 0.95397133 0.92924935 0.87667918
10.33163261 11.74238682 0.35896385 0.93536699 0.95635962 0.16986515
10.65091610 11.58611488 0.79952735 0.96427310 0.94363207 0.37834403
9.55313110 11.79303360 -0.61171204 0.86488593 0.96048456 -0.28946802
9.96082687 11.68657017 -0.18890490 0.90179634 0.95181364 -0.08939162
10.30821037 11.23013115 -0.25921920 0.93324649 0.91463894 -0.12266503
10.37018871 11.37155724 1.83456171 0.93885767 0.92615741 0.86813229
10.85335732 11.62305260 0.25950858 0.98260099 0.94664043 0.12280196
10.50131226 11.56864643 0.79274762 0.95072883 0.94220930 0.37513581
9.38004780 11.72962284 -0.60678190 0.84921592 0.95532006 -0.28713503
9.85762978 11.71369076 -0.18875194 0.89245349 0.95402247 -0.08931924
10.43248463 11.50928116 -0.26152807 0.94449759 0.93737429 -0.12375760
10.38228798 11.52925110 1.85058808 0.93995303 0.93900079 0.87571609
10.55481339 11.44730473 0.25121462 0.95557249 0.93232667 0.11887718
10.46711731 11.67746162 0.79619694 0.94763303 0.95107180 0.37676805
9.32973766 11.81810665 -0.60796762 0.84466118 0.96252662 -0.28769612
9.76214314 11.74921608 -0.18863888 0.88380867 0.95691586 -0.08926573
10.43877411 11.66242123 -0.26246753 0.94506699 0.94984680 -0.12420216
10.60443687 11.58372688 1.32167637 0.96006513 0.94343758 0.62542999
10.34396648 11.63275528 1.85720217 0.93648362 0.94743067 0.87884593
10.51233578 11.54588223 0.25231382 0.95172685 0.94035530 0.11939733
10.40016556 11.75046444 0.79679167 0.94157159 0.95701754 0.37704951
9.19252300 11.79616261 -0.60478491 0.83223850 0.96073943 -0.28619003
9.70159340 11.78890419 -0.18861228 0.87832683 0.96014822 -0.08925315
10.50594425 11.84899807 -0.26393250 0.95114821 0.96504259 -0.12489540
10.50820255 11.58789349 1.31593680 0.95135266 0.94377691 0.62271398
10.27196312 11.66204071 1.85389507 0.92996484 0.94981581 0.87728101
10.45915127 11.59677505 0.25236380 0.94691181 0.94450027 0.11942098
10.41321754 11.87731743 0.80297673 0.94275326 0.96734905 0.37997633
9.06954288 11.75240135 -0.60135251 0.82110459 0.95717525 -0.28456581
9.64118004 11.86672115 -0.18868543 0.87285739 0.96648604 -0.08928777
10.47350597 11.96287155 -0.26444203 0.94821143 0.97431701 -0.12513651
10.42321396 11.64035225 1.31427050 0.94365823 0.94804943 0.62192547
10.26497841 11.80260372 1.86686885 0.92933249 0.96126401 0.88342035
10.36876965 11.64287472 0.25171426 0.93872917 0.94825488 0.11911361
8.92392445 11.71542931 -0.59767056 0.80792117 0.95416409 -0.28282347
10.36572170 11.72349548 1.31649220 0.93845326 0.95482105 0.62297678
10.28086567 11.69129658 0.25116467 0.93077087 0.95219857 0.11885355
8.84893513 11.76967239 -0.59760815 0.80113202 0.95858192 -0.28279394
9.97776699 11.69086933 -0.26022238 0.90333003 0.95216376 -0.12313973
10.34825802 11.85282612 1.32445359 0.93687218 0.96535438 0.62674421
10.23477364 11.78732967 0.25221390 0.92659795 0.96002001 0.11935005
9.84732151 11.68611336 -0.25952175 0.89152026 0.95177644 -0.12280820
9.71605110 11.67864704 -0.25880522 0.87963575 0.95116836 -0.12246912
9.66982555 11.73509598 -0.25891668 0.87545079 0.95576584 -0.12252186
9.56050491 11.75222874 -0.25847083 0.86555350 0.95716119 -0.12231089
