-13.34470844 -10.06324196 0.16880479 -0.99273306 -0.97914761 0.07967062
-13.34647274 -10.11472130 1.32777107 -0.99286431 -0.98415649 0.62666672
-13.17634296 -10.03379440 0.16601628 -0.98020810 -0.97628236 0.07835453
-13.18161201 -10.12060261 1.31660736 -0.98060006 -0.98472875 0.62139779
-13.34045887 -10.02440453 -0.38549569 -0.99241692 -0.97536874 -0.18194200
-13.20636272 -10.18856621 0.16818105 -0.98244131 -0.99134159 0.07937623
-13.34723377 -10.04644203 1.90001500 -0.99292094 -0.97751296 0.89674807
-13.42544746 -10.14540863 0.75861824 -0.99873936 -0.98714238 0.35804424
-13.20574760 -10.27183342 1.32637560 -0.98239559 -0.99944341 0.62600809
-13.16275501 -10.02066994 -0.38335899 -0.97919726 -0.97500539 -0.18093354
-13.13086319 -10.01314735 1.87651217 -0.97682482 -0.97427344 0.88565546
-13.23469257 -10.13228321 0.75010478 -0.98454881 -0.98586529 0.35402617
-13.12105465 -10.13678455 1.88475037 -0.97609514 -0.98630327 0.88954365
-13.22595119 -10.25814533 0.75382942 -0.98389852 -0.99811161 0.35578409
-13.36328030 -10.04510689 0.07491230 -0.99411464 -0.97738308 0.03535628
-13.40383339 -10.14564896 1.24762332 -0.99713147 -0.98716575 0.58883947
-13.23301792 -10.07806396 0.07384331 -0.98442423 -0.98058981 0.03485175
-13.20683575 -10.12794113 1.23381948 -0.98247653 -0.98544282 0.58232450
-13.38159180 -10.02623367 -0.48497513 -0.99547690 -0.97554672 -0.22889321
-13.20271683 -10.18662357 0.07437780 -0.98217010 -0.99115258 0.03510401
-13.41726971 -10.13668728 1.81867480 -0.99813104 -0.98629379 0.85835803
-13.39689636 -10.09940624 0.66176385 -0.99661541 -0.98266637 0.31233197
-13.20123482 -10.25589657 1.23989975 -0.98205984 -0.99789280 0.58519417
-13.19080067 -10.01354885 -0.48165452 -0.98128366 -0.97431248 -0.22732598
-13.21436405 -10.11470222 1.79832494 -0.98303658 -0.98415464 0.84875351
-13.26802254 -10.13374424 0.65785939 -0.98702830 -0.98600745 0.31048921
-13.17521954 -10.13274288 -0.48289976 -0.98012453 -0.98591000 -0.22791369
-13.15369415 -10.19996071 1.79878747 -0.97852325 -0.99245024 0.84897184
-13.21990395 -10.22911549 0.65881169 -0.98344868 -0.99528700 0.31093866
-13.35183430 -10.05198193 0.01215390 -0.99326319 -0.97805202 0.00573626
-13.37900448 -10.12493420 1.15107787 -0.99528444 -0.98515022 0.54327303
-13.18661404 -10.02507782 0.01082557 -0.98097217 -0.97543424 0.00510933
-13.19970798 -10.12008381 1.13989151 -0.98194629 -0.98467827 0.53799337
-13.33734226 -9.97590637 -0.55018002 -0.99218512 -0.97064990 -0.25966787
-13.18984795 -10.15906906 0.01157949 -0.98121279 -0.98847151 0.00546516
-13.40015697 -10.09820461 0.58389223 -0.99685800 -0.98254943 0.27557901
-13.23183727 -10.27755356 1.14923906 -0.98433644 -1.00000000 0.54240513
-13.19798088 -10.00145245 -0.54780430 -0.98181778 -0.97313553 -0.25854662
-13.29300022 -10.09601784 1.73862231 -0.98888642 -0.98233670 0.82057571
-13.16825294 -10.05346584 0.57478005 -0.97960627 -0.97819638 0.27127832
-13.12220478 -10.07442379 -0.54740840 -0.97618067 -0.98023558 -0.25835976
-13.12386703 -10.09800720 1.72364604 -0.97630435 -0.98253024 0.81350738
-13.21378040 -10.22049046 0.58071154 -0.98299313 -0.99444777 0.27407780
-13.17447948 -10.26960373 1.73996341 -0.98006946 -0.99922651 0.82120872
-13.33060360 -10.03214645 -0.09955925 -0.99168378 -0.97612202 -0.04698887
-13.44239330 -10.14884567 1.05149353 -1.00000000 -0.98747683 0.49627230
-13.14133072 -9.98732471 -0.09996773 -0.97760350 -0.97176093 -0.04718167
-13.20230675 -10.09877872 1.03585207 -0.98213959 -0.98260534 0.48889002
-13.31020546 -9.95000076 -0.65670717 -0.99016637 -0.96812928 -0.30994537
-13.17983627 -10.14766026 -0.09967399 -0.98046798 -0.98736143 -0.04704303
-13.37052250 -10.05972481 0.47454885 -0.99465340 -0.97880536 0.22397232
-13.22067356 -10.24497604 1.04317963 -0.98350590 -0.99683022 0.49234840
-13.12939262 -9.94426537 -0.65208912 -0.97671539 -0.96757126 -0.30776581
-13.33666801 -10.11275959 1.62909639 -0.99213493 -0.98396564 0.76888293
-13.16068077 -10.03224182 0.46781799 -0.97904301 -0.97613132 0.22079556
-13.13808727 -10.08123779 -0.65489739 -0.97736222 -0.98089862 -0.30909124
-13.16077518 -10.11046410 1.61418188 -0.97904998 -0.98374230 0.76184374
-13.21455574 -10.20499039 0.47323194 -0.98305082 -0.99293965 0.22335078
-13.16768932 -10.24783993 1.62363470 -0.97956437 -0.99710888 0.76630515
-13.32479858 -10.04335976 0.95116782 -0.99125195 -0.97721308 0.44892168
-13.26817799 -10.01824760 -0.19312772 -0.98703986 -0.97476965 -0.09115028
-13.24754143 -10.06632233 2.11234689 -0.98550469 -0.97944731 0.99696213
-13.21389103 -10.09048748 0.94725913 -0.98300135 -0.98179859 0.44707689
-13.16688156 -10.07220459 -0.19296812 -0.97950429 -0.98001969 -0.09107496
-13.20129108 -10.16267967 2.11529684 -0.98206407 -0.98882282 0.99835443
-13.22435093 -10.23079967 0.95338273 -0.98377949 -0.99545085 0.44996703
-13.37996674 -10.13292885 1.55124688 -0.99535596 -0.98592812 0.73214036
-13.15747452 -10.26129436 2.11878347 -0.97880447 -0.99841797 1.00000000
-13.30405331 -10.11399269 0.39300272 -0.98970866 -0.98408562 0.18548508
-13.18196487 -10.11367226 1.53421748 -0.98062634 -0.98405445 0.72410297
-13.19752312 -10.16439915 0.39128807 -0.98178375 -0.98899013 0.18467581
-13.18251514 -10.24644470 1.54243171 -0.98066729 -0.99697310 0.72797984
-13.28805065 -10.01553345 -0.27033362 -0.98851824 -0.97450560 -0.12758908
-13.17545414 -9.99996090 1.98210585 -0.98014200 -0.97299039 0.93549240
-13.26848602 -10.12137604 0.85614455 -0.98706275 -0.98480403 0.40407363
-13.16758347 -10.05520058 -0.26976037 -0.97955650 -0.97836518 -0.12731852
-13.14699268 -10.10910702 1.98770237 -0.97802472 -0.98361027 0.93813378
-13.13505745 -10.15091324 0.85091102 -0.97713679 -0.98767799 0.40160358
-13.27917480 -10.03858566 1.40925157 -0.98785794 -0.97674859 0.66512299
-13.13177586 -10.22924423 1.99558842 -0.97689271 -0.99529952 0.94185579
-13.17725277 -10.02027893 0.27579668 -0.98027581 -0.97496730 0.13016747
-13.20159626 -10.11094189 1.40758526 -0.98208672 -0.98378879 0.66433650
-13.19330120 -10.16378784 0.27829486 -0.98146969 -0.98893064 0.13134654
-13.16772938 -10.21684837 1.41110301 -0.97956735 -0.99409342 0.66599679
