-4.29531860 8.76101494 1.66627932 -0.79708105 0.98419452 0.86470681
-4.26559544 8.56472111 1.63331807 -0.79156536 0.96214330 0.84760171
-4.29520893 8.49033260 1.62404764 -0.79706073 0.95378667 0.84279090
-4.31894445 8.43846130 1.61786747 -0.80146533 0.94795954 0.83958375
-4.36275482 8.39369488 1.61443400 -0.80959517 0.94293058 0.83780193
-4.40894413 8.35393429 1.61203051 -0.81816655 0.93846393 0.83655465
-4.45387125 8.31218910 1.60928369 -0.82650363 0.93377435 0.83512920
-4.50317478 8.27885437 1.60825372 -0.83565289 0.93002963 0.83459473
-4.45616579 8.70454597 0.71777421 -0.82692945 0.97785091 0.37248510
-4.55510283 8.25039768 1.60825372 -0.84528917 0.92683285 0.83459473
-4.44009924 8.57387829 0.70695931 -0.82394797 0.96317202 0.36687279
-4.59778786 8.23571301 1.60962713 -0.85321021 0.92518318 0.83530742
-4.27410841 8.67902184 1.60121620 -0.79314512 0.97498363 0.83094263
-4.56174707 8.76037598 0.04335839 -0.84652215 0.98412275 0.02250061
-4.38995600 8.67609596 1.04785669 -0.81464291 0.97465491 0.54377967
-4.47898579 8.51762867 0.70416838 -0.83116412 0.95685303 0.36542442
-4.64749336 8.20323753 1.60894036 -0.86243403 0.92153496 0.83495104
-4.27847385 8.55136299 1.58221674 -0.79395521 0.96064270 0.82108295
-4.52005243 8.54965878 0.03957922 -0.83878487 0.96045125 0.02053943
-4.39518261 8.55309486 1.03477263 -0.81561279 0.96083724 0.53698975
-4.49943781 8.71692944 0.38466376 -0.83495945 0.97924209 0.19961922
-4.50980520 8.44718361 0.69998193 -0.83688331 0.94893938 0.36325189
-4.70880032 8.19093513 1.61237383 -0.87381077 0.92015296 0.83673280
-4.31699419 8.49439335 1.57655025 -0.80110341 0.95424283 0.81814235
-4.57937813 8.53164959 0.03979937 -0.84979391 0.95842808 0.02065367
-4.41932678 8.46905136 1.02701914 -0.82009321 0.95139593 0.53296614
-4.51874685 8.62134075 0.38061985 -0.83854258 0.96850383 0.19752064
-4.54563570 8.38718796 0.69684213 -0.84353232 0.94219959 0.36162251
-4.55606937 8.61978054 -0.28254718 -0.84546852 0.96832854 -0.14662635
-4.76017237 8.16118813 1.61237383 -0.88334388 0.91681123 0.83673280
-4.35676908 8.44078732 1.57155037 -0.80848444 0.94822085 0.81554770
-4.61080313 8.46236801 0.03895548 -0.85562545 0.95064515 0.02021574
-4.46125317 8.42008972 1.02411151 -0.82787353 0.94589573 0.53145725
-4.55116224 8.55227375 0.37817222 -0.84455788 0.96074498 0.19625047
-4.59053135 8.34451294 0.69544667 -0.85186362 0.93740559 0.36089835
-4.61963177 8.60858536 -0.28284395 -0.85726380 0.96707094 -0.14678036
-4.82646179 8.15652084 1.61752403 -0.89564514 0.91628689 0.83940548
-4.40515947 8.40450287 1.56988370 -0.81746423 0.94414473 0.81468278
-4.65708256 8.42099571 0.03869864 -0.86421353 0.94599748 0.02008246
-4.50934887 8.38316059 1.02290010 -0.83679861 0.94174719 0.53082860
-4.57717133 8.47261047 0.37508610 -0.84938443 0.95179576 0.19464894
-4.63897038 8.30855465 0.69474888 -0.86085242 0.93336606 0.36053625
-4.44769430 8.66364765 0.66457766 -0.82535738 0.97325653 0.34487906
-4.65250254 8.54079914 -0.28219107 -0.86336362 0.95945597 -0.14644155
-4.91526794 8.18845940 1.63022792 -0.91212493 0.91987485 0.84599811
-4.45141983 8.36445904 1.56755042 -0.82604873 0.93964624 0.81347197
-4.70007658 8.37415123 0.03833173 -0.87219191 0.94073504 0.01989205
-4.53927898 8.34439945 1.02047706 -0.84235275 0.93739283 0.52957112
-4.39640188 8.74886322 1.00098240 -0.81583905 0.98282945 0.51945448
-4.60647297 8.43169022 0.37391549 -0.85482192 0.94719887 0.19404146
-4.67807198 8.28660202 0.69474888 -0.86810851 0.93089998 0.36053625
-4.46010733 8.58769608 0.65948337 -0.82766086 0.96472424 0.34223539
-4.68591881 8.50653267 -0.28198332 -0.86956465 0.95560652 -0.14633374
-4.96815825 8.18875885 1.63503480 -0.92193973 0.91990846 0.84849262
-4.48892498 8.33991241 1.56688380 -0.83300859 0.93688875 0.81312603
-4.73255253 8.33975124 0.03807490 -0.87821847 0.93687063 0.01975876
-4.57088232 8.74132061 -0.01231272 -0.84821737 0.98198211 -0.00638962
-4.58776522 8.30877018 1.01950788 -0.85135031 0.93339032 0.52906817
-4.38922310 8.59884739 0.98502630 -0.81450689 0.96597695 0.51117414
-4.63894320 8.36594486 0.37168071 -0.86084741 0.93981320 0.19288173
-4.72805738 8.25359249 0.69440001 -0.87738431 0.92719173 0.36035520
-4.47971201 8.49419689 0.65340316 -0.83129889 0.95422077 0.33908010
-4.72360134 8.44902706 -0.28150851 -0.87655741 0.94914645 -0.14608735
-5.03919792 8.18922329 1.64155841 -0.93512255 0.91996062 0.85187799
-4.53747034 8.30461311 1.56555057 -0.84201711 0.93292332 0.81243414
-4.77784824 8.29773521 0.03781806 -0.88662398 0.93215066 0.01962548
-4.56032467 8.58865166 -0.01409439 -0.84625816 0.96483159 -0.00731421
-4.64572525 8.29015923 1.02096164 -0.86210597 0.93129957 0.52982265
-4.40036821 8.48811626 0.97415763 -0.81657511 0.95353764 0.50553393
-4.67765188 8.31229496 0.37019086 -0.86803055 0.93378627 0.19210859
-4.51681042 8.73882008 0.33092970 -0.83818322 0.98170120 0.17173421
-4.79087639 8.24264717 0.69631881 -0.88904160 0.92596215 0.36135095
-4.50769043 8.41838455 0.64896625 -0.83649087 0.94570416 0.33677760
-4.78055668 8.42613029 -0.28162721 -0.88712656 0.94657427 -0.14614895
-5.24859524 8.40946770 1.69340372 -0.97398037 0.94470245 0.87878287
-4.59908676 8.29320621 1.56888378 -0.85345125 0.93164188 0.81416392
-4.83596420 8.27789879 0.03803821 -0.89740855 0.92992228 0.01973972
-4.58395052 8.50343323 -0.01490886 -0.85064244 0.95525837 -0.00773687
-4.70166206 8.26770020 1.02193093 -0.87248611 0.92877656 0.53032565
-4.43978882 8.43390274 0.97068888 -0.82389039 0.94744742 0.50373381
-4.72680473 8.27754402 0.36987159 -0.87715185 0.92988241 0.19194290
-4.52446604 8.61995697 0.32607287 -0.83960390 0.96834838 0.16921379
-4.85475922 8.23295116 0.69841200 -0.90089631 0.92487293 0.36243719
-4.54627275 8.36359692 0.64650124 -0.84365058 0.93954945 0.33549839
-4.81738281 8.36823082 -0.28115237 -0.89396042 0.94006997 -0.14590253
-4.59563732 8.68790627 -0.34189811 -0.85281116 0.97598165 -0.17742620
-4.64821243 8.25898361 1.56788373 -0.86256748 0.92779738 0.81364495
-4.89197254 8.25422192 0.03818497 -0.90780199 0.92726243 0.01981589
-4.61720610 8.43758011 -0.01544336 -0.85681367 0.94786054 -0.00801425
-4.76148367 8.25173473 1.02386928 -0.88358718 0.92698306 0.53133154
-4.47870207 8.37952995 0.96722019 -0.83111149 0.94133931 0.50193375
-4.36731672 8.73568726 1.28695858 -0.81044173 0.98134929 0.66786033
-4.78374481 8.25631142 0.37040368 -0.88771820 0.92749721 0.19221902
-4.55233288 8.54193974 0.32340640 -0.84477514 0.95958406 0.16783004
-4.92486763 8.23302269 0.70155185 -0.91390634 0.92488098 0.36406660
-4.59201813 8.32263565 0.64535093 -0.85213953 0.93494791 0.33490145
-4.86885452 8.33607292 -0.28112268 -0.90351200 0.93645746 -0.14588712
-4.62563133 8.61300755 -0.34081891 -0.85837710 0.96756768 -0.17686616
-4.69903898 8.22790051 1.56755042 -0.87199938 0.92430556 0.81347197
-4.94787407 8.23016834 0.03833173 -0.91817564 0.92456031 0.01989205
-4.66335821 8.39615059 -0.01562152 -0.86537808 0.94320643 -0.00810671
-4.31915140 8.71348000 1.53999484 -0.80150372 0.97885460 0.79917216
-4.82632303 8.24389935 1.02701914 -0.89561939 0.92610282 0.53296614
-4.52088308 8.33199406 0.96467644 -0.83893901 0.93599921 0.50061369
-4.36993361 8.60584068 1.27019620 -0.81092739 0.96676260 0.65916157
-4.84466791 8.24156761 0.37136146 -0.89902365 0.92584091 0.19271606
-4.57750559 8.46039677 0.32054946 -0.84944642 0.95042372 0.16634744
-4.99931622 8.23934269 0.70538938 -0.92772174 0.92559093 0.36605808
-4.64421988 8.29361916 0.64535093 -0.86182660 0.93168825 0.33490145
-4.90885878 8.28469753 -0.28076658 -0.91093558 0.93068600 -0.14570232
-4.64723873 8.52401543 -0.33940765 -0.86238682 0.95757049 -0.17613380
-4.75852394 8.21188068 1.57021701 -0.88303798 0.92250592 0.81485575
-5.01515818 8.22449398 0.03888210 -0.93066150 0.92392290 0.02017766
-4.71699858 8.36842823 -0.01559607 -0.87533212 0.94009215 -0.00809350
-4.31942558 8.57871819 1.52050364 -0.80155462 0.96371567 0.78905725
-4.87830877 8.24324703 1.03016901 -0.90526640 0.92602956 0.53460073
-4.55914450 8.30885410 0.96444523 -0.84603918 0.93339974 0.50049371
-4.37502575 8.51657486 1.25892496 -0.81187230 0.95673466 0.65331244
-4.90392828 8.25294113 0.37348983 -0.91002059 0.92711860 0.19382057
-4.61159182 8.42820454 0.31997806 -0.85577178 0.94680732 0.16605091
-5.06944132 8.26658058 0.71062243 -0.94073480 0.92865080 0.36877373
-4.68814278 8.28032494 0.64617258 -0.86997736 0.93019480 0.33532783
-4.47798395 8.66202068 0.61106616 -0.83097821 0.97307372 0.31710953
-4.95403147 8.27175331 -0.28094465 -0.91931826 0.92923188 -0.14579473
-4.69024086 8.50728035 -0.33953217 -0.87036669 0.95569050 -0.17619841
-4.80809259 8.20810604 1.57388365 -0.89223641 0.92208189 0.81675857
-5.07070208 8.22797203 0.03946915 -0.94096875 0.92431360 0.02048231
-4.74947596 8.33393002 -0.01577424 -0.88135892 0.93621671 -0.00818596
-4.32650757 8.49324799 1.50868106 -0.80286878 0.95411414 0.78292203
-4.93308258 8.21753311 1.03089583 -0.91543078 0.92314088 0.53497791
-4.61222315 8.28178215 0.96467644 -0.85588896 0.93035853 0.50061369
-4.41926003 8.47139072 1.25603485 -0.82008088 0.95165873 0.65181261
-4.96913528 8.24417400 0.37487325 -0.92212105 0.92613369 0.19453847
-4.64416599 8.36234379 0.31797820 -0.86181659 0.93940866 0.16501310
-5.15084267 8.28187561 0.71550661 -0.95584047 0.93036902 0.37130836
-4.74304438 8.25589657 0.64666557 -0.88016540 0.92745060 0.33558366
-4.49975061 8.57198429 0.60570282 -0.83501744 0.96295923 0.31432626
-5.01945066 8.26265335 -0.28133044 -0.93145806 0.92820960 -0.14599493
-4.72706413 8.44794369 -0.33882654 -0.87719995 0.94902474 -0.17583223
-4.88165379 8.21507740 1.58121681 -0.90588713 0.92286503 0.82056409
-5.14356709 8.22981930 0.04020297 -0.95449030 0.92452109 0.02086312
-4.79276848 8.28832436 -0.01600331 -0.88939273 0.93109345 -0.00830483
-4.36794424 8.44312572 1.50452721 -0.81055820 0.94848353 0.78076643
-4.54666090 8.61704254 -0.05040298 -0.84372258 0.96802098 -0.02615636
-5.01259089 8.23209953 1.03743792 -0.93018508 0.92477727 0.53837287
-4.66806269 8.25956535 0.96560144 -0.86625111 0.92786270 0.50109375
-4.39748907 8.59953403 0.94756663 -0.81604081 0.96605408 0.49173465
-4.44728804 8.39629173 1.24823177 -0.82528198 0.94322228 0.64776325
-5.04592419 8.25363159 0.37742731 -0.93637073 0.92719615 0.19586390
-4.70150185 8.34171104 0.31845436 -0.87245637 0.93709081 0.16526020
-5.28275394 8.37557220 0.72858918 -0.98031920 0.94089472 0.37809747
-4.80682468 8.24662304 0.64863753 -0.89200109 0.92640883 0.33660701
-4.52621412 8.49256611 0.60125887 -0.83992827 0.95403755 0.31202009
-5.07758236 8.24115467 -0.28150851 -0.94224554 0.92579448 -0.14608735
-4.77218103 8.40414906 -0.33849448 -0.88557231 0.94410497 -0.17565991
-4.95143366 8.21468353 1.58721662 -0.91883618 0.92282081 0.82367760
-5.23168993 8.25469017 0.04145046 -0.97084326 0.92731506 0.02151050
-4.84374237 8.25632000 -0.01602876 -0.89885193 0.92749816 -0.00831804
-4.40707874 8.38932705 1.49973428 -0.81782037 0.94243991 0.77827913
-4.57132339 8.53371620 -0.05095944 -0.84829921 0.95866024 -0.02644513
-5.09980297 8.25779819 1.04567599 -0.94636899 0.92766422 0.54264802
-4.73365116 8.25422859 0.96883893 -0.87842232 0.92726320 0.50277382
-4.42936182 8.52944946 0.94220203 -0.82195544 0.95818096 0.48895073
-4.50654268 8.38037014 1.25025475 -0.83627784 0.94143367 0.64881307
-5.12408304 8.26414394 0.38008776 -0.95087469 0.92837709 0.19724452
-4.74888086 8.30332470 0.31797820 -0.88124847 0.93277854 0.16501310
-4.87674046 8.24717999 0.65159553 -0.90497535 0.92647135 0.33814204
-4.54678345 8.70345402 0.28447971 -0.84374535 0.97772825 0.14762923
-4.56710052 8.44118595 0.59926677 -0.84751558 0.94826561 0.31098631
-5.14627409 8.23618793 -0.28198332 -0.95499265 0.92523652 -0.14633374
-4.81792927 8.36185646 -0.33820394 -0.89406180 0.93935388 -0.17550914
-5.03165102 8.23058224 1.59654963 -0.93372208 0.92460680 0.82852095
-5.34960985 8.32413483 0.04368861 -0.99272561 0.93511635 0.02267197
-4.89756060 8.22916412 -0.01597786 -0.90883893 0.92444754 -0.00829162
-4.54494143 8.64572430 -0.37967551 -0.84340352 0.97124302 -0.19703059
-4.44944143 8.34233093 1.49621940 -0.82568163 0.93716043 0.77645510
-4.59607887 8.45217800 -0.05149795 -0.85289305 0.94950044 -0.02672459
-5.18542004 8.27936268 1.05342948 -0.96225697 0.93008673 0.54667163
-4.79139280 8.23463821 0.97022641 -0.88913745 0.92506248 0.50349385
-4.46145916 8.46106052 0.93706095 -0.82791173 0.95049828 0.48628280
-4.55530071 8.34494972 1.24909878 -0.84532589 0.93745464 0.64821315
-4.36849070 8.72419262 1.23622131 -0.81065959 0.98005801 0.64153045
-5.21537113 8.29426003 0.38402525 -0.96781498 0.93176025 0.19928786
-4.80795097 8.28543282 0.31864482 -0.89221013 0.93076861 0.16535904
-4.94378757 8.24204826 0.65406048 -0.91741729 0.92589492 0.33942121
-4.55155993 8.58126163 0.27992362 -0.84463173 0.96400142 0.14526488
-4.60173845 8.37915230 0.59635526 -0.85394335 0.94129688 0.30947539
-5.22047281 8.23911762 -0.28260654 -0.96876168 0.92556566 -0.14665717
-4.87137842 8.33314800 -0.33824542 -0.90398031 0.93612885 -0.17553066
-5.12158298 8.26089859 1.60888267 -0.95041072 0.92801249 0.83492112
-4.96152782 8.21880054 -0.01567243 -0.92070931 0.92328328 -0.00813312
-4.60673475 8.63109207 -0.38007146 -0.85487050 0.96959925 -0.19723606
-4.50082588 8.31247520 1.49589992 -0.83521700 0.93380648 0.77628928
-4.64618397 8.41788673 -0.05155180 -0.86219108 0.94564825 -0.02675253
-4.23285055 8.45098209 1.90210140 -0.78548890 0.94936609 0.98708540
-4.85611820 8.22663879 0.97323263 -0.90114850 0.92416382 0.50505388
-4.49946499 8.40485859 0.93348455 -0.83496445 0.94418466 0.48442686
-4.60475492 8.31097603 1.24823177 -0.85450310 0.93363810 0.64776325
-4.36688900 8.58524609 1.21863282 -0.81036240 0.96444905 0.63240302
-4.86193466 8.25850773 0.31883529 -0.90222788 0.92774391 0.16545787
-5.02025366 8.25174332 0.65800440 -0.93160707 0.92698401 0.34146789
-4.58922005 8.52261925 0.27846223 -0.85162026 0.95741367 0.14450650
-4.64065075 8.32571697 0.59420991 -0.86116427 0.93529403 0.30836207
-5.30250120 8.25320053 -0.28343749 -0.98398370 0.92714769 -0.14708838
-4.91550970 8.28859997 -0.33791336 -0.91216975 0.93112439 -0.17535834
-5.02867985 8.21308041 -0.01529064 -0.93317074 0.92264068 -0.00793500
-4.63697004 8.55807877 -0.37883413 -0.86048126 0.96139711 -0.19659396
-4.55392027 8.28575993 1.49621940 -0.84506971 0.93080539 0.77645510
-4.69702101 8.38504219 -0.05158770 -0.87162489 0.94195855 -0.02677116
-4.29471254 8.44170189 1.90611529 -0.79696864 0.94832355 0.98916841
-4.90294552 8.21732903 0.97508264 -0.90983826 0.92311800 0.50601393
-4.53427219 8.37483406 0.93236691 -0.84142363 0.94081175 0.48384684
-4.64095545 8.28401089 1.24736464 -0.86122084 0.93060887 0.64731324
-4.38293123 8.51697540 1.21109486 -0.81333935 0.95677966 0.62849122
-4.91708517 8.26300812 0.32035899 -0.91246212 0.92824948 0.16624859
-5.07156849 8.24839592 0.65997636 -0.94112957 0.92660797 0.34249124
-4.60246992 8.45182037 0.27605525 -0.85407907 0.94946027 0.14325741
-4.68474722 8.31243229 0.59497613 -0.86934721 0.93380171 0.30875969
-4.45577192 8.60605621 0.54631776 -0.82685637 0.96678680 0.28350869
-5.38721275 8.29847527 -0.28468391 -0.99970359 0.93223381 -0.14773521
-4.95246553 8.26190948 -0.33783036 -0.91902763 0.92812604 -0.17531528
-5.08725214 8.22164631 -0.01480705 -0.94403994 0.92360300 -0.00768404
-4.66374588 8.51161289 -0.37814122 -0.86545002 0.95617723 -0.19623438
-4.59387827 8.26593208 1.49653900 -0.85248470 0.92857796 0.77662098
-4.72757864 8.34717178 -0.05174925 -0.87729543 0.93770427 -0.02685500
-4.57249641 8.76705456 -0.11515496 -0.84851688 0.98487300 -0.05975905
-4.32998085 8.41265011 1.90410829 -0.80351335 0.94505996 0.98812687
-4.97805405 8.22550106 0.98040134 -0.92377609 0.92403603 0.50877404
-4.58392000 8.34095955 0.93169636 -0.85063678 0.93700635 0.48349887
-4.49195719 8.90171051 0.91446328 -0.83357126 1.00000000 0.47455585
-4.70371294 8.27358913 1.25054371 -0.87286669 0.92943811 0.64896303
-4.41443396 8.44709682 1.20439446 -0.81918526 0.94892961 0.62501413
-4.97816420 8.24736214 0.32121608 -0.92379653 0.92649186 0.16669337
-5.17059326 8.29257870 0.66737127 -0.95950556 0.93157136 0.34632877
-4.64966154 8.41225529 0.27553946 -0.86283642 0.94501561 0.14298974
-4.74085760 8.28974915 0.59558904 -0.87975961 0.93125349 0.30907777
-4.49866104 8.55667686 0.54462677 -0.83481526 0.96123964 0.28263116
-5.01152468 8.24260426 -0.33812091 -0.92998725 0.92595732 -0.17546605
-5.16423464 8.23022842 -0.01419619 -0.95832556 0.92456704 -0.00736704
-4.69957590 8.45072651 -0.37725034 -0.87209898 0.94933736 -0.19577207
-4.64961815 8.24377537 1.49781704 -0.86282837 0.92608893 0.77728420
-4.31942225 8.70550060 1.45021057 -0.80155396 0.97795820 0.75257909
-4.77593088 8.31037617 -0.05182105 -0.88626814 0.93357068 -0.02689226
-4.55010509 8.59129429 -0.11553590 -0.84436172 0.96512848 -0.05995674
-4.37552261 8.37137127 1.90089715 -0.81196451 0.94042277 0.98646045
-5.05552864 8.23644257 0.98618251 -0.93815303 0.92526513 0.51177418
-4.63623714 8.31199360 0.93169636 -0.86034524 0.93375242 0.48349887
-4.39780855 8.57918453 0.87959290 -0.81610012 0.96376806 0.45646006
-4.76751471 8.26441765 1.25401187 -0.88470638 0.92840785 0.65076280
-4.46372271 8.41218853 1.20327771 -0.82833177 0.94500810 0.62443459
-5.06522799 8.27392483 0.32445395 -0.93995297 0.92947584 0.16837366
-4.67887497 8.34109974 0.27347633 -0.86825752 0.93702215 0.14191909
-4.79485846 8.26324272 0.59589553 -0.88978052 0.92827582 0.30923682
-4.52239084 8.47185993 0.54011756 -0.83921880 0.95171148 0.28029114
-5.07995033 8.23822117 -0.33878502 -0.94268495 0.92546499 -0.17581068
-5.25329447 8.25675106 -0.01330536 -0.97485238 0.92754656 -0.00690475
-4.74271679 8.40363979 -0.37675542 -0.88010466 0.94404775 -0.19551522
-4.69541693 8.20412922 1.49589992 -0.87132722 0.92163515 0.77628928
-4.31732082 8.56507778 1.43088686 -0.80116403 0.96218336 0.74255115
-4.82299662 8.27157593 -0.05191081 -0.89500213 0.92921197 -0.02693884
-4.58890009 8.53431988 -0.11560933 -0.85156089 0.95872808 -0.05999485
-4.40973949 8.30906010 1.89286935 -0.81831414 0.93342286 0.98229450
-5.14275360 8.26193237 0.99404496 -0.95433933 0.92812860 0.51585436
-4.69426727 8.29306507 0.93303746 -0.87111390 0.93162602 0.48419484
-4.42875910 8.50722980 0.87434131 -0.82184356 0.95568484 0.45373479
-4.83439636 8.25988674 1.25834692 -0.89711761 0.92789882 0.65301245
-4.50526381 8.36302948 1.19992757 -0.83604056 0.93948567 0.62269604
-5.12971640 8.26232910 0.32559672 -0.95192003 0.92817318 0.16896668
-4.73912811 8.32541180 0.27416405 -0.87943870 0.93525976 0.14227597
-4.51122189 8.61533546 0.21804540 -0.83714616 0.96782923 0.11315350
-4.86394310 8.26212978 0.59850061 -0.90260059 0.92815083 0.31058872
-4.56795692 8.42922878 0.53899026 -0.84767449 0.94692236 0.27970612
-5.13900805 8.21802330 -0.33907560 -0.95364428 0.92319596 -0.17596148
-4.79342985 8.37020874 -0.37665641 -0.88951546 0.94029218 -0.19546385
-4.75881290 8.19492817 1.49973428 -0.88309157 0.92060149 0.77827913
-4.59453487 8.70995712 -0.44533601 -0.85260653 0.97845882 -0.23110476
-4.35400343 8.50430965 1.42515016 -0.80797118 0.95535678 0.73957407
-4.87589502 8.24282837 -0.05189285 -0.90481848 0.92598253 -0.02692952
-4.61952353 8.46313858 -0.11571949 -0.85724372 0.95073169 -0.06005201
-4.45908260 8.27600861 1.89166522 -0.82747072 0.92970991 0.98166960
-4.76217794 8.29094696 0.93661386 -0.88371605 0.93138808 0.48605078
-4.45712852 8.43170547 0.86866963 -0.82710809 0.94720060 0.45079148
-4.89431095 8.24294472 1.26065898 -0.90823591 0.92599559 0.65421230
-4.55298853 8.32586002 1.19853163 -0.84489679 0.93531013 0.62197161
-5.22184038 8.29426098 0.32921553 -0.96901548 0.93176037 0.17084464
-4.79635954 8.30411243 0.27459386 -0.89005911 0.93286705 0.14249903
-4.55965662 8.57622051 0.21760644 -0.84613419 0.96343511 0.11292571
-4.93114996 8.25705433 0.60079914 -0.91507214 0.92758065 0.31178153
-4.59113598 8.34611034 0.53462189 -0.85197580 0.93758500 0.27743918
-5.22149229 8.23460865 -0.34027931 -0.96895087 0.92505914 -0.17658614
-4.84794283 8.34337902 -0.37675542 -0.89963138 0.93727815 -0.19551522
-4.81020880 8.16486549 1.49973428 -0.89262909 0.91722435 0.77827913
-4.62848711 8.64210606 -0.44396308 -0.85890704 0.97083658 -0.23039228
-4.39191008 8.44693089 1.42001736 -0.81500554 0.94891101 0.73691046
-4.93481827 8.22401905 -0.05176720 -0.91575283 0.92386955 -0.02686432
-4.67164183 8.43219471 -0.11572408 -0.86691529 0.94725555 -0.06005440
-4.50162935 8.23061848 1.88765132 -0.83536613 0.92461091 0.97958660
-4.82422066 8.27801228 0.93884915 -0.89522928 0.92993504 0.48721078
-4.49971342 8.38423443 0.86635894 -0.83501059 0.94186777 0.44959235
-4.96035051 8.23573399 1.26470506 -0.92049086 0.92518556 0.65631199
-4.60808325 8.30228901 1.19936919 -0.85512072 0.93266219 0.62240624
-4.38587618 8.67337227 1.17608607 -0.81388581 0.97434896 0.61032361
-4.85148239 8.27897739 0.27485177 -0.90028822 0.93004346 0.14263287
-4.56806183 8.46288395 0.21409470 -0.84769398 0.95070314 0.11110330
-5.00366879 8.25997639 0.60386395 -0.92852944 0.92790890 0.31337199
-4.64542246 8.32058620 0.53490376 -0.86204976 0.93471766 0.27758548
-5.30007505 8.24374390 -0.34131700 -0.98353344 0.92608535 -0.17712465
-4.88906097 8.29383087 -0.37621099 -0.90726167 0.93171203 -0.19523269
-4.88479376 8.17341042 1.50708342 -0.90646982 0.91818428 0.78209293
-4.65606165 8.56362343 -0.44221568 -0.86402404 0.96201998 -0.22948548
-4.43386507 8.39816570 1.41639411 -0.82279110 0.94343281 0.73503017
-5.01143456 8.23379803 -0.05133639 -0.92997050 0.92496806 -0.02664075
-4.71281195 8.38173103 -0.11577915 -0.87455517 0.94158655 -0.06008298
-4.56462193 8.22275257 1.89246798 -0.84705561 0.92372727 0.98208618
-4.87026358 8.26715851 0.94041383 -0.90377343 0.92871571 0.48802277
-4.52594233 8.33843613 0.86341810 -0.83987784 0.93672293 0.44806623
-5.01665974 8.24096775 1.26961815 -0.93094015 0.92577350 0.65886158
-4.65294886 8.29085636 1.20104420 -0.86344641 0.93137789 0.62327552
-4.37412977 8.55038071 1.16053092 -0.81170607 0.96053231 0.60225135
-4.89861822 8.26975918 0.27553946 -0.90903521 0.92900789 0.14298974
-4.60693741 8.43950748 0.21402153 -0.85490811 0.94807708 0.11106534
-5.05507517 8.25668812 0.60570282 -0.93806887 0.92753953 0.31432626
-4.69435072 8.31599712 0.53631288 -0.87112933 0.93420213 0.27831671
-4.47173691 8.69176769 0.49997744 -0.82981896 0.97641546 0.25946063
-5.38881016 8.29591465 -0.34322634 -1.00000000 0.93194616 -0.17811549
-4.92398214 8.26383877 -0.37601301 -0.91374201 0.92834282 -0.19512996
-4.95091486 8.19586945 1.51571071 -0.91873991 0.92070723 0.78657001
-4.67813492 8.50826740 -0.44102997 -0.86812019 0.95580143 -0.22887015
-4.46504307 8.36146450 1.41367674 -0.82857680 0.93930990 0.73362005
-5.05333424 8.21519470 -0.05128254 -0.93774581 0.92287821 -0.02661280
-4.75324249 8.36116982 -0.11577456 -0.88205791 0.93927675 -0.06008060
-4.60905170 8.21141529 1.89487636 -0.85530043 0.92245364 0.98333603
-4.15333891 8.60243416 1.83153796 -0.77073395 0.96637988 0.95046687
-4.93234253 8.25343418 0.94264907 -0.91529346 0.92717397 0.48918271
-4.58589268 8.32378769 0.86509860 -0.85100281 0.93507731 0.44893831
-5.10172224 8.26309967 1.27886641 -0.94672519 0.92825979 0.66366094
-4.71568966 8.28041077 1.20411527 -0.87508923 0.93020445 0.62486923
-4.41400480 8.49637699 1.15650797 -0.81910563 0.95446569 0.60016364
-4.96700573 8.26618671 0.27691489 -0.92172587 0.92860657 0.14370352
-4.64539909 8.38414001 0.21292411 -0.86204541 0.94185716 0.11049584
-5.15645933 8.30428219 0.61290497 -0.95688272 0.93288612 0.31806377
-4.74947262 8.29153728 0.53673559 -0.88135833 0.93145436 0.27853608
-4.49007463 8.59458828 0.49489617 -0.83322191 0.96549851 0.25682375
-4.97892141 8.23786449 -0.37616149 -0.92393708 0.92542487 -0.19520700
-5.04371309 8.23185062 1.52849185 -0.93596041 0.92474931 0.79320270
-4.72761965 8.47171497 -0.44078034 -0.87730306 0.95169520 -0.22874062
-4.51185989 8.32280350 1.41186512 -0.83726460 0.93496674 0.73267990
-5.12715530 8.21886826 -0.05090559 -0.95144480 0.92329091 -0.02641718
-4.80070448 8.32246685 -0.11579751 -0.89086539 0.93492895 -0.06009251
-4.68277359 8.22149944 1.90410829 -0.86898100 0.92358649 0.98812687
-4.56557751 8.71628857 -0.17056382 -0.84723294 0.97917008 -0.08851319
-4.18039036 8.52159500 1.81965339 -0.77575386 0.95729858 0.94429946
-4.99650860 8.24264908 0.94533134 -0.92720073 0.92596239 0.49057469
-4.63423395 8.28785706 0.86425835 -0.85997349 0.93104094 0.44850227
-5.21044111 8.32133961 1.29447281 -0.96690011 0.93480229 0.67175978
-4.76663637 8.24890137 1.20383608 -0.88454336 0.92666477 0.62472433
-4.42569590 8.68486404 0.84282511 -0.82127517 0.97563994 0.43737963
-4.45151806 8.43870831 1.15194869 -0.82606697 0.94798726 0.59779763
-5.03554153 8.26207924 0.27829030 -0.93444401 0.92814511 0.14441727
-4.67651606 8.31641388 0.21131456 -0.86781979 0.93424898 0.10966057
-5.27889490 8.38294506 0.62301874 -0.97960305 0.94172293 0.32331225
-4.80646992 8.27016735 0.53744018 -0.89193529 0.92905372 0.27890173
-4.52896452 8.53802872 0.49281156 -0.84043866 0.95914471 0.25574195
-5.04421377 8.22854900 -0.37680492 -0.93605334 0.92437840 -0.19554090
-5.12251949 8.24354172 1.53679955 -0.95058453 0.92606264 0.79751396
-4.78762531 8.45403385 -0.44121718 -0.88843828 0.94970894 -0.22896731
-4.56311512 8.29255676 1.41156316 -0.84677601 0.93156892 0.73252320
-5.21516657 8.24387932 -0.05029527 -0.96777701 0.92610061 -0.02610047
-4.84988165 8.28695488 -0.11581128 -0.89999121 0.93093961 -0.06009965
-4.74898911 8.21739197 1.91012919 -0.88126856 0.92312503 0.99125141
-4.57782936 8.60805702 -0.17026456 -0.84950650 0.96701157 -0.08835789
-4.24088526 8.50920010 1.82272041 -0.78697991 0.95590615 0.94589108
-5.08475685 8.27027321 0.95315474 -0.94357693 0.92906564 0.49463460
-4.69892883 8.28109074 0.86698914 -0.87197894 0.93028086 0.44991940
-4.83334112 8.24444771 1.20802379 -0.89692175 0.92616445 0.62689751
-4.42691517 8.55449295 0.83120507 -0.82150143 0.96099430 0.43134946
-4.49036026 8.38439465 1.14792585 -0.83327490 0.94188577 0.59571004
-5.10949135 8.26592350 0.28009555 -0.94816691 0.92857701 0.14535409
-4.73459816 8.29729557 0.21175353 -0.87859803 0.93210125 0.10988837
-4.87247229 8.26389408 0.53941298 -0.90418333 0.92834902 0.27992550
-4.54048252 8.73597145 0.17486185 -0.84257609 0.98138124 0.09074362
-4.56257105 8.47254562 0.49007547 -0.84667504 0.95178849 0.25432205
-5.11170340 8.22212982 -0.37754729 -0.94857740 0.92365730 -0.19592616
-4.81385469 8.37693214 -0.43953219 -0.89330566 0.94104749 -0.22809289
-4.62089014 8.27409172 1.41337478 -0.85749727 0.92949456 0.73346335
-5.31885910 8.29164314 -0.04943366 -0.98701918 0.93146628 -0.02565333
-4.89676714 8.24770927 -0.11583423 -0.90869170 0.92653084 -0.06011156
-4.81731176 8.21615982 1.91695285 -0.89394718 0.92298663 0.99479252
-4.61465597 8.54748249 -0.17014486 -0.85634041 0.96020675 -0.08829577
-4.28002024 8.45439625 1.81658638 -0.79424214 0.94974965 0.94270784
-5.16827250 8.28869057 0.95986050 -0.95907491 0.93113458 0.49811450
-4.74888945 8.24795246 0.86656904 -0.88125008 0.92655814 0.44970140
-4.89210749 8.22584629 1.20997810 -0.90782702 0.92407477 0.62791169
-4.46198893 8.49131775 0.82719815 -0.82801002 0.95389730 0.42927009
-4.54390240 8.35775471 1.14819407 -0.84321070 0.93889314 0.59584922
-5.20285463 8.29959774 0.28344816 -0.96549231 0.93235987 0.14709392
-4.79461956 8.28123760 0.21233882 -0.88973624 0.93029732 0.11019211
-4.93960571 8.25883102 0.54152668 -0.91664124 0.92778021 0.28102240
-4.54657602 8.61544037 0.17155956 -0.84370685 0.96784097 0.08902992
-4.59841776 8.41222668 0.48773029 -0.85332710 0.94501239 0.25310504
-5.17610121 8.21011925 -0.37814122 -0.96052766 0.92230803 -0.19623438
-4.86940289 8.35170841 -0.43971941 -0.90361375 0.93821388 -0.22819005
-4.67958403 8.25694942 1.41548836 -0.86838913 0.92756885 0.73456019
-4.97008371 8.25280380 -0.11573785 -0.92229706 0.92710316 -0.06006154
-4.87782240 8.20090485 1.92056537 -0.90517616 0.92127293 0.99666721
-4.63835955 8.46401119 -0.16993870 -0.86073911 0.95082974 -0.08818878
-4.32674694 8.41513157 1.81390274 -0.80291325 0.94533873 0.94131517
-4.81361341 8.24030495 0.86929983 -0.89326090 0.92569906 0.45111853
-4.95796633 8.21871662 1.21388662 -0.92004842 0.92327386 0.62994003
-4.50114679 8.43680954 0.82419300 -0.83527654 0.94777399 0.42771059
-4.58767414 8.31344128 1.14578032 -0.85133344 0.93391502 0.59459662
-4.37509918 8.62685680 1.10141981 -0.81188595 0.96912348 0.57157594
-5.32372618 8.37452412 0.28894985 -0.98792237 0.94077694 0.14994898
-4.85059166 8.25785065 0.21263146 -0.90012294 0.92767012 0.11034397
-5.01408529 8.26520538 0.54462677 -0.93046242 0.92849630 0.28263116
-4.56555176 8.52158165 0.16920987 -0.84722817 0.95729709 0.08781056
-4.63271523 8.35004902 0.48525479 -0.85969168 0.93802750 0.25182039
-5.24487162 8.20435143 -0.37893313 -0.97328937 0.92166013 -0.19664533
-4.90657043 8.29510689 -0.43878332 -0.91051090 0.93185538 -0.22770427
-4.72842550 8.22223568 1.41458249 -0.87745261 0.92366916 0.73409009
-5.03430605 8.24192047 -0.11568277 -0.93421477 0.92588055 -0.06003296
-4.92219353 8.15833664 1.91775560 -0.91341007 0.91649091 0.99520910
-4.68013954 8.44555378 -0.16995201 -0.86849219 0.94875628 -0.08819569
-4.36271620 8.38769054 1.81236923 -0.80958802 0.94225603 0.94051939
-4.87052870 8.24839592 0.87308097 -0.90382266 0.92660797 0.45308074
-5.01821566 8.23081684 1.21974945 -0.93122888 0.92463315 0.63298249
-4.52567530 8.38751698 0.82098746 -0.83982831 0.94223654 0.42604709
-4.63649368 8.30901623 1.14846218 -0.86039287 0.93341792 0.59598833
-4.36610031 8.50896549 1.08742845 -0.81021601 0.95587981 0.56431520
-4.89860249 8.25038815 0.21328992 -0.90903229 0.92683178 0.11068567
-5.07064486 8.27043629 0.54702234 -0.94095814 0.92908394 0.28387433
-4.58653736 8.46486187 0.16793975 -0.85112244 0.95092529 0.08715145
-4.67789316 8.33855629 0.48603654 -0.86807531 0.93673640 0.25222608
-4.47656727 8.67559433 0.44352919 -0.83071536 0.97459859 0.23016712
-5.32265568 8.23992443 -0.38071486 -0.98772371 0.92565632 -0.19756995
-4.95582771 8.28907299 -0.43940738 -0.91965157 0.93117756 -0.22802812
-4.77206945 8.20841885 1.41609216 -0.88555157 0.92211705 0.73487347
-5.08146524 8.23173809 -0.11564605 -0.94296610 0.92473668 -0.06001390
-4.98396301 8.17357540 1.92698765 -0.92487264 0.91820276 1.00000000
-4.72031927 8.39334583 -0.16986555 -0.87594831 0.94289136 -0.08815082
-4.40888786 8.34797764 1.80968571 -0.81815606 0.93779480 0.93912679
-4.93346119 8.23642349 0.87539166 -0.91550100 0.92526299 0.45427984
-5.12484503 8.28851509 1.23454618 -0.95101607 0.93111485 0.64066118
-4.57732630 8.35717201 0.82078713 -0.84941316 0.93882763 0.42594311
-4.70135260 8.30211353 1.15194869 -0.87242872 0.93264252 0.59779763
-4.40486956 8.45318508 1.08335829 -0.81741041 0.94961357 0.56220305
-4.97089481 8.25373268 0.21475314 -0.92244756 0.92720747 0.11144500
-5.15085602 8.28421688 0.55082703 -0.95584291 0.93063205 0.28584877
-4.62319326 8.40613461 0.16686016 -0.85792470 0.94432801 0.08659119
-4.72722006 8.30380344 0.48564565 -0.87722892 0.93283236 0.25202322
-4.49038029 8.56940079 0.43829566 -0.83327860 0.96266901 0.22745121
-5.01297617 8.26632786 -0.43971941 -0.93025661 0.92862242 -0.22819005
-4.82555151 8.18168354 1.41669607 -0.89547622 0.91911364 0.73518687
-5.14260483 8.21492481 -0.11560474 -0.95431173 0.92284787 -0.05999247
-4.75704336 8.33576298 -0.16975915 -0.88276321 0.93642259 -0.08809561
-4.45100832 8.30110359 1.80546856 -0.82597238 0.93252903 0.93693829
-4.53318071 8.63663483 -0.21550998 -0.84122109 0.97022194 -0.11183776
-5.01187134 8.24951553 0.88085330 -0.93005157 0.92673373 0.45711413
-5.21771526 8.32167339 1.24543428 -0.96824998 0.93483979 0.64631152
-4.62586308 8.32129860 0.81998575 -0.85842013 0.93479770 0.42552724
-4.41558266 8.64629555 0.76419461 -0.81939846 0.97130722 0.39657474
-4.75738764 8.27927589 1.15302145 -0.88282710 0.93007696 0.59835434
-4.44865513 8.40778828 1.08081448 -0.82553571 0.94451380 0.56088293
-5.02888584 8.23258305 0.21519211 -0.93320894 0.92483157 0.11167280
-5.28976870 8.39025307 0.56238192 -0.98162091 0.94254392 0.29184511
-4.66613913 8.35948658 0.16622512 -0.86589414 0.93908769 0.08626164
-4.79032183 8.29292393 0.48707885 -0.88893867 0.93161017 0.25276697
-4.53012419 8.51455116 0.43651152 -0.84065390 0.95650733 0.22652534
-5.07629633 8.25342178 -0.44040591 -0.94200689 0.92717254 -0.22854631
-4.90113735 8.19197273 1.42394245 -0.90950269 0.92026949 0.73894739
-5.23685122 8.25008202 -0.11542116 -0.97180104 0.92679739 -0.05989720
-4.81636524 8.31781006 -0.16980571 -0.89377153 0.93440580 -0.08811977
-4.50213528 8.27125168 1.80508518 -0.83546001 0.92917556 0.93673939
-4.57798767 8.59031296 -0.21535075 -0.84953588 0.96501821 -0.11175513
-5.09479904 8.26872730 0.88715518 -0.94544041 0.92889196 0.46038446
-4.68296289 8.30072498 0.82098746 -0.86901611 0.93248653 0.42604709
-4.42416430 8.52989578 0.75493717 -0.82099092 0.95823109 0.39177063
-4.81732845 8.26290131 1.15516698 -0.89395028 0.92823750 0.59946775
-4.48362923 8.34642887 1.07598114 -0.83202583 0.93762082 0.55837470
-5.10568905 8.24165344 0.21694799 -0.94746131 0.92585051 0.11258400
-4.70274782 8.30220795 0.16520903 -0.87268758 0.93265313 0.08573435
-4.52904510 8.67539406 0.10667015 -0.84045362 0.97457606 0.05535591
-4.84537125 8.26782131 0.48746970 -0.89915419 0.92879015 0.25296980
-4.55612516 8.43492031 0.43306217 -0.84547889 0.94756174 0.22473530
-5.12383604 8.21457100 -0.44015625 -0.95082885 0.92280817 -0.22841674
-4.99237347 8.22702026 1.43571782 -0.92643332 0.92420667 0.74505812
-5.33174086 8.28437614 -0.11523757 -0.98940969 0.93064994 -0.05980192
-4.86243200 8.27705002 -0.16976580 -0.90232015 0.92982692 -0.08809906
-4.55115700 8.23765278 1.80393505 -0.84455693 0.92540109 0.93614250
-4.60722399 8.51559353 -0.21493675 -0.85496128 0.95662439 -0.11154028
-4.20242548 8.66921520 1.75885844 -0.77984291 0.97388196 0.91275024
-5.19182062 8.30917645 0.89618784 -0.96344471 0.93343592 0.46507192
-4.74296379 8.28493595 0.82259023 -0.88015050 0.93071282 0.42687884
-4.45086813 8.45077515 0.74956787 -0.82594633 0.94934285 0.38898426
-4.87826347 8.24780369 1.15758073 -0.90525800 0.92654145 0.60072035
-4.54355049 8.33204174 1.07801616 -0.84314537 0.93600458 0.55943078
-5.20293713 8.28228092 0.22009392 -0.96550757 0.93041456 0.11421657
-4.75281906 8.26903439 0.16508202 -0.88197929 0.92892647 0.08566844
-4.55641556 8.59547997 0.10522120 -0.84553277 0.96559870 0.05460399
-4.90643549 8.25263309 0.48864231 -0.91048586 0.92708397 0.25357834
-4.59469128 8.37983799 0.43127799 -0.85263556 0.94137388 0.22380942
-5.18812895 8.20251465 -0.44090515 -0.96275967 0.92145377 -0.22880539
-5.07494783 8.24606705 1.44477582 -0.94175667 0.92634636 0.74975872
-4.92975426 8.27207375 -0.16986555 -0.91481310 0.92926788 -0.08815082
-4.61246252 8.22599506 1.80776882 -0.85593337 0.92409152 0.93813205
-4.65104771 8.46892738 -0.21477751 -0.86309361 0.95138204 -0.11145765
-4.21528959 8.55788517 1.74129379 -0.78223014 0.96137536 0.90363514
-4.80596066 8.27387619 0.82479405 -0.89184076 0.92947036 0.42802250
-4.48236561 8.38220596 0.74530947 -0.83179134 0.94163990 0.38677439
-4.94022226 8.23396397 1.16026270 -0.91675568 0.92498672 0.60211217
-4.58145857 8.27726460 1.07420039 -0.85017997 0.92985100 0.55745059
-5.33086348 8.36926937 0.22528836 -0.98924685 0.94018662 0.11691220
-4.81175566 8.25108051 0.16552655 -0.89291614 0.92690957 0.08589912
-4.56974745 8.49089050 0.10307277 -0.84800678 0.95384932 0.05348907
-4.98818493 8.27114105 0.49242067 -0.92565608 0.92916310 0.25553909
-4.64338398 8.34381676 0.43080223 -0.86167145 0.93732733 0.22356252
-5.26000118 8.20176983 -0.44209087 -0.97609693 0.92137009 -0.22942071
-5.15169764 8.25432396 1.45202219 -0.95599908 0.92727393 0.75351918
-4.98007202 8.26757240 -0.16993870 -0.92415059 0.92876220 -0.08818878
-4.65506220 8.21098995 1.80930233 -0.86383861 0.92240584 0.93892783
-4.68606806 8.43816376 -0.21469790 -0.86959237 0.94792610 -0.11141633
-4.24072361 8.50797844 1.73507297 -0.78694987 0.95576894 0.90040690
-4.86006546 8.27684498 0.82779920 -0.90188098 0.92980391 0.42958200
-4.51238012 8.34345436 0.74345797 -0.83736110 0.93728662 0.38581356
-5.00062513 8.24613476 1.16589475 -0.92796463 0.92635393 0.60503489
-4.63875008 8.28851318 1.07903373 -0.86081153 0.93111467 0.55995882
-4.85669708 8.23863411 0.16590759 -0.90125591 0.92551136 0.08609686
-4.59733152 8.44640636 0.10242324 -0.85312551 0.94885206 0.05315200
-5.04274082 8.27307224 0.49437502 -0.93577999 0.92938006 0.25655329
-4.67875004 8.31487465 0.43032646 -0.86823434 0.93407607 0.22331563
-5.35277176 8.26088524 -0.44521120 -0.99331236 0.92801100 -0.23103999
-5.05598450 8.27532101 -0.17009166 -0.93823761 0.92963266 -0.08826816
-4.73308754 8.22746181 1.81965339 -0.87831771 0.92425627 0.94429946
-4.74095058 8.41204262 -0.21472974 -0.87977690 0.94499171 -0.11143286
-4.28879023 8.47062874 1.73287749 -0.79586959 0.95157313 0.89926755
-4.92014980 8.25980473 0.82940197 -0.91303080 0.92788959 0.43041375
-4.55707741 8.30095577 0.74197680 -0.84565556 0.93251246 0.38504490
-5.07734299 8.25501633 1.17233133 -0.94220114 0.92735171 0.60837513
-4.68683243 8.25229454 1.07801616 -0.86973417 0.92704594 0.55943078
-4.91969156 8.22680378 0.16660614 -0.91294581 0.92418236 0.08645938
-4.64453173 8.40684128 0.10212346 -0.86188447 0.94440740 0.05299643
-5.11778784 8.27852249 0.49724138 -0.94970644 0.92999232 0.25804076
-4.72498369 8.27489853 0.42961279 -0.87681389 0.92958522 0.22294527
-5.11739302 8.25867081 -0.17015150 -0.94963318 0.92776221 -0.08829921
-4.79759884 8.21957207 1.82463717 -0.89028907 0.92336994 0.94688576
-4.77689457 8.35253906 -0.21445905 -0.88644701 0.93830723 -0.11129238
-4.32849646 8.41725636 1.72738850 -0.80323786 0.94557738 0.89641911
-4.99157143 8.26104641 0.83320856 -0.92628449 0.92802912 0.43238917
-4.62073040 8.29305935 0.74419856 -0.85746765 0.93162537 0.38619789
-5.18804741 8.31699848 1.18735015 -0.96274453 0.93431467 0.61616904
-4.74845839 8.23989296 1.08056009 -0.88117009 0.92565274 0.56075090
-4.98272848 8.21450615 0.16730471 -0.92464352 0.92280084 0.08682189
-4.69336510 8.37050915 0.10192361 -0.87094647 0.94032592 0.05289271
-5.21224594 8.31375217 0.50245291 -0.96723503 0.93394995 0.26074526
-4.78984594 8.26753235 0.43115905 -0.88885039 0.92875773 0.22374770
-5.18412924 8.25003147 -0.17024460 -0.96201742 0.92679173 -0.08834753
-4.85918617 8.20613480 1.82847095 -0.90171784 0.92186046 0.94887531
-4.82427979 8.31370068 -0.21437943 -0.89524025 0.93394417 -0.11125106
-4.37948465 8.38640404 1.72665668 -0.81269974 0.94211155 0.89603931
-5.06841898 8.27018833 0.83801681 -0.94054508 0.92905611 0.43488437
-4.67762804 8.27254105 0.74512434 -0.86802614 0.92932039 0.38667831
-4.80412769 8.21675396 1.08157766 -0.89150065 0.92305338 0.56127900
-5.05421257 8.21534443 0.16851130 -0.93790883 0.92289501 0.08744805
-4.73010397 8.31301689 0.10112420 -0.87776411 0.93386734 0.05247787
-4.84673738 8.24589062 0.43175378 -0.89940768 0.92632651 0.22405633
-5.26928854 8.26951313 -0.17045076 -0.97782040 0.92898023 -0.08845451
-4.91572237 8.18384457 1.83038783 -0.91220921 0.91935641 0.94987005
-4.87642097 8.28322506 -0.21437943 -0.90491611 0.93052059 -0.11125106
-4.42566967 8.34654808 1.72409511 -0.82127029 0.93763417 0.89471000
-5.16454935 8.30907059 0.84643137 -0.95838398 0.93342406 0.43925107
-4.72358894 8.23261070 0.74401343 -0.87655509 0.92483467 0.38610181
-4.87885237 8.22569847 1.08742845 -0.90536726 0.92405820 0.56431520
-5.14076757 8.23931885 0.17060699 -0.95397079 0.92558825 0.08853559
-4.78622675 8.29006767 0.10132405 -0.88817877 0.93128932 0.05258158
-4.92086554 8.25304699 0.43437055 -0.91316366 0.92713046 0.22541429
-5.36033964 8.29663754 -0.17069016 -0.99471676 0.93202734 -0.08857875
-4.98036861 8.17456055 1.83537161 -0.92420560 0.91831344 0.95245636
-4.93347836 8.26101875 -0.21445905 -0.91550422 0.92802602 -0.11129238
-4.47245550 8.30817604 1.72189951 -0.82995230 0.93332356 0.89357060
-4.79319000 8.23378658 0.74734610 -0.88947093 0.92496681 0.38783130
-4.93757296 8.20679569 1.08920920 -0.91626406 0.92193466 0.56523931
-5.23532820 8.27433777 0.17314720 -0.97151840 0.92952222 0.08985382
-4.84224749 8.26674080 0.10152390 -0.89857453 0.92866880 0.05268529
-4.99115562 8.25275517 0.43651152 -0.92620736 0.92709768 0.22652534
-5.10868216 8.29622746 1.86872518 -0.94801670 0.93198127 0.96976501
-4.98986053 8.26682281 -0.21472974 -0.92596704 0.92867804 -0.11143286
-4.51623917 8.29565239 1.72372925 -0.83807725 0.93191665 0.89452016
-4.84501982 8.23344707 0.74975300 -0.89908898 0.92492867 0.38908035
-5.00392294 8.22926044 1.09607768 -0.92857659 0.92445832 0.56880367
-4.88723946 8.25416660 0.10182368 -0.90692365 0.92725623 0.05284086
-5.04555464 8.25472736 0.43829566 -0.93630219 0.92731923 0.22745121
-5.04170370 8.23530769 -0.21472974 -0.93558753 0.92513764 -0.11143286
-4.56164169 8.25505161 1.72116768 -0.84650260 0.92735565 0.89319080
-4.91292953 8.23023605 0.75271541 -0.91169095 0.92456794 0.39061767
-5.07835960 8.23485279 1.10167408 -0.94238979 0.92508656 0.57170790
-4.94926310 8.24045753 0.10232332 -0.91843337 0.92571616 0.05310014
-5.12143183 8.26194191 0.44103137 -0.95038265 0.92812967 0.22887088
-5.11437464 8.23749352 -0.21504821 -0.94907308 0.92538321 -0.11159813
-4.61916780 8.23652935 1.72336328 -0.85717767 0.92527491 0.89433020
-4.98510075 8.23331833 0.75641835 -0.92508376 0.92491418 0.39253929
-5.20233488 8.31898689 1.11922681 -0.96539581 0.93453801 0.58081681
-5.02167273 8.24339199 0.10332259 -0.93187040 0.92604584 0.05361871
-5.22407246 8.31083870 0.44674066 -0.96942967 0.93362266 0.23183370
-5.19576693 8.25264740 -0.21549407 -0.96417701 0.92708558 -0.11182950
-4.67664099 8.21760941 1.72555888 -0.86784297 0.92314947 0.89546961
-5.06165791 8.24261379 0.76086193 -0.93929046 0.92595840 0.39484525
-5.09326649 8.24403667 0.10427190 -0.94515604 0.92611825 0.05411135
-5.27755117 8.26710129 -0.21593991 -0.97935373 0.92870927 -0.11206087
-4.73895645 8.20681667 1.72958410 -0.87940681 0.92193705 0.89755845
-5.15636396 8.28004551 0.76845300 -0.95686501 0.93016344 0.39878461
-5.16506624 8.24410629 0.10522120 -0.95847988 0.92612606 0.05460399
-5.38668776 8.35152721 -0.21697491 -0.99960613 0.93819356 -0.11259798
-4.79041624 8.20649624 1.73434114 -0.88895619 0.92190105 0.90002710
-5.26461744 8.31609249 0.10806912 -0.97695357 0.93421286 0.05608189
-4.86783934 8.22027969 1.74385536 -0.90332359 0.92344946 0.90496445
-4.93250799 8.21147156 1.74861240 -0.91532415 0.92245996 0.90743309
-5.00031614 8.20721817 1.75446725 -0.92790729 0.92198217 0.91047144
