3.72841072 4.37959671 2.24813056 0.98128897 0.91218060 0.95275581
3.65320444 4.50100613 1.92834127 0.96149528 0.93746769 0.81722933
3.73773932 4.44717741 2.27101469 0.98374420 0.92625630 0.96245408
3.59301114 4.48384619 1.91101563 0.94565284 0.93389368 0.80988675
3.69908547 4.45766306 2.26437092 0.97357082 0.92844021 0.95963842
3.53083897 4.46312952 1.89240670 0.92928964 0.92957878 0.80200034
3.59019876 4.51744604 1.27595723 0.94491267 0.94089180 0.54074955
3.66396666 4.47216511 2.25994182 0.96432781 0.93146074 0.95776141
3.50040555 4.48223209 1.89112329 0.92127979 0.93355745 0.80145639
3.52459264 4.49221468 1.26222765 0.92764562 0.93563664 0.53493100
3.60669899 4.45886517 2.24148703 0.94925541 0.92869061 0.94994026
3.46987176 4.50112820 1.88983989 0.91324353 0.93749315 0.80091250
3.49035406 4.50654030 1.26001310 0.91863430 0.93862039 0.53399247
3.57630253 4.47852516 2.24001050 0.94125527 0.93278539 0.94931453
3.60951900 4.50999069 1.60610461 0.94999760 0.93933904 0.68066573
3.45750523 4.54400301 1.89882362 0.90998876 0.94642311 0.80471981
3.45489597 4.51906013 1.25735581 0.90930200 0.94122797 0.53286630
3.53794074 4.47339821 2.22893763 0.93115872 0.93171757 0.94462186
3.55253410 4.48159313 1.58970892 0.93499959 0.93342441 0.67371726
3.41563249 4.53294086 1.88727319 0.89896816 0.94411910 0.79982471
3.57283688 4.49232006 0.96619499 0.94034314 0.93565857 0.40947258
3.41833043 4.51502132 1.25159824 0.89967823 0.94038677 0.53042626
3.50748658 4.49260092 2.22746134 0.92314345 0.93571711 0.94399619
3.49716043 4.46888065 1.57713890 0.92042565 0.93077666 0.66839010
3.52879453 4.49447727 0.96173149 0.92875153 0.93610787 0.40758097
3.39918923 4.54894209 1.25514138 0.89464039 0.94745177 0.53192782
3.46789598 4.49978685 2.22007918 0.91272348 0.93721378 0.94086766
3.46433020 4.48465872 1.57495272 0.91178501 0.93406290 0.66746360
3.38293982 4.60918760 1.90139031 0.89036369 0.95999968 0.80580759
3.47165084 4.47908163 0.95349115 0.91371173 0.93290126 0.40408874
3.37284446 4.57335758 1.25602710 0.88770670 0.95253706 0.53230321
3.45411587 4.54077148 2.22967577 0.90909666 0.94575006 0.94493467
3.43724513 4.50787115 1.57549930 0.90465641 0.93889755 0.66769522
3.63715982 4.51170015 1.88759732 0.95727247 0.93969506 0.79996210
3.42199087 4.47256184 0.94731092 0.90064162 0.93154335 0.40146956
3.33262205 4.57864952 1.25159824 0.87712044 0.95363927 0.53042626
3.43218160 4.57132673 2.23410487 0.90332377 0.95211405 0.94681174
3.69734812 4.42467880 2.21196651 0.97311354 0.92157030 0.93742949
3.41345906 4.53554440 1.57768536 0.89839613 0.94466132 0.66862166
3.58736968 4.50780392 1.87625980 0.94416803 0.93888354 0.79515725
3.39736676 4.49870396 0.94834095 0.89416075 0.93698823 0.40190607
3.49619246 4.35874510 -0.03534372 0.92017090 0.90783763 -0.01497864
3.33775163 4.64714241 1.26488495 0.87847054 0.96790493 0.53605717
3.40889835 4.60028839 2.23779583 0.89719576 0.95814621 0.94837594
3.70877409 4.49511766 2.23593974 0.97612077 0.93624127 0.94758934
3.54403520 4.33028460 0.16012079 0.93276274 0.90190989 0.06785905
3.38489413 4.55690193 1.57768536 0.89087808 0.94910967 0.66862166
3.49769330 4.39740610 0.35355535 0.92056590 0.91588992 0.14983645
3.54601860 4.51388121 1.86933136 0.93328476 0.94014931 0.79222101
3.35145688 4.49620152 0.94319075 0.88207763 0.93646699 0.39972341
3.44525957 4.35075426 -0.03604085 0.90676576 0.90617335 -0.01527408
3.53737998 4.48817015 1.23027003 0.93101114 0.93479425 0.52138740
3.40285730 4.65320539 2.25329804 0.89560580 0.96916771 0.95494574
3.65681982 4.48951912 2.22141051 0.96244681 0.93507522 0.94143188
3.48302031 4.31040096 0.15724748 0.91670412 0.89776856 0.06664135
3.37317443 4.60141468 1.58588326 0.88779354 0.95838076 0.67209595
3.46142149 4.40829515 0.35233429 0.91101944 0.91815794 0.14931896
3.50590158 4.52111292 1.86303282 0.92272627 0.94165558 0.78955168
3.50951266 4.37446165 -0.22108670 0.92367667 0.91111106 -0.09369635
3.33359671 4.53149223 0.94628090 0.87737697 0.94381738 0.40103301
3.40314627 4.35335588 -0.03648114 0.89568186 0.90671515 -0.01546067
3.48742795 4.48264217 1.22249162 0.91786414 0.93364286 0.51809090
3.39933395 4.69484901 2.26584744 0.89467853 0.97784126 0.96026421
3.59684563 4.45897722 2.19743752 0.94666207 0.92871398 0.93127209
3.45149016 4.31269121 0.15628973 0.90840560 0.89824557 0.06623545
3.36045003 4.62974691 1.59025538 0.88444453 0.96428180 0.67394882
3.64969587 4.53060627 1.57152915 0.96057183 0.94363284 0.66601270
3.42113233 4.39932203 0.34954336 0.90041566 0.91628897 0.14813617
3.46481228 4.51205969 1.85232520 0.91191190 0.93976992 0.78501379
3.46409225 4.35954666 -0.22049317 0.91172236 0.90800458 -0.09344482
3.31913137 4.55673170 0.94834095 0.87356979 0.94907421 0.40190607
3.36431956 4.34555912 -0.03703150 0.88546300 0.90509129 -0.01569392
3.46506786 4.49748373 1.22205949 0.91197914 0.93673408 0.51790774
3.52711296 4.44902849 0.55405545 0.92830896 0.92664182 0.23480822
3.37622023 4.72521162 2.27027655 0.88859516 0.98416513 0.96214122
3.57109022 4.48439550 2.19889045 0.93988341 0.93400806 0.93188787
3.42185998 4.33114910 0.15607689 0.90060717 0.90208995 0.06614525
3.58982158 4.51432657 1.55768943 0.94481337 0.94024211 0.66014743
3.38738608 4.41280651 0.34867117 0.89153391 0.91909754 0.14776655
3.44330621 4.54279280 1.85610437 0.90625167 0.94617105 0.78661543
3.42803288 4.37018013 -0.22028543 0.90223181 0.91021931 -0.09335677
3.32133007 4.62080431 0.95761132 0.87414849 0.96241921 0.40583485
3.54243398 4.45391512 0.92790097 0.93234134 0.92765963 0.39324364
3.35144901 4.38573170 -0.03659121 0.88207555 0.91345841 -0.01550732
3.57971931 4.39273930 -0.06573710 0.94215453 0.91491795 -0.02785932
3.43199062 4.51296616 1.22033095 0.90327346 0.93995875 0.51717520
3.46864152 4.43190718 0.54799801 0.91291970 0.92307580 0.23224108
3.53590274 4.49797964 2.19453168 0.93062234 0.93683738 0.93004060
3.39702415 4.35572243 0.15628973 0.89407057 0.90720809 0.06623545
3.54345036 4.51410913 1.54970503 0.93260884 0.94019681 0.65676367
3.35240841 4.42444801 0.34762457 0.88232803 0.92152220 0.14732300
3.54048848 4.37560081 0.32572755 0.93182927 0.91134834 0.13804306
3.41241002 4.56130600 1.85484457 0.89812005 0.95002693 0.78608149
3.38710284 4.37419081 -0.21995899 0.89145935 0.91105467 -0.09321843
3.48379564 4.43741703 0.91956788 0.91690814 0.92422342 0.38971207
3.31663704 4.39709759 -0.03681136 0.87291330 0.91582566 -0.01560062
3.49664545 4.34678316 -0.06685700 0.92029011 0.90534621 -0.02833394
3.38707733 4.51263523 1.21428108 0.89145267 0.93988985 0.51461124
3.43227029 4.44258595 0.54630196 0.90334707 0.92530000 0.23152229
3.49839067 4.50836277 2.18871999 0.92074949 0.93899995 0.92757761
3.37080193 4.37856722 0.15639614 0.88716912 0.91196620 0.06628054
3.58479738 4.35660934 0.13094358 0.94349104 0.90739280 0.05549378
3.51027274 4.53020525 1.54757595 0.92387676 0.94354928 0.65586132
3.33404207 4.45822382 0.34902003 0.87749416 0.92855704 0.14791439
3.48918271 4.36825562 0.32260528 0.91832602 0.90981847 0.13671984
3.40407705 4.61007118 1.86618209 0.89592683 0.96018374 0.79088634
3.35592675 4.39060593 -0.21986996 0.88325405 0.91447359 -0.09318069
3.43885541 4.43745756 0.91490132 0.90508026 0.92423183 0.38773438
3.29013228 4.41945791 -0.03677467 0.86593747 0.92048287 -0.01558507
3.45677114 4.35305214 -0.06711152 0.90979552 0.90665191 -0.02844181
3.36683345 4.54478216 1.21730602 0.88612461 0.94658536 0.51589322
3.38871360 4.44348478 0.54315209 0.89188331 0.92548722 0.23018739
3.47910166 4.54205704 2.19453168 0.91567278 0.94601780 0.93004060
3.34442663 4.40125465 0.15650256 0.88022733 0.91669154 0.06632565
3.51054096 4.32184458 0.12742002 0.92394733 0.90015203 0.05400050
3.47467947 4.54300833 1.54438221 0.91450888 0.94621593 0.65450782
3.30714178 4.48069143 0.34919447 0.87041426 0.93323660 0.14798832
3.47158647 4.40257788 0.32391992 0.91369480 0.91696709 0.13727698
3.39189506 4.65432072 1.87563002 0.89272064 0.96939999 0.79489040
3.34265590 4.43081522 -0.22022608 0.87976128 0.92284840 -0.09333162
3.51646590 4.35754013 -0.25410932 0.92550671 0.90758669 -0.10769131
3.39646053 4.44023323 0.91090143 0.89392227 0.92480993 0.38603923
3.28939438 4.47720671 -0.03593078 0.86574328 0.93251079 -0.01522743
3.43307066 4.37939358 -0.06703517 0.90355772 0.91213828 -0.02840945
3.35326791 4.58628559 1.22292376 0.88255429 0.95522970 0.51827401
3.36785650 4.47423172 0.54460591 0.88639390 0.93189114 0.23080352
3.45501089 4.56975651 2.19743752 0.90933222 0.95178699 0.93127209
3.32386136 4.43179417 0.15714107 0.87481469 0.92305225 0.06659625
3.46950674 4.32672310 0.12637247 0.91314745 0.90116811 0.05355654
3.45423579 4.57549238 1.54810822 0.90912825 0.95298171 0.65608692
3.28709412 4.51268530 0.35041553 0.86513782 0.93990028 0.14850579
3.42417526 4.39920855 0.32129061 0.90121657 0.91626537 0.13616268
3.40713429 4.73702621 1.90082443 0.89673150 0.98662591 0.80556774
3.30999660 4.44529676 -0.22010736 0.87116557 0.92586458 -0.09328131
3.46148205 4.34524155 -0.25319618 0.91103542 0.90502512 -0.10730432
3.36252499 4.45363855 0.90923482 0.88499069 0.92760199 0.38533294
3.38212323 4.37091208 -0.06751876 0.89014876 0.91037178 -0.02861439
3.34620285 4.63727379 1.23113430 0.88069481 0.96584952 0.52175367
3.33847046 4.47888041 0.54290980 0.87865973 0.93285936 0.23008470
3.50852060 4.42780972 0.51883060 0.92341560 0.92222238 0.21987996
3.45363545 4.61276531 2.21051359 0.90897024 0.96074486 0.93681377
3.30294037 4.44740820 0.15714107 0.86930847 0.92630434 0.06659625
3.46280837 4.36018276 0.12742002 0.91138446 0.90813708 0.05400050
3.42915678 4.58709908 1.54651129 0.90252763 0.95539910 0.65541017
3.38873506 4.39640474 0.31931865 0.89188898 0.91568136 0.13532697
3.70763731 4.54309845 1.86423814 0.97582155 0.94623470 0.79006249
3.32089472 4.50442123 -0.22090864 0.87403393 0.93817902 -0.09362089
3.43225765 4.35054827 -0.25290561 0.90334380 0.90613043 -0.10718118
3.34387350 4.47258472 0.90990144 0.88008171 0.93154812 0.38561544
3.36393261 4.38996744 -0.06746785 0.88536114 0.91434062 -0.02859282
3.31143379 4.50137138 0.54315209 0.87154388 0.93754381 0.23018739
3.45603895 4.41856003 0.51420563 0.90960282 0.92029589 0.21791990
3.44016242 4.65530014 2.22068405 0.90542424 0.96960402 0.94112396
3.29137778 4.49068499 0.15863094 0.86626530 0.93531805 0.06722765
3.42048478 4.36304235 0.12627724 0.90024525 0.90873265 0.05351618
3.40716815 4.61783791 1.54970503 0.89674038 0.96180141 0.65676367
3.37195945 4.43184662 0.32079762 0.88747376 0.92306322 0.13595375
3.62315631 4.49647427 1.83527100 0.95358682 0.93652380 0.77778625
3.39621401 4.36101627 -0.25261506 0.89385736 0.90831071 -0.10705805
3.32864881 4.51091433 0.91356802 0.87607473 0.93953139 0.38716933
3.35083032 4.43010330 -0.06716242 0.88191271 0.92270011 -0.02846338
3.28540659 4.52531052 0.54363668 0.86469370 0.94252980 0.23039275
3.40625262 4.41196299 0.51004320 0.89649945 0.91892183 0.21615587
3.46049237 4.74439859 2.25337481 0.91077495 0.98816139 0.95497829
3.38931847 4.37972116 0.12599154 0.89204252 0.91220653 0.05339510
3.39177036 4.65780783 1.55609262 0.89268780 0.97012633 0.65947068
3.33562756 4.44181967 0.31964731 0.87791145 0.92514038 0.13546625
3.62395811 4.43448067 0.30183125 0.95379788 0.92361182 0.12791581
3.56299400 4.47883463 1.81863034 0.93775254 0.93284982 0.77073395
3.36874604 4.38226891 -0.25261506 0.88662797 0.91273719 -0.10705805
3.31774068 4.55558825 0.91856790 0.87320375 0.94883603 0.38928828
3.32413149 4.45266771 -0.06713697 0.87488580 0.92739981 -0.02845259
3.28451705 4.58469629 0.54945183 0.86445957 0.95489866 0.23285721
3.38451385 4.44115639 0.51119941 0.89077795 0.92500222 0.21664587
3.71297216 4.50084734 2.18441057 0.97722566 0.93743467 0.92575133
3.37026262 4.41201210 0.12665817 0.88702714 0.91893208 0.05367762
3.31719518 4.47546625 0.32096195 0.87306023 0.93214828 0.13602340
3.51998043 4.36222124 0.29248369 0.92643172 0.90856165 0.12395433
3.51723528 4.47862434 1.80938542 0.92570925 0.93280607 0.76681596
3.34235954 4.40493727 -0.25265658 0.87968326 0.91745853 -0.10707564
3.31218529 4.60828781 0.92523438 0.87174165 0.95981228 0.39211354
3.32350850 4.51039600 -0.06655157 0.87472183 0.93942344 -0.02820450
3.51696491 4.37732077 -0.08745244 0.92563808 0.91170657 -0.03706227
3.52086926 4.49488258 1.18688536 0.92666566 0.93619233 0.50300097
3.35774255 4.46391726 0.51143068 0.88373196 0.92974287 0.21674389
3.67286563 4.50955296 2.17729735 0.96666992 0.93924785 0.92273670
3.33522344 4.42355633 0.12608677 0.87780511 0.92133653 0.05343546
3.30556726 4.51868248 0.32326260 0.86999983 0.94114935 0.13699841
3.48755527 4.37799454 0.29187074 0.91789770 0.91184694 0.12369457
3.47858286 4.48706436 1.80383861 0.91553622 0.93456393 0.76446521
3.32063937 4.43383121 -0.25286409 0.87396669 0.92347658 -0.10716359
3.46836114 4.37261868 -0.08775760 0.91284591 0.91072720 -0.03719160
3.46993256 4.48743820 1.17893767 0.91325951 0.93464178 0.49963278
3.33557892 4.49287987 0.51258695 0.87789869 0.93577516 0.21723391
3.60830665 4.48725557 2.15524697 0.94967848 0.93460375 0.91339183
3.55511308 4.49805832 0.69796330 0.93567836 0.93685377 0.29579625
3.32414317 4.46680069 0.12742002 0.87488890 0.93034345 0.05400050
3.51507735 4.33813381 0.10223611 0.92514127 0.90354472 0.04332758
3.62089133 4.51698208 1.51661360 0.95299071 0.94079518 0.64273953
3.46120572 4.40139294 0.29202399 0.91096270 0.91672033 0.12375952
3.44917035 4.50731707 1.80322230 0.90779507 0.93878216 0.76420403
3.31899357 4.48988676 -0.25377727 0.87353355 0.93515176 -0.10755058
3.46351171 4.29674196 -0.27450222 0.91156960 0.89492369 -0.11633381
3.42486501 4.37379599 -0.08799095 0.90139806 0.91097242 -0.03729049
3.43222046 4.49668074 1.17559135 0.90333396 0.93656683 0.49821460
3.31318712 4.50695229 0.51235569 0.87200534 0.93870616 0.21713589
3.55929732 4.46901846 2.13817573 0.93677962 0.93080533 0.90615702
3.49623466 4.46631813 0.68900412 0.92018205 0.93024290 0.29199934
3.32449436 4.51128626 0.12913418 0.87498128 0.93960887 0.05472695
3.47965646 4.33589458 0.10120454 0.91581875 0.90307838 0.04289040
3.56966901 4.49606466 1.50367153 0.93950939 0.93643850 0.63725471
3.42457223 4.39714384 0.29003188 0.90132105 0.91583532 0.12291526
3.41531110 4.50679493 1.79644275 0.89888358 0.93867338 0.76133090
3.48047495 4.36002922 -0.27598700 0.91603416 0.90810508 -0.11696305
3.51867795 4.46370649 0.88591921 0.92608893 0.92969894 0.37545180
3.40177655 4.38671684 -0.08802685 0.89532137 0.91366357 -0.03730570
3.41803455 4.52219152 1.17810118 0.89960039 0.94188023 0.49927825
3.31645942 4.57098150 0.51859939 0.87286657 0.95204216 0.21978197
3.55831409 4.47024918 0.50386912 0.93652087 0.93106169 0.21353929
3.53459787 4.49571419 2.14030957 0.93027890 0.93636549 0.90706134
3.45365000 4.46935368 0.68553603 0.90897405 0.93087518 0.29052958
3.44493413 4.34824800 0.10068876 0.90668011 0.90565133 0.04267181
3.51050520 4.47876263 1.49021184 0.92393792 0.93283486 0.63155049
3.40050554 4.42333031 0.29049161 0.89498687 0.92128944 0.12311009
3.39486575 4.53885889 1.80075693 0.89350253 0.94535166 0.76315922
3.43823028 4.36291265 -0.27539310 0.90491569 0.90870565 -0.11671136
3.46401095 4.45135260 0.87888962 0.91170096 0.92712587 0.37247267
3.36567855 4.39685631 -0.08815251 0.88582069 0.91577542 -0.03735895
3.37326002 4.52157307 1.17224503 0.88781607 0.94175136 0.49679643
3.48492789 4.43453598 0.49559867 0.91720617 0.92362332 0.21003428
3.49373221 4.50154591 2.13248515 0.91952342 0.93758017 0.90374535
3.40877676 4.46887541 0.68148994 0.89716375 0.93077552 0.28881484
3.42244625 4.37612104 0.10103262 0.90076149 0.91145670 0.04281754
3.47170496 4.48694181 1.48555267 0.91372597 0.93453842 0.62957591
3.36544824 4.43505144 0.28957218 0.88576007 0.92373073 0.12272044
3.37302756 4.56930828 1.80445492 0.88775486 0.95169365 0.76472646
3.52374101 4.34383821 0.25688094 0.92742151 0.90473282 0.10886592
3.39975286 4.37018633 -0.27494764 0.89478874 0.91022062 -0.11652257
3.41921544 4.45104885 0.87441617 0.89991117 0.92706263 0.37057683
3.34158540 4.42271709 -0.08809865 0.87947953 0.92116171 -0.03733613
3.35055327 4.55057383 1.17433643 0.88183981 0.94779164 0.49768275
3.52470231 4.37197971 -0.12495849 0.92767447 0.91059417 -0.05295730
3.42668295 4.41697645 0.49001056 0.90187657 0.91996604 0.20766605
3.45859051 4.51448107 2.12821746 0.91027439 0.94027430 0.90193671
3.37470794 4.48227835 0.68004489 0.88819712 0.93356711 0.28820243
3.38880682 4.38960743 0.10060280 0.89190787 0.91426563 0.04263538
3.43410802 4.49635077 1.48141122 0.90383077 0.93649811 0.62782079
3.33513665 4.45290852 0.28926569 0.87778229 0.92744994 0.12259055
3.35539985 4.60582972 1.81061816 0.88311541 0.95930034 0.76733840
3.46756554 4.33018160 0.25363994 0.91263652 0.90188843 0.10749239
3.65023327 4.51018763 1.78789163 0.96071327 0.93938005 0.75770694
3.36010814 4.37555885 -0.27445272 0.88435459 0.91133958 -0.11631282
3.37218690 4.44720411 0.86930370 0.88753361 0.92626184 0.36841017
3.57935476 4.36841965 -0.31421974 0.94205862 0.90985268 -0.13316606
3.31967926 4.45166349 -0.08800890 0.87371403 0.92719066 -0.03729810
3.34477472 4.60326195 1.18270242 0.88031894 0.95876551 0.50122827
3.45962930 4.34722948 -0.12509619 0.91054779 0.90543920 -0.05301566
3.39886284 4.43841934 0.49001056 0.89455450 0.92443216 0.20766605
3.43913388 4.54808235 2.13390779 0.90515351 0.94727272 0.90434825
3.35822463 4.51932096 0.68293500 0.88385886 0.94128233 0.28942725
3.56068444 4.48005676 0.66752589 0.93714470 0.93310440 0.28289691
3.35995412 4.40921974 0.10051683 0.88431406 0.91835046 0.04259895
3.41389036 4.52866650 1.48503494 0.89850962 0.94322878 0.62935650
3.52102137 4.32595682 0.06623575 0.92670572 0.90100855 0.02807065
3.32478523 4.49789381 0.29156429 0.87505788 0.93681949 0.12356469
3.36949468 4.68722486 1.83465469 0.88682503 0.97625327 0.77752507
3.43656111 4.34720135 0.25321719 0.90447640 0.90543330 0.10731322
3.61225319 4.52114153 1.78309560 0.95071721 0.94166154 0.75567436
3.33735704 4.40297556 -0.27465069 0.87836665 0.91704994 -0.11639673
3.34417772 4.46830463 0.86930370 0.88016182 0.93065667 0.36841017
3.52658033 4.35982990 -0.31297159 0.92816877 0.90806359 -0.13263708
3.31051588 4.49827433 -0.08772170 0.87130225 0.93689871 -0.03717638
3.43348813 4.37044907 -0.12509160 0.90366763 0.91027534 -0.05301371
3.58041072 4.50509214 1.14467585 0.94233650 0.93831873 0.48511264
3.36017466 4.44537878 0.48799881 0.88437206 0.92588168 0.20681347
3.41716576 4.57861328 2.13817573 0.89937168 0.95363170 0.90615702
3.33092737 4.54193211 0.68322396 0.87667441 0.94599175 0.28954974
3.47843385 4.43397617 0.65524185 0.91549700 0.92350674 0.27769092
3.33457446 4.43344641 0.10068876 0.87763429 0.92339641 0.04267181
3.37504029 4.53604078 1.48037589 0.88828462 0.94476473 0.62738204
3.47616506 4.32624626 0.06521150 0.91489989 0.90106881 0.02763658
3.29645872 4.51869535 0.29156429 0.86760253 0.94115204 0.12356469
3.40301347 4.36086655 0.25251260 0.89564693 0.90827948 0.10701463
3.56953239 4.52582121 1.77590168 0.93947345 0.94263619 0.75262558
3.31916118 4.43670082 -0.27504665 0.87357765 0.92407423 -0.11656453
3.32070565 4.49559736 0.87058187 0.87398416 0.93634117 0.36895183
3.47280335 4.34919310 -0.31166106 0.91401511 0.90584815 -0.13208169
3.38133192 4.36041689 -0.12518339 0.88994050 0.90818584 -0.05305261
3.52530766 4.49368048 1.13584530 0.92783380 0.93594193 0.48137024
3.34155941 4.46435452 0.48844588 0.87947267 0.92983395 0.20700294
3.42098045 4.62933159 2.15453577 0.90037572 0.96419531 0.91309041
3.53341746 4.41759968 0.45883745 0.92996824 0.92009586 0.19445491
3.79950333 4.61038589 2.18281937 1.00000000 0.96024930 0.92507696
3.32337141 4.57684469 0.68669206 0.87468576 0.95326334 0.29101950
3.44407344 4.43316412 0.65217084 0.90645361 0.92333764 0.27638945
3.32433414 4.46357250 0.10146244 0.87493914 0.92967105 0.04299969
3.37073135 4.57528639 1.48814106 0.88715053 0.95293880 0.63067287
3.44448733 4.32854557 0.06455304 0.90656251 0.90154773 0.02735752
3.30998087 4.58280182 0.29616141 0.87116146 0.95450407 0.12551296
3.37997413 4.37370634 0.25223079 0.88958317 0.91095376 0.10689519
3.52692866 4.51560020 1.76511073 0.92826045 0.94050735 0.74805242
3.31361198 4.47323465 -0.27569005 0.87211716 0.93168348 -0.11683720
3.30760193 4.52238035 0.87281853 0.87053531 0.94191951 0.36989975
3.42860174 4.33580446 -0.31047535 0.90238154 0.90305960 -0.13157919
3.38033009 4.40161037 -0.12510996 0.88967681 0.91676563 -0.05302149
3.48960185 4.49172783 1.13102853 0.91843635 0.93553525 0.47932890
3.31461835 4.48686504 0.48866940 0.87238199 0.93452239 0.20709766
3.39621043 4.65679121 2.15738082 0.89385641 0.96991456 0.91429615
3.47587538 4.40235615 0.45379594 0.91482359 0.91692096 0.19231832
3.65876770 4.49783993 2.11737108 0.96295947 0.93680829 0.89734006
3.32666278 4.64279318 0.69478422 0.87555200 0.96699905 0.29444894
3.41978383 4.45941734 0.65300834 0.90006077 0.92880565 0.27674437
3.30917621 4.50212955 0.10240804 0.87094969 0.93770170 0.04340044
3.35209179 4.61047363 1.49280024 0.88224471 0.96026754 0.63264745
3.42342472 4.35793781 0.06491885 0.90101904 0.90766948 0.02751255
3.36580086 4.41225624 0.25378084 0.88585287 0.91898292 0.10755210
3.47976089 4.51356030 1.75551867 0.91584623 0.94008249 0.74398732
3.30326486 4.57677937 0.87952864 0.86939389 0.95324975 0.37274349
3.40994239 4.36825991 -0.31091219 0.89747053 0.90981936 -0.13176432
3.35746336 4.42912006 -0.12509160 0.88365847 0.92249531 -0.05301371
3.45771718 4.50891304 1.12982440 0.91004449 0.93911457 0.47881860
3.30150628 4.52853537 0.49157521 0.86893100 0.94320148 0.20832914
3.45489597 4.80123854 2.21499658 0.90930200 1.00000000 0.93871361
3.43340588 4.40533733 0.45127517 0.90364599 0.91754186 0.19125003
3.59152508 4.47263479 2.09439468 0.94526172 0.93155855 0.88760263
3.37368274 4.45719576 0.64882064 0.88792729 0.92834294 0.27496964
3.38859224 4.36991215 0.06447988 0.89185137 0.91016352 0.02732652
3.59841275 4.50443602 1.45687580 0.94707453 0.93818212 0.61742270
3.34283495 4.43967438 0.25434449 0.87980843 0.92469358 0.10779098
3.44668937 4.52927828 1.75312066 0.90714210 0.94335622 0.74297100
3.59003949 4.37497473 0.23132177 0.94487071 0.91121793 0.09803396
3.37139511 4.37538815 -0.31035054 0.88732523 0.91130406 -0.13152629
3.52048945 4.45366144 0.83306015 0.92656571 0.92760676 0.35305017
3.32836437 4.44853115 -0.12509619 0.87599987 0.92653823 -0.05301566
3.41268563 4.50873756 1.12420499 0.89819258 0.93907803 0.47643709
3.30532360 4.59448004 0.49783394 0.86993569 0.95693642 0.21098159
3.39712930 4.41581869 0.44980475 0.89409828 0.91972494 0.19062686
3.56452203 4.49657774 2.09509087 0.93815476 0.93654537 0.88789767
3.35394835 4.48938036 0.65077490 0.88273335 0.93504632 0.27579784
3.35374475 4.38162136 0.06404091 0.88267976 0.91260231 0.02714048
3.52668333 4.47237587 1.43884265 0.92819589 0.93150461 0.60978025
3.32085299 4.46857500 0.25504905 0.87402290 0.93071300 0.10808957
3.43197942 4.56910276 1.76031470 0.90327054 0.95165086 0.74601984
3.53246307 4.36011982 0.22819483 0.92971706 0.90812397 0.09670877
3.34748554 4.40124464 -0.31053776 0.88103241 0.91668946 -0.13160563
3.47655296 4.45548725 0.82913506 0.91500193 0.92798704 0.35138673
3.32422662 4.50144625 -0.12500440 0.87491083 0.93755937 -0.05297675
3.39960670 4.55044174 1.12942302 0.89475030 0.94776416 0.47864848
3.53677487 4.37484884 -0.15655197 0.93085188 0.91119170 -0.06634659
3.36327410 4.42917824 0.44875443 0.88518780 0.92250741 0.19018173
3.53039551 4.51152277 2.09160972 0.92917287 0.93965811 0.88642240
3.32449365 4.50877571 0.65049571 0.87498111 0.93908596 0.27567953
3.32372689 4.39942646 0.06389459 0.87477928 0.91631073 0.02707847
3.48895478 4.48225689 1.43483531 0.91826600 0.93356264 0.60808194
3.32235503 4.52946186 0.25857189 0.87441826 0.94339448 0.10958254
3.42832208 4.62420797 1.77350366 0.90230793 0.96312815 0.75160933
3.48266172 4.35409355 0.22584964 0.91660970 0.90686882 0.09571488
3.32820773 4.43335056 -0.31097460 0.87595862 0.92337644 -0.13179077
3.43636942 4.46162319 0.82611573 0.90442598 0.92926508 0.35010713
3.36393809 4.56227541 1.12701464 0.88536257 0.95022887 0.47762781
3.47444367 4.35308933 -0.15636578 0.91444683 0.90665966 -0.06626768
3.32818651 4.44070005 0.44749406 0.87595302 0.92490721 0.18964760
3.49507093 4.52473783 2.08743215 0.91987574 0.94241053 0.88465196
3.30663824 4.54394865 0.65300834 0.87028170 0.94641179 0.27674437
3.51750970 4.43456364 0.62682742 0.92578143 0.92362911 0.26564893
3.31883144 4.45058203 0.06528465 0.87349087 0.92696542 0.02766758
3.46427894 4.50868368 1.43633807 0.91177154 0.93906677 0.60871881
3.40033197 4.64719343 1.77410316 0.89494115 0.96791553 0.75186336
3.45523548 4.37588930 0.22584964 0.90939134 0.91140842 0.09571488
3.33616590 4.50222826 -0.31284678 0.87805319 0.93772227 -0.13258420
3.40586400 4.47998714 0.82551187 0.89639717 0.93308991 0.34985122
3.36532760 4.62440395 1.13745081 0.88572830 0.96316898 0.48205066
3.43716788 4.36223030 -0.15631257 0.90463609 0.90856355 -0.06624513
3.29546475 4.45514488 0.44665381 0.86734092 0.92791575 0.18929149
3.47228289 4.55404282 2.09091330 0.91387808 0.94851416 0.88612723
3.31401372 4.61437178 0.66166306 0.87222290 0.96107948 0.28041223
3.49079370 4.45814180 0.62709558 0.91874999 0.92853993 0.26576257
3.30270815 4.48740005 0.06601627 0.86924732 0.93463385 0.02797764
3.43000388 4.52266836 1.43383348 0.90275061 0.94197953 0.60765737
3.40024996 4.70858288 1.78969014 0.89491957 0.98070174 0.75846910
3.49576044 4.35135317 0.03940492 0.92005724 0.90629804 0.01669977
3.40813422 4.37225628 0.22376502 0.89699465 0.91065174 0.09483142
3.36930203 4.49025869 0.82339835 0.88677436 0.93522924 0.34895551
3.39208126 4.34675407 -0.15617958 0.89276963 0.90534014 -0.06618877
3.30632424 4.51383162 0.45232549 0.87019908 0.94013900 0.19169515
3.45645928 4.57781649 2.09439468 0.90971345 0.95346576 0.88760263
3.53030181 4.42176437 0.43111509 0.92914826 0.92096329 0.18270621
3.45765758 4.45883656 0.62441367 0.91002882 0.92868465 0.26462597
3.62937355 4.37222385 2.33954906 0.95522314 0.91064501 0.99149889
3.41566324 4.54804611 1.43683898 0.89897627 0.94726521 0.60893112
3.48388863 4.37875986 0.03984946 0.91693264 0.91200632 0.01688817
3.40327096 4.40886354 0.22545877 0.89571470 0.91827631 0.09554923
3.55847073 4.31867504 0.19529390 0.93656206 0.89949185 0.08276539
3.35758400 4.51874781 0.82581377 0.88369024 0.94116294 0.34997916
3.36834693 4.37274790 -0.15619951 0.88652295 0.91075414 -0.06619722
3.45351815 4.63392925 2.11040854 0.90893936 0.96515292 0.89438933
3.48037887 4.41564751 0.42750886 0.91600889 0.91968924 0.18117788
3.40679312 4.45048904 0.61931801 0.89664167 0.92694604 0.26246643
3.58902097 4.37919664 2.33106232 0.94460267 0.91209728 0.98790216
3.40092254 4.58803415 1.44284999 0.89509660 0.95559388 0.61147857
3.42066598 4.35484362 0.03800781 0.90029293 0.90702504 0.01610768
3.37309480 4.42697620 0.22519819 0.88777256 0.92204881 0.09543880
3.63030815 4.49819469 1.72008038 0.95546913 0.93688214 0.72896856
3.48064613 4.27918243 0.19053616 0.91607922 0.89126635 0.08074906
3.33735013 4.55088520 0.82792729 0.87836486 0.94785649 0.35087487
3.35164738 4.40819407 -0.15625937 0.88212776 0.91813684 -0.06622259
3.53094244 4.34677839 -0.18243746 0.92931682 0.90534520 -0.07731684
3.41875315 4.64800453 2.10692739 0.89978951 0.96808445 0.89291400
3.43553782 4.41537857 0.42470402 0.90420711 0.91963327 0.17998919
3.39065337 4.48766279 0.62199992 0.89239383 0.93468857 0.26360303
3.56952357 4.41173124 2.33646297 0.93947113 0.91887361 0.99019098
3.39155746 4.63580894 1.45136571 0.89263177 0.96554440 0.61508751
3.39079833 4.37308168 0.03788080 0.89243197 0.91082364 0.01605385
3.34163189 4.44328403 0.22480732 0.87949175 0.92544538 0.09527314
3.56754375 4.47738838 1.70322919 0.93895000 0.93254864 0.72182703
3.44866776 4.29475880 0.19006039 0.90766281 0.89451063 0.08054743
3.32266927 4.59093380 0.83155054 0.87450093 0.95619780 0.35241041
3.32507849 4.43076992 -0.15626602 0.87513506 0.92283893 -0.06622540
3.55038047 4.48104954 1.08242679 0.93443280 0.93331116 0.45873153
3.47465372 4.33309793 -0.18207124 0.91450208 0.90249586 -0.07716163
3.40772772 4.43687725 0.42470402 0.89688766 0.92411101 0.17998919
3.35649443 4.50091314 0.62065899 0.88340348 0.93744832 0.26303473
3.55549049 4.45142221 2.34572124 0.93577772 0.92714041 0.99411464
3.35841823 4.38793278 0.03762677 0.88390982 0.91391683 0.01594619
3.30891347 4.45776510 0.22428617 0.87088054 0.92846149 0.09505229
3.51460767 4.46803999 1.69102657 0.92501765 0.93060154 0.71665561
3.40292525 4.29294348 0.18827623 0.89562368 0.89413249 0.07979130
3.31730986 4.47897053 -0.15637907 0.87309039 0.93287814 -0.06627332
3.50289464 4.47846174 1.07629275 0.92193490 0.93277216 0.45613194
3.43239498 4.33608198 -0.18188015 0.90337992 0.90311736 -0.07708064
3.36901522 4.44389009 0.42290092 0.88669884 0.92557162 0.17922504
3.33750057 4.53471708 0.62280452 0.87840444 0.94448900 0.26394403
3.50129318 4.44025421 2.32797623 0.92151338 0.92481434 0.98659432
3.49499512 4.44412708 0.58603263 0.91985577 0.92562097 0.24836013
3.33557820 4.41534519 0.03788080 0.87789845 0.91962630 0.01605385
3.31369805 4.52366686 0.22793426 0.87213981 0.94218749 0.09659834
3.46777225 4.46578264 1.68172944 0.91269094 0.93013138 0.71271551
3.39813566 4.34245920 0.19041722 0.89436311 0.90444565 0.08069865
3.45558214 4.47545433 1.07015884 0.90948260 0.93214577 0.45353240
3.41003180 4.36384773 -0.18194385 0.89749408 0.90890044 -0.07710765
3.34340000 4.46816540 0.42330161 0.87995714 0.93062764 0.17939486
3.63248396 4.48791647 2.04408360 0.95604181 0.93474144 0.86628085
3.49763751 4.37374258 0.38223347 0.92055124 0.91096133 0.16199021
3.31126022 4.55881310 0.62334090 0.87149817 0.94950771 0.26417133
3.47106910 4.45924568 2.32643318 0.91355866 0.92876989 0.98594034
3.41811895 4.40349436 0.57585716 0.89962256 0.91715801 0.24404776
3.30895925 4.43782282 0.03794430 0.87089258 0.92430794 0.01608076
3.59644318 4.49799728 1.39865267 0.94655615 0.93684101 0.59274781
3.42046762 4.30166769 -0.00055158 0.90024072 0.89594960 -0.00023376
3.42342234 4.46616030 1.67359436 0.90101838 0.93021005 0.70926785
3.34625864 4.33221483 0.18803835 0.88070947 0.90231192 0.07969049
3.41546702 4.46667147 1.06402481 0.89892459 0.93031651 0.45093280
3.37836194 4.36567450 -0.18180054 0.88915884 0.90928090 -0.07704692
3.33173800 4.49669647 0.42490438 0.87688780 0.93657011 0.18007411
3.58903193 4.47701073 2.03120589 0.94460553 0.93246996 0.86082327
3.47201967 4.38394976 0.38149288 0.91380882 0.91308725 0.16167635
3.32082725 4.61792326 0.63058209 0.87401617 0.96181917 0.26724014
3.46347213 4.49313831 2.33569145 0.91155916 0.93582898 0.98986399
3.41069198 4.43680477 0.57865542 0.89766783 0.92409587 0.24523367
3.76652050 4.39281321 2.32365799 0.99131918 0.91493332 0.98476422
3.30573106 4.47755432 0.03889688 0.87004292 0.93258321 0.01648446
3.55481601 4.48895741 1.39044166 0.93560016 0.93495822 0.58926797
3.40015864 4.31773853 -0.00055158 0.89489555 0.89929682 -0.00023376
3.41730833 4.50211334 1.68114829 0.89940923 0.93769830 0.71246916
3.34530807 4.37323523 0.18994144 0.88045931 0.91085565 0.08049702
3.38851166 4.48961401 1.06440818 0.89183015 0.93509495 0.45109525
3.35086513 4.38681507 -0.18180054 0.88192189 0.91368407 -0.07704692
3.29056239 4.49982548 0.42270058 0.86605066 0.93722183 0.17914014
3.55036926 4.48615599 2.02510595 0.93442982 0.93437475 0.85823816
3.41113567 4.36344004 0.37649387 0.89778465 0.90881550 0.15955777
3.40625978 4.47652721 2.31563187 0.89650130 0.93236923 0.98136276
3.36828947 4.43923569 0.57560277 0.88650781 0.92460221 0.24393995
3.72202396 4.39666319 2.31308436 0.97960800 0.91573519 0.98028314
3.50155401 4.47900486 1.38029885 0.92158204 0.93288529 0.58496946
3.36309934 4.32642508 -0.00095129 0.88514185 0.90110606 -0.00040316
3.38552761 4.51888895 1.67940509 0.89104480 0.94119233 0.71173042
3.33106208 4.41164541 0.19124982 0.87670988 0.91885573 0.08105151
3.37540603 4.53133488 1.06939209 0.88838089 0.94378459 0.45320743
3.33896422 4.42848444 -0.18200754 0.87878966 0.92236292 -0.07713464
3.51058078 4.49350595 2.01832795 0.92395782 0.93590558 0.85536563
3.37142825 4.36906528 0.37464240 0.88733393 0.90998715 0.15877312
3.39681268 4.52299070 2.32874775 0.89401489 0.94204664 0.98692125
3.33077121 4.44764376 0.57356769 0.87663335 0.92635339 0.24307749
3.69313288 4.41854572 2.31232905 0.97200412 0.92029291 0.97996306
3.47688317 4.50553942 1.38174784 0.91508883 0.93841189 0.58558357
3.34318733 4.35696077 -0.00065151 0.87990117 0.90746599 -0.00027611
3.38310981 4.57555676 1.69276977 0.89040846 0.95299506 0.71739435
3.30687404 4.43727732 0.19160666 0.87034374 0.92419428 0.08120274
3.35728121 4.56672478 1.07284248 0.88361055 0.95115554 0.45466971
3.33387041 4.47977686 -0.18231007 0.87744898 0.93304610 -0.07726285
3.47884679 4.51099205 2.01629472 0.91560566 0.93954760 0.85450393
3.34754777 4.39490175 0.37519783 0.88104880 0.91536832 0.15900852
3.39675665 4.58288860 2.34880733 0.89400017 0.95452219 0.99542254
3.30750012 4.47484732 0.57458526 0.87050855 0.93201935 0.24350874
3.66529751 4.44166327 2.31232905 0.96467805 0.92510784 0.97996306
3.44148254 4.51800776 1.37884986 0.90577167 0.94100881 0.58435535
3.32181120 4.38582706 -0.00040169 0.87427509 0.91347826 -0.00017024
3.38123488 4.63392162 1.70671558 0.88991499 0.96515131 0.72330457
3.29200578 4.47561026 0.19291504 0.86643058 0.93217826 0.08175723
3.35146165 4.61958742 1.08050990 0.88207889 0.96216577 0.45791915
3.31866527 4.41426086 0.37501270 0.87344712 0.91940045 0.15893005
3.38307190 4.62504435 2.35960841 0.89039844 0.96330237 1.00000000
3.31809139 4.54828739 0.58297998 0.87329608 0.94731545 0.24706641
3.61029792 4.43167782 2.29495811 0.95020258 0.92302805 0.97260123
3.41070604 4.53643084 1.37788379 0.89767158 0.94484597 0.58394593
3.29779792 4.41140270 -0.00025180 0.86795503 0.91880512 -0.00010671
3.38877416 4.70645380 1.72589111 0.89189923 0.98025829 0.73143119
3.60087085 4.49087477 1.65200043 0.94772148 0.93535757 0.70011634
3.58581018 4.50850534 1.03797746 0.94375759 0.93902963 0.43989396
3.42976117 4.56490993 2.02103925 0.90268672 0.95077759 0.85651469
3.28609419 4.42864561 0.37427208 0.86487466 0.92239648 0.15861619
3.30925107 4.59634304 0.58730459 0.87096936 0.95732445 0.24889918
3.57888460 4.44995785 2.29269242 0.94193482 0.92683542 0.97164106
3.42587185 4.61715412 1.39623761 0.90166306 0.96165895 0.59172428
3.29029584 4.45931196 0.00059758 0.86598051 0.92878366 0.00025325
3.55463529 4.49090099 1.64356327 0.93555260 0.93536299 0.69654071
3.54497099 4.50070810 1.03212261 0.93300903 0.93740565 0.43741268
3.42721391 4.60675383 2.03256130 0.90201628 0.95949280 0.86139774
3.28651857 4.47288990 0.37760475 0.86498636 0.93161166 0.16002856
3.54976225 4.45666218 2.28740549 0.93427008 0.92823178 0.96940047
3.38349152 4.60502100 1.38754380 0.89050889 0.95913190 0.58803988
3.52748609 4.50007057 1.64075100 0.92840713 0.93727285 0.69534886
3.48388743 4.48109818 1.02224255 0.91693234 0.93332130 0.43322551
3.40706730 4.64036179 2.03798366 0.89671385 0.96649265 0.86369568
3.66195583 4.48110342 1.98679960 0.96379858 0.93332237 0.84200394
3.48949432 4.43823051 2.26625824 0.91840804 0.92439282 0.96043825
3.37263012 4.65139294 1.39527166 0.88765025 0.96879023 0.59131491
3.64168715 4.51625204 1.34618783 0.95846403 0.94064313 0.57051325
3.50150156 4.52517271 1.64187586 0.92156821 0.94250113 0.69582558
3.44604206 4.49045515 1.01931512 0.90697169 0.93527019 0.43198487
3.38553476 4.67237043 2.04272819 0.89104664 0.97315943 0.86570644
3.61110568 4.47618341 1.97426367 0.95041519 0.93229765 0.83669126
3.46838379 4.46882105 2.27078986 0.91285187 0.93076420 0.96235877
3.59133148 4.51172018 1.33785343 0.94521075 0.93969923 0.56698114
3.46714830 4.53947830 1.63906360 0.91252673 0.94548070 0.69463372
3.40583134 4.49638748 1.01565576 0.89638859 0.93650573 0.43043402
3.55691838 4.46638441 1.95974839 0.93615353 0.93025672 0.83053964
3.44589472 4.49785566 2.27456617 0.90693295 0.93681157 0.96395916
3.55446005 4.52351713 1.33461213 0.93550652 0.94215631 0.56560749
3.44436169 4.56881571 1.64187586 0.90652949 0.95159107 0.69582558
3.38815975 4.53183317 1.01894915 0.89173752 0.94388837 0.43182978
3.52409649 4.48272467 1.95710921 0.92751503 0.93366009 0.82942116
3.43776727 4.54593372 2.28816080 0.90479386 0.94682521 0.96972054
3.49362421 4.50436544 1.32211041 0.91949499 0.93816739 0.56030923
3.43285489 4.61340237 1.65031302 0.90350097 0.96087754 0.69940120
3.36665750 4.56249952 1.02114475 0.88607830 0.95027554 0.43276027
3.48772144 4.49436617 1.95249069 0.91794139 0.93608475 0.82746387
3.41804075 4.57928514 2.29420280 0.89960200 0.95377165 0.97228116
3.46644187 4.52776814 1.32257342 0.91234082 0.94304168 0.56050545
3.41064978 4.64413786 1.65368783 0.89765674 0.96727914 0.70083147
3.37049341 4.62795019 1.03139079 0.88708788 0.96390760 0.43710253
3.47094870 4.53113890 1.95908856 0.91352695 0.94374377 0.83026004
3.40354896 4.62000275 2.30402112 0.89578784 0.96225226 0.97644216
3.43203211 4.54171848 1.32025826 0.90328443 0.94594729 0.55952430
3.39045691 4.67787600 1.65818763 0.89234215 0.97430611 0.70273846
3.44382548 4.53994417 1.95578957 0.90638834 0.94557774 0.82886195
3.40942049 4.55628729 1.31979525 0.89733320 0.94898164 0.55932808
3.43001294 4.58108759 1.96436679 0.90275300 0.95414704 0.83249694
3.38653255 4.58542395 1.32211041 0.89130926 0.95505023 0.56030923
3.41694617 4.62375069 1.97360384 0.89931393 0.96303290 0.83641160
3.37377787 4.62856674 1.32859278 0.88795233 0.96403599 0.56305647
3.41801119 4.68620825 1.99141800 0.89959419 0.97604156 0.84396124
