-5.19403315 -11.88337517 2.22593474 -0.96176386 -0.96809155 1.00000000
-5.10144281 -11.87411118 2.21803784 -0.94461918 -0.96733683 0.99645233
-5.00841141 -11.86233711 2.20979738 -0.92739284 -0.96637768 0.99275029
-4.92851496 -11.88082314 2.20739412 -0.91259867 -0.96788365 0.99167061
-4.83969688 -11.87686539 2.20087051 -0.89615250 -0.96756124 0.98873991
-5.27746439 -12.07278919 1.01518476 -0.97721261 -0.98352236 0.45607123
-4.77226877 -11.92534351 2.20430398 -0.88366699 -0.97151053 0.99028242
-5.25990868 -12.10932541 0.10437547 -0.97396183 -0.98649883 0.04689062
-5.16545296 -11.96938705 1.00297439 -0.95647174 -0.97509861 0.45058572
-5.40052843 -12.16665268 -0.33540142 -1.00000000 -0.99116904 -0.15067890
-4.72538567 -11.97153950 2.20876741 -0.87498581 -0.97527397 0.99228758
-5.17530489 -12.06961060 0.10309128 -0.95829600 -0.98326343 0.04631370
-5.09634590 -12.01628971 1.00436985 -0.94367540 -0.97891957 0.45121261
-5.22594309 -11.97475243 -0.33175117 -0.96767253 -0.97553569 -0.14903903
-5.07229090 -12.03735161 0.10180710 -0.93922120 -0.98063540 0.04573678
-5.23412418 -12.02021027 1.46121526 -0.96918744 -0.97923899 0.65645015
-5.19418526 -11.99034214 0.55823231 -0.96179205 -0.97680575 0.25078556
-5.01311016 -12.02967072 1.00262547 -0.92826289 -0.98000968 0.45042896
-5.17887831 -12.07355690 -0.33281952 -0.95895767 -0.98358488 -0.14951900
-4.99884462 -12.07453060 0.10191717 -0.92562139 -0.98366421 0.04578624
-5.14526463 -12.02181149 1.45709622 -0.95273358 -0.97936940 0.65459973
-5.11095095 -12.00435352 0.55716813 -0.94637978 -0.97794718 0.25030747
-4.94193888 -12.07200146 1.00367212 -0.91508430 -0.98345822 0.45089915
-5.09130716 -12.07819939 -0.33237439 -0.94274241 -0.98396313 -0.14931902
-5.16627073 -11.89410019 2.15786791 -0.95662320 -0.96896529 0.96942103
-4.92588139 -12.11311436 0.10206393 -0.91211098 -0.98680753 0.04585217
-5.06196022 -12.03559113 1.45467329 -0.93730831 -0.98049200 0.65351123
-5.03542471 -12.03622913 0.55716813 -0.93239480 -0.98054397 0.25030747
-4.88005733 -12.13795948 1.00698638 -0.90362591 -0.98883152 0.45238811
-5.02141619 -12.12474060 -0.33261180 -0.92980093 -0.98775464 -0.14942567
-5.08677340 -11.91545105 2.15586805 -0.94190288 -0.97070467 0.96852255
-4.88217974 -12.22558594 0.10367834 -0.90401888 -0.99597013 0.04657744
-4.98019648 -12.05247021 1.45273483 -0.92216837 -0.98186707 0.65264034
-4.96499443 -12.08056831 0.55791301 -0.91935343 -0.98415607 0.25064212
-4.96465349 -12.20424366 -0.33338338 -0.91929030 -0.99423146 -0.14977230
-4.98806953 -11.89084053 2.14553499 -0.92362618 -0.96869975 0.96388048
-5.24110317 -12.08873463 0.02983628 -0.97047967 -0.98482138 0.01340393
-4.92707872 -12.08500290 1.45394635 -0.91233271 -0.98451740 0.65318465
-4.92744875 -12.15198231 0.56067991 -0.91240120 -0.98997390 0.25188515
-5.17890692 -12.00375748 0.93950307 -0.95896298 -0.97789860 0.42207125
-5.38475990 -12.10622501 -0.41291776 -0.99708021 -0.98624623 -0.18550308
-4.92592335 -11.89964676 2.14286828 -0.91211879 -0.96941715 0.96268243
-5.15486050 -12.04531670 0.02889455 -0.95451039 -0.98128426 0.01298086
-4.87604189 -12.17842388 1.46218443 -0.90288234 -0.99212801 0.65688556
-4.87822866 -12.25139713 0.56461740 -0.90328729 -0.99807286 0.25365406
-5.08776426 -11.99938202 0.93621647 -0.94208640 -0.97754216 0.42059475
-5.23221350 -11.96588993 -0.40897453 -0.96883363 -0.97481370 -0.18373159
-4.84807587 -11.92305946 2.14153504 -0.89770401 -0.97132450 0.96208346
-5.06740475 -12.04983425 0.02851276 -0.93831646 -0.98165232 0.01280934
-5.14305449 -11.89146233 1.36936021 -0.95232433 -0.96875036 0.61518437
-5.19198656 -11.96993065 0.48396668 -0.96138489 -0.97514290 0.21742177
-5.00765371 -12.02008057 0.93523049 -0.92725253 -0.97922838 0.42015180
-5.18545437 -12.06461906 -0.41046882 -0.96017540 -0.98285675 -0.18440290
-4.78407907 -11.98073959 2.14653492 -0.88585389 -0.97602344 0.96432966
-4.99236059 -12.08328247 0.02853822 -0.92442077 -0.98437721 0.01282078
-5.09241724 -11.98018074 1.37652886 -0.94294798 -0.97597790 0.61840487
-5.12453842 -12.02068138 0.48491898 -0.94889575 -0.97927737 0.21784960
-4.93885136 -12.06789875 0.93670946 -0.91451263 -0.98312396 0.42081624
-5.09861565 -12.07119083 -0.40988770 -0.94409567 -0.98339218 -0.18414183
-4.72749758 -12.05826759 2.15520144 -0.87537688 -0.98233932 0.96822309
-4.92766428 -12.14218998 0.02892000 -0.91244113 -0.98917615 0.01299229
-5.00474739 -11.98263073 1.37282896 -0.92671436 -0.97617751 0.61674267
-5.04658508 -12.04711819 0.48463330 -0.93446136 -0.98143107 0.21772125
-4.87412310 -12.12641621 0.93917441 -0.90252709 -0.98789114 0.42192361
-5.02959394 -12.11959934 -0.41026127 -0.93131512 -0.98733580 -0.18430966
-4.93693018 -12.03220654 1.37514138 -0.91415685 -0.98021626 0.61778152
-4.97766018 -12.09520435 0.48549038 -0.92169875 -0.98534846 0.21810630
-4.97683334 -12.20832539 -0.41154802 -0.92154562 -0.99456394 -0.18488772
-5.27687263 -12.12208462 -0.01918737 -0.97710299 -0.98753828 -0.00861991
-4.88391638 -12.06453896 1.37629759 -0.90434045 -0.98285025 0.61830097
-5.23278570 -12.01510334 1.77451253 -0.96893954 -0.97882295 0.79719883
-4.93645144 -12.15737247 0.48749024 -0.91406822 -0.99041301 0.21900474
-5.19771719 -12.02163792 0.86820000 -0.96244603 -0.97935528 0.39003840
-5.39537859 -12.08257008 -0.46544743 -0.99904644 -0.98431915 -0.20910200
-5.17799234 -12.04936695 -0.02013873 -0.95879364 -0.98161423 -0.00904732
-4.84411716 -12.18538857 1.38762879 -0.89697099 -0.99269539 0.62339151
-5.12304735 -11.96764088 1.76179624 -0.94861966 -0.97495633 0.79148602
-4.88670826 -12.25491142 0.49091858 -0.90485740 -0.99835914 0.22054490
-5.10731745 -12.01916504 0.86528850 -0.94570696 -0.97915381 0.38873041
-5.23846245 -11.93120384 -0.46044862 -0.96999073 -0.97198796 -0.20685630
-5.15501451 -11.93702221 2.07041287 -0.95453888 -0.97246194 0.93013191
-5.09365511 -12.06138420 -0.02033619 -0.94317716 -0.98259324 -0.00913602
-5.27212954 -12.04324150 1.33985329 -0.97622478 -0.98111522 0.60192835
-5.03322601 -11.96491146 1.75630522 -0.93198770 -0.97473401 0.78901917
-5.20835972 -11.97926426 0.42399925 -0.96441668 -0.97590327 0.19048144
-5.02634048 -12.03812885 0.86421579 -0.93071270 -0.98069870 0.38824847
-5.18312836 -12.00980663 -0.46168596 -0.95974469 -0.97839141 -0.20741217
-5.05762434 -11.91643715 2.06114650 -0.93650544 -0.97078496 0.92596895
-5.00020838 -12.05063629 -0.02074904 -0.92587394 -0.98171765 -0.00932150
-5.16191530 -11.99574852 1.33001816 -0.95581669 -0.97724617 0.59750998
-4.95343113 -11.98531818 1.75457108 -0.91721231 -0.97639644 0.78824013
-5.14159489 -12.03197765 0.42494485 -0.95205402 -0.98019761 0.19090624
-4.95361948 -12.07685661 0.86482877 -0.91724718 -0.98385370 0.38852388
-5.10445547 -12.03476810 -0.46148798 -0.94517702 -0.98042494 -0.20732322
-4.97281027 -11.92427540 2.05699253 -0.92080069 -0.97142351 0.92410278
-4.93792915 -12.11517239 -0.02042594 -0.91434187 -0.98697513 -0.00917634
-5.07410240 -11.99863720 1.32644176 -0.93955666 -0.97748148 0.59590328
-4.88470173 -12.03271866 1.75717223 -0.90448588 -0.98025799 0.78940868
-5.06435347 -12.06035900 0.42477292 -0.93775147 -0.98250973 0.19082901
-4.89545536 -12.15216255 0.86850649 -0.90647709 -0.98998863 0.39017609
-5.02873850 -12.06660271 -0.46148798 -0.93115675 -0.98301840 -0.20732322
-4.88213301 -11.91689491 2.05028248 -0.90401024 -0.97082227 0.92108834
-4.90612841 -12.25743103 -0.01934892 -0.90845340 -0.99856442 -0.00869249
-4.99709368 -12.02660847 1.32599473 -0.92529714 -0.97976023 0.59570241
-4.83455086 -12.12755394 1.76728737 -0.89519960 -0.98798382 0.79395294
-4.99151325 -12.09933376 0.42511678 -0.92426383 -0.98568487 0.19098349
-4.97017956 -12.14054489 -0.46262631 -0.92031354 -0.98904216 -0.20783462
-4.81009722 -11.95466518 2.05156064 -0.89067161 -0.97389925 0.92166251
-5.25732756 -12.09239292 -0.10758659 -0.97348392 -0.98511940 -0.04833322
-4.94186640 -12.05370331 1.32644176 -0.91507089 -0.98196751 0.59590328
-4.81485462 -12.24603081 1.78231573 -0.89155251 -0.99763566 0.80070442
-5.24200821 -12.02248001 1.70971537 -0.97064728 -0.97942388 0.76808870
-4.94794893 -12.15605545 0.42666411 -0.91619718 -0.99030572 0.19167863
-5.20295000 -12.01879501 0.78685749 -0.96341497 -0.97912365 0.35349530
-4.94573355 -12.24545383 -0.46480402 -0.91578698 -0.99758869 -0.20881297
-4.77039433 -12.01943302 2.05890989 -0.88331991 -0.97917563 0.92496419
-5.38015556 -12.06020069 -0.55017912 -0.99622762 -0.98249686 -0.24716768
-5.17732906 -12.06377029 -0.10771969 -0.95867085 -0.98278761 -0.04839301
-4.87638664 -12.11034298 1.32957113 -0.90294617 -0.98658174 0.59730911
-5.13269997 -11.97695827 1.69771051 -0.95040697 -0.97571540 0.76269555
-4.89585304 -12.24817085 0.42950094 -0.90655077 -0.99781001 0.19295307
-5.10303068 -11.99437714 0.78248918 -0.94491321 -0.97713447 0.35153285
-5.28010082 -12.03888321 -0.54830688 -0.97770077 -0.98076016 -0.24632658
-5.09128761 -12.07212067 -0.10777935 -0.94273877 -0.98346788 -0.04841982
-4.85187864 -12.27204895 1.34544146 -0.89840811 -0.99975526 0.60443884
-5.27459621 -12.04489994 1.25014341 -0.97668153 -0.98125035 0.56162626
-5.04268742 -11.97431564 1.69240606 -0.93373960 -0.97550011 0.76031250
-5.23104811 -12.02846146 0.34220010 -0.96861780 -0.97991115 0.15373321
-5.01907158 -12.00597000 0.78093916 -0.92936677 -0.97807884 0.35083652
-5.18608713 -12.02962780 -0.54687154 -0.96029252 -0.98000616 -0.24568175
-5.00380945 -12.07617474 -0.10784820 -0.92654073 -0.98379815 -0.04845075
-5.15303898 -11.97191525 1.23795974 -0.95417309 -0.97530454 0.55615276
-4.96735144 -12.00576305 1.69240606 -0.91978991 -0.97806203 0.76031250
-5.14117718 -12.02803230 0.34088320 -0.95197672 -0.97987622 0.15314159
-4.94886255 -12.05017853 0.78192556 -0.91636634 -0.98168039 0.35127965
-5.10570431 -12.05093956 -0.54649711 -0.94540828 -0.98174238 -0.24551353
-4.95205307 -12.16661644 -0.10770133 -0.91695714 -0.99116611 -0.04838477
-5.07227230 -11.99124241 1.23648930 -0.93921775 -0.97687906 0.55549216
-4.89032269 -12.03306961 1.69184768 -0.90552670 -0.98028660 0.76006168
-5.05851030 -12.04352474 0.34022474 -0.93666953 -0.98113829 0.15284579
-4.88878489 -12.11986446 0.78488469 -0.90524197 -0.98735738 0.35260904
-5.03451252 -12.09384727 -0.54687154 -0.93222588 -0.98523790 -0.24568175
-5.07718849 -11.78707504 1.92605650 -0.94012809 -0.96024638 0.86527985
-4.90382862 -12.26801872 -0.10752692 -0.90802753 -0.99942696 -0.04830641
-4.99376440 -12.01553345 1.23564911 -0.92468071 -0.97885799 0.55511469
-4.84041452 -12.12789536 1.70161903 -0.89628536 -0.98801166 0.76445144
-4.98809576 -12.08799458 0.34073687 -0.92363107 -0.98476106 0.15307586
-4.85384035 -12.25414848 0.79277587 -0.89877135 -0.99829698 0.35615414
-4.97969246 -12.17701626 -0.54861897 -0.92207503 -0.99201334 -0.24646679
-5.04789686 -11.92427158 1.94356859 -0.93470424 -0.97142321 0.87314713
-5.32571507 -12.07313538 -0.18172275 -0.98614705 -0.98355055 -0.08163885
-4.94542027 -12.05916214 1.23795974 -0.91572899 -0.98241222 0.55615276
-5.27218914 -12.05111885 1.64086401 -0.97623581 -0.98175699 0.73715729
-4.94166899 -12.13726521 0.34176111 -0.91503435 -0.98877496 0.15353599
-5.22503376 -12.02107239 0.71755987 -0.96750414 -0.97930920 0.32236341
-4.99164915 -11.94792652 1.94356859 -0.92428905 -0.97335029 0.87314713
-5.24023867 -12.08432579 -0.18164293 -0.97031963 -0.98446220 -0.08160299
-4.88372660 -12.12502766 1.24195099 -0.90430534 -0.98777801 0.55794585
-5.16126013 -12.00201988 1.62879539 -0.95569539 -0.97775710 0.73173547
-4.89436293 -12.24040699 0.34461442 -0.90627480 -0.99717754 0.15481785
-5.13768244 -12.02611732 0.71560550 -0.95132959 -0.97972018 0.32148540
-4.90065575 -11.94066906 1.93722796 -0.90744007 -0.97275907 0.87029862
-5.14311266 -12.06730366 -0.18146339 -0.95233506 -0.98307550 -0.08152233
-4.84636831 -12.25343895 1.25308430 -0.89738780 -0.99823916 0.56294745
-5.07344913 -12.00498295 1.62450421 -0.93943566 -0.97799844 0.72980767
-5.28784323 -12.09431934 0.28142384 -0.97913444 -0.98527634 0.12642951
-5.05047464 -12.03053951 0.71365118 -0.93518156 -0.98008043 0.32060742
-4.83814859 -12.00237846 1.94236088 -0.89586580 -0.97778630 0.87260461
-5.06565094 -12.09568882 -0.18145008 -0.93799174 -0.98538792 -0.08151636
-5.11941910 -11.85102749 1.16117418 -0.94794780 -0.96545631 0.52165687
-4.99110508 -12.02013874 1.62209058 -0.92418826 -0.97923315 0.72872335
-5.15591097 -11.99682236 0.27691495 -0.95470488 -0.97733366 0.12440389
-4.97857571 -12.07126617 0.71430266 -0.92186826 -0.98339832 0.32090008
-4.78601742 -12.09132957 1.95202267 -0.88621283 -0.98503280 0.87694514
-4.99713278 -12.14578533 -0.18151659 -0.92530441 -0.98946905 -0.08154623
-5.07507181 -11.95444393 1.16898763 -0.93973613 -0.97388124 0.52516705
-4.91771936 -12.05677032 1.62289512 -0.91059965 -0.98221737 0.72908479
-5.08275604 -12.03450871 0.27710545 -0.94115901 -0.98040378 0.12448948
-4.91457510 -12.13192368 0.71638727 -0.91001743 -0.98833984 0.32183659
-4.95431089 -12.26043987 -0.18181585 -0.91737521 -0.99880952 -0.08168067
-4.99222755 -11.96771717 1.16698420 -0.92439610 -0.97496259 0.52426702
-4.85801792 -12.12793255 1.62879539 -0.89954489 -0.98801470 0.73173547
-4.99711847 -12.04218864 0.27627990 -0.92530179 -0.98102945 0.12411860
-4.87352180 -12.25162983 0.72264111 -0.90241575 -0.99809182 0.32464615
-5.29761934 -12.00281620 -0.24230875 -0.98094463 -0.97782195 -0.10885708
-4.93803978 -11.99663353 1.16758525 -0.91436231 -0.97731829 0.52453703
-4.82765341 -12.21893406 1.63871849 -0.89392239 -0.99542820 0.73619342
-5.22988081 -11.95750141 1.53463995 -0.96840167 -0.97413033 0.68943620
-4.95993471 -12.11373234 0.27793103 -0.91841656 -0.98685783 0.12486037
-5.20530272 -11.98066616 0.64014298 -0.96385062 -0.97601748 0.28758389
-5.22928905 -12.05236626 -0.24245207 -0.96829212 -0.98185861 -0.10892146
-4.87816811 -12.06618977 1.17179251 -0.90327609 -0.98298472 0.52642715
-5.15857887 -11.99923134 1.53591192 -0.95519888 -0.97752988 0.69000763
-4.89932585 -12.18362904 0.27926463 -0.90719378 -0.99255204 0.12545949
-5.12677622 -12.00579643 0.63966715 -0.94931012 -0.97806472 0.28737012
-5.13692522 -12.04637718 -0.24211767 -0.95118934 -0.98137069 -0.10877123
-4.83443785 -12.17803192 1.18060768 -0.89517868 -0.99209607 0.53038734
-5.07998466 -12.02410221 1.53489435 -0.94064587 -0.97955602 0.68955046
-5.27602816 -12.09251690 0.19180800 -0.97694665 -0.98512948 0.08616965
-5.04038572 -12.01201534 0.63800198 -0.93331343 -0.97857136 0.28662205
-5.06113482 -12.07841587 -0.24211767 -0.93715549 -0.98398077 -0.10877123
-5.18029785 -11.98658657 1.07561421 -0.95922053 -0.97649980 0.48321912
-4.98983049 -12.02099419 1.53006101 -0.92395228 -0.97930282 0.68737912
-5.16119289 -12.03544903 0.18935978 -0.95568293 -0.98048043 0.08506978
-4.96710443 -12.04898071 0.63835883 -0.91974413 -0.98158276 0.28678235
-4.99278593 -12.12845898 -0.24227691 -0.92449951 -0.98805755 -0.10884278
-5.09550571 -11.99691772 1.07339239 -0.94351983 -0.97734141 0.48222095
-4.92923975 -12.08882427 1.53514874 -0.91273284 -0.98482865 0.68966478
-5.07144356 -12.03449726 0.18846044 -0.93906432 -0.98040289 0.08466575
-4.91311407 -12.13358307 0.64180815 -0.90974689 -0.98847502 0.28833199
-4.94959450 -12.24111938 -0.24297753 -0.91650188 -0.99723554 -0.10915753
-5.00539970 -11.99380207 1.06987464 -0.92683518 -0.97708762 0.48064062
-4.85762882 -12.13059902 1.53667510 -0.89947289 -0.98823190 0.69035047
-4.98651600 -12.04397106 0.18786088 -0.92333853 -0.98117465 0.08439640
-4.86269903 -12.22910500 0.64597118 -0.90041173 -0.99625677 0.29020220
-4.95872021 -12.04117870 1.07228148 -0.91819167 -0.98094720 0.48172188
-4.84869909 -12.27505302 1.55346465 -0.89781940 -1.00000000 0.69789314
-4.94109011 -12.09508133 0.18861033 -0.91492712 -0.98533839 0.08473309
-4.89795828 -12.10899639 1.07598448 -0.90694058 -0.98647201 0.48338544
-4.89937639 -12.21119213 0.19090866 -0.90720314 -0.99479753 0.08576562
-4.86163092 -12.23941040 1.08598244 -0.90021396 -0.99709636 0.48787704
