-2.02526641 -10.22322369 2.33224964 -0.91952789 -0.98155308 0.99302274
-1.95554399 -10.20700359 2.32560635 -0.88787198 -0.97999579 0.99019420
-1.89312923 -10.22868156 2.32782078 -0.85953391 -0.98207712 0.99113703
-2.09501886 -10.30306625 1.79812455 -0.95119745 -0.98921895 0.76560354
-1.83424973 -10.27110481 2.33490705 -0.83280092 -0.98615026 0.99415421
-2.02082372 -10.26767731 1.78954089 -0.91751081 -0.98582119 0.76194882
-1.77981746 -10.34203148 2.34863663 -0.80808717 -0.99296010 1.00000000
-1.94897902 -10.24144650 1.78267395 -0.88489127 -0.98330271 0.75902504
-1.88635409 -10.26318264 1.78439069 -0.85645777 -0.98538965 0.75975597
-1.84552085 -10.31464195 1.79194427 -0.83791834 -0.99033034 0.76297212
-2.13480783 -10.20391083 0.05341172 -0.96926278 -0.97969884 0.02274158
-2.11093855 -10.29997921 0.78214049 -0.95842546 -0.98892254 0.33301896
-2.19853687 -10.18308449 -0.29245919 -0.99819756 -0.97769922 -0.12452296
-2.06986618 -10.21320152 0.05333834 -0.93977743 -0.98059082 0.02271034
-2.07052422 -10.16314697 2.26091409 -0.94007623 -0.97578502 0.96264958
-2.04387689 -10.30130863 0.78109390 -0.92797756 -0.98905021 0.33257332
-2.13613558 -10.20452976 -0.29257789 -0.96986562 -0.97975826 -0.12457351
-2.00870275 -10.24170876 0.05363186 -0.91200751 -0.98332787 0.02283532
-2.02265191 -10.25639057 2.27906370 -0.91834086 -0.98473752 0.97037733
-2.11474800 -10.24680424 0.41946259 -0.96015507 -0.98381710 0.17859833
-1.97985518 -10.31786251 0.78144276 -0.89890993 -0.99063957 0.33272186
-2.06685996 -10.19226170 -0.29219210 -0.93841255 -0.97858036 -0.12440924
-1.95205545 -10.29540062 0.05440237 -0.88628805 -0.98848295 0.02316338
-1.95225751 -10.23821735 2.27214956 -0.88637978 -0.98299265 0.96743339
-2.05170012 -10.17179108 1.12757230 -0.93152952 -0.97661495 0.48009652
-2.05187440 -10.26772594 0.41988829 -0.93160868 -0.98582584 0.17877959
-1.92037797 -10.35949421 0.78405929 -0.87190557 -0.99463671 0.33383593
-2.00582981 -10.22075176 -0.29242954 -0.91070312 -0.98131579 -0.12451033
-1.89003551 -10.26179981 2.27474236 -0.85812926 -0.98525685 0.96853739
-2.00732565 -10.28584290 1.14017177 -0.91138226 -0.98756528 0.48546112
-1.98581922 -10.27256870 0.41946259 -0.90161777 -0.98629081 0.17859833
-2.06522179 -10.31566715 1.74421239 -0.93766874 -0.99042881 0.74264890
-2.19142103 -10.30783463 -0.00373530 -0.99496675 -0.98967677 -0.00159041
-1.83346570 -10.31767750 2.28468156 -0.83244497 -0.99062181 0.97276926
-1.95846534 -10.29323673 1.13992953 -0.88919830 -0.98827517 0.48535797
-1.94763708 -10.33678627 0.42244232 -0.88428199 -0.99245650 0.17986704
-2.00398993 -10.26143837 1.73321271 -0.90986776 -0.98522216 0.73796546
-2.11778665 -10.19865322 -0.00528789 -0.96153468 -0.97919405 -0.00225147
-1.79995918 -10.41276455 2.30412769 -0.81723207 -0.99975133 0.98104906
-1.89765799 -10.32682514 1.14259481 -0.86159009 -0.99150008 0.48649281
-2.09261441 -10.25481892 0.72455841 -0.95010579 -0.98458660 0.30850172
-2.17200708 -10.06471062 -0.35161090 -0.98615229 -0.96633393 -0.14970851
-1.94206321 -10.28738689 1.73554599 -0.88175130 -0.98771352 0.73895890
-2.04888773 -10.18824100 -0.00559332 -0.93025261 -0.97819436 -0.00238152
-2.02580023 -10.25603676 0.72357243 -0.91977024 -0.98470354 0.30808190
-2.12856841 -10.17206478 -0.35360327 -0.96642989 -0.97664124 -0.15055682
-1.88024700 -10.31490135 1.73821259 -0.85368502 -0.99035525 0.74009430
-1.98907697 -10.22249794 -0.00531334 -0.90309685 -0.98148340 -0.00226231
-2.11311984 -10.31415558 1.08677530 -0.95941579 -0.99028367 0.46272603
-2.11286736 -10.25294304 0.36102283 -0.95930117 -0.98440653 0.15371591
-1.96547544 -10.29009151 0.72538006 -0.89238113 -0.98797321 0.30885154
-2.06300950 -10.17740250 -0.35343724 -0.93666428 -0.97715372 -0.15048613
-1.82333982 -10.37116814 1.74587905 -0.82784754 -0.99575758 0.74335855
-2.03695560 -10.27074051 1.08006918 -0.92483509 -0.98611528 0.45987070
-2.04801011 -10.26405716 0.36092761 -0.92985415 -0.98547363 0.15367538
-1.91064990 -10.35514259 0.72981697 -0.86748874 -0.99421889 0.31074068
-2.00018907 -10.19604778 -0.35356176 -0.90814209 -0.97894388 -0.15053914
-1.96784675 -10.25993252 1.07729411 -0.89345777 -0.98507756 0.45868915
-1.98080242 -10.26299763 0.36026099 -0.89933997 -0.98537189 0.15339154
-2.04588628 -10.11856556 2.17364645 -0.92888987 -0.97150463 0.92549288
-1.92427087 -10.29446888 1.08030033 -0.87367308 -0.98839349 0.45996913
-1.94510472 -10.33894539 0.36349887 -0.88313222 -0.99266380 0.15477017
-2.13844752 -10.17873955 -0.04449732 -0.97091532 -0.97728211 -0.01894602
-2.01617026 -10.22023106 2.19372463 -0.91539800 -0.98126578 0.93404174
-2.10822678 -10.24834919 0.66577220 -0.95719421 -0.98396546 0.28347176
-2.07484579 -10.19393539 -0.04447937 -0.94203830 -0.97874105 -0.01893838
-1.95590520 -10.25383759 2.19832587 -0.88803595 -0.98449242 0.93600082
-2.09197164 -10.36700821 1.40516222 -0.94981396 -0.99535817 0.59828848
-2.05112219 -10.29856586 0.66868371 -0.93126714 -0.98878688 0.28471145
-2.13770509 -10.09757900 -0.39338517 -0.97057819 -0.96948969 -0.16749512
-2.00769305 -10.19106674 -0.04462297 -0.91154909 -0.97846562 -0.01899952
-1.89144027 -10.26592445 2.19832587 -0.85876703 -0.98565286 0.93600082
-2.00726581 -10.27890873 1.39013386 -0.91135514 -0.98689955 0.59188974
-2.12440634 -10.22255325 0.31121451 -0.96454018 -0.98148870 0.13250858
-1.98749447 -10.31712627 0.66914344 -0.90237838 -0.99056888 0.28490719
-2.08695269 -10.17351151 -0.39496896 -0.94753522 -0.97678012 -0.16816947
-2.03885031 -10.25499535 1.65822053 -0.92569536 -0.98460358 0.70603538
-1.95621455 -10.27030087 -0.04401266 -0.88817638 -0.98607308 -0.01873966
-1.83434832 -10.31998348 2.20752835 -0.83284569 -0.99084324 0.93991905
-2.10136127 -10.31330299 1.04502356 -0.95407712 -0.99020177 0.44494903
-1.94591200 -10.30882645 1.39273500 -0.88349873 -0.98977202 0.59299725
-2.06521034 -10.26117516 0.31233203 -0.93766356 -0.98519689 0.13298440
-1.92877007 -10.36275005 0.67174852 -0.87571585 -0.99494934 0.28601637
-2.02376103 -10.19034672 -0.39506793 -0.91884440 -0.97839653 -0.16821161
-1.97179306 -10.25402641 1.65598392 -0.89524949 -0.98451054 0.70508307
-2.03118896 -10.29899311 1.04189420 -0.92221689 -0.98882788 0.44361660
-1.88250601 -10.32863903 1.39389098 -0.85471064 -0.99167424 0.59348941
-1.99767208 -10.25825214 0.31164435 -0.90699929 -0.98491627 0.13269159
-1.97089231 -10.26178837 -0.39655274 -0.89484054 -0.98525578 -0.16884381
-1.90696979 -10.26427078 1.65566432 -0.86581790 -0.98549414 0.70494699
-2.18704486 -10.23475266 -0.11382854 -0.99297982 -0.98266000 -0.04846580
-1.97966087 -10.29283142 1.04010606 -0.89882171 -0.98823631 0.44285524
-1.95705557 -10.30879211 0.31344959 -0.88855827 -0.98976868 0.13346024
-1.86205649 -10.29257774 1.65885961 -0.84542602 -0.98821193 0.70630747
-2.12311482 -10.17057896 -0.11400295 -0.96395379 -0.97649854 -0.04854006
-1.92034018 -10.33438683 1.04345894 -0.87188846 -0.99222612 0.44428283
-2.11594820 -10.30202198 0.60465604 -0.96069998 -0.98911870 0.25744981
-2.20250678 -10.14898777 -0.46212339 -1.00000000 -0.97442555 -0.19676241
-2.06157112 -10.19547558 -0.11397541 -0.93601125 -0.97888893 -0.04852833
-2.07899308 -10.31985664 1.34482336 -0.94392133 -0.99083102 0.57259744
-2.04567695 -10.28773022 0.60268325 -0.92879486 -0.98774648 0.25660983
-2.13620281 -10.15089417 -0.46174896 -0.96989614 -0.97460860 -0.19660299
-1.99747062 -10.20822716 -0.11397541 -0.90690780 -0.98011327 -0.04852833
-2.03134084 -10.08787251 2.07389688 -0.92228585 -0.96855778 0.88302159
-2.00416183 -10.28219509 1.33756471 -0.90994585 -0.98721504 0.56950688
-2.12300682 -10.25094223 0.24526140 -0.96390480 -0.98421443 0.10442714
-1.97795260 -10.28471279 0.60155594 -0.89804608 -0.98745680 0.25612986
-2.07117128 -10.15824223 -0.46156174 -0.94036996 -0.97531408 -0.19652326
-1.99365497 -10.23116016 2.10119152 -0.90517539 -0.98231512 0.89464307
-2.09367776 -10.30936050 0.97244060 -0.95058858 -0.98982328 0.41404471
-1.94322205 -10.31403828 1.34035647 -0.88227743 -0.99027240 0.57069552
-2.05458856 -10.24448967 0.24452978 -0.93284094 -0.98359489 0.10411563
-1.92507792 -10.35968208 0.60606515 -0.87403947 -0.99465477 0.25804979
-2.01629543 -10.21614456 -0.46299708 -0.91545480 -0.98087341 -0.19713441
-1.93372869 -10.26658154 2.10600805 -0.87796718 -0.98571599 0.89669389
-2.02421284 -10.29890156 0.96991980 -0.91904956 -0.98881906 0.41297141
-1.88160300 -10.34357452 1.34286916 -0.85430068 -0.99310821 0.57176542
-1.99171841 -10.26504230 0.24482243 -0.90429616 -0.98556817 0.10424023
-2.10288143 -10.32673740 1.57551265 -0.95476729 -0.99149168 0.67082012
-1.87201858 -10.29394531 2.10921931 -0.84994906 -0.98834324 0.89806116
-1.97187650 -10.28880024 0.96781921 -0.89528739 -0.98784924 0.41207704
-1.95383120 -10.32928085 0.24687095 -0.88709432 -0.99173588 0.10511245
-2.04485607 -10.29001045 1.56826627 -0.92842215 -0.98796540 0.66773474
-1.83557177 -10.37015533 2.12326789 -0.83340120 -0.99566031 0.90404272
-2.17600131 -10.20418644 -0.17253891 -0.98796576 -0.97972530 -0.07346343
-1.91450930 -10.34008598 0.97202045 -0.86924106 -0.99277329 0.41386583
-2.14092517 -10.30497742 0.54896605 -0.97204024 -0.98940247 0.23373818
-1.97375429 -10.26966095 1.56313336 -0.89613992 -0.98601162 0.66554928
-2.10262108 -10.17259121 -0.17238595 -0.95464909 -0.97669178 -0.07339831
-2.12003493 -10.41535473 1.29918647 -0.96255547 -1.00000000 0.55316621
-2.07106662 -10.29278088 0.54727232 -0.94032246 -0.98823142 0.23301703
-1.91137791 -10.29351902 1.56494498 -0.86781931 -0.98830229 0.66632062
-2.04527116 -10.21895313 -0.17249900 -0.92861062 -0.98114306 -0.07344644
-2.02875400 -10.29619026 1.28094935 -0.92111135 -0.98855877 0.54540128
-2.15692043 -10.27110386 0.19550109 -0.97930253 -0.98615015 0.08324025
-2.00257874 -10.28599358 0.54596943 -0.90922707 -0.98757976 0.23246229
-1.85124707 -10.33061504 1.56887007 -0.84051824 -0.99186397 0.66799182
-1.98328173 -10.24338818 -0.17253891 -0.90046567 -0.98348916 -0.07346343
-2.11853886 -10.32233906 0.92236227 -0.96187621 -0.99106938 0.39272243
-1.96842730 -10.33210564 1.28416777 -0.89372134 -0.99200708 0.54677159
-2.07852745 -10.21586609 0.19327839 -0.94370991 -0.98084670 0.08229387
-1.94521630 -10.33761406 0.54857516 -0.88318288 -0.99253595 0.23357175
-2.04864764 -10.31006336 0.91975778 -0.93014365 -0.98989075 0.39161348
-1.90311551 -10.34231949 1.28389955 -0.86406797 -0.99298775 0.54665738
-2.01162195 -10.21498966 0.19283386 -0.91333294 -0.98076254 0.08210459
-1.99854064 -10.31178570 0.91895640 -0.90739363 -0.99005610 0.39127228
-1.96831369 -10.24988556 0.19365942 -0.89366978 -0.98411298 0.08245610
-2.05537605 -10.12135792 1.98297036 -0.93319851 -0.97177273 0.84430701
-2.14106464 -10.07093811 -0.21982518 -0.97210354 -0.96693182 -0.09359693
-1.93878663 -10.35153198 0.92176127 -0.88026363 -0.99387223 0.39246655
-2.12433457 -10.27179813 0.48682466 -0.96450764 -0.98621684 0.20727968
-2.01085401 -10.23233986 2.00252247 -0.91298425 -0.98242837 0.85263187
-2.09811807 -10.18209171 -0.22062133 -0.95260459 -0.97760391 -0.09393591
-2.10806179 -10.39966488 1.22174454 -0.95711935 -0.99849361 0.52019310
-2.05658674 -10.26928902 0.48587310 -0.93374819 -0.98597592 0.20687453
-1.94761097 -10.25055885 2.00367260 -0.88427013 -0.98417759 0.85312158
-2.03568172 -10.20291519 -0.22068503 -0.92425674 -0.97960323 -0.09396304
-2.02378273 -10.31735516 1.20927966 -0.91885424 -0.99059087 0.51488578
-2.13176060 -10.23050594 0.12325804 -0.96787924 -0.98225230 0.05248068
-1.98933792 -10.26829243 0.48504052 -0.90321535 -0.98588026 0.20652004
-1.88597095 -10.27804470 2.00673938 -0.85628384 -0.98681659 0.85442734
-1.97957432 -10.25672626 -0.22101942 -0.89878237 -0.98476976 -0.09410542
-2.10626006 -10.29178810 0.83825397 -0.95630127 -0.98813611 0.35691088
-1.96190441 -10.34545326 1.21131468 -0.89075977 -0.99328864 0.51575226
-2.06703949 -10.24173927 0.12320808 -0.93849403 -0.98333085 0.05245940
-1.93257713 -10.32178402 0.48753831 -0.87744433 -0.99101609 0.20758355
-1.83150637 -10.34769821 2.01824069 -0.83155537 -0.99350417 0.85932440
-2.03022075 -10.24819088 0.83288467 -0.92177731 -0.98395026 0.35462475
-1.89614153 -10.35367489 1.21080601 -0.86090153 -0.99407798 0.51553571
-1.99722970 -10.22706318 0.12250859 -0.90679842 -0.98192173 0.05216157
-1.98266816 -10.26155376 0.83325493 -0.90018708 -0.98523325 0.35478240
-1.96261454 -10.30704212 0.12430727 -0.89108217 -0.98960066 0.05292742
-1.92295504 -10.29924774 0.83566189 -0.87307566 -0.98885232 0.35580721
-2.14455891 -10.29394436 1.92279482 -0.97369003 -0.98834312 0.81868553
-2.03586197 -10.09143257 1.88181067 -0.92433858 -0.96889955 0.80123532
-1.99753094 -10.23134327 1.90596199 -0.90693521 -0.98233265 0.81151849
-1.93578529 -10.25721264 1.90852356 -0.87890095 -0.98481643 0.81260914
-1.88706875 -10.26428699 1.90815759 -0.85678226 -0.98549569 0.81245333
