10.83064938 5.65811205 0.93145633 0.92856753 0.89393377 0.56315482
10.94307709 5.58627653 1.36066198 0.93820655 0.88258433 0.82265091
10.80367756 5.73073339 0.93232846 0.92625511 0.90540731 0.56368214
10.83908367 5.61917400 1.35121238 0.92929065 0.88778186 0.81693769
10.80776787 5.82029581 0.93634045 0.92660582 0.91955739 0.56610775
11.14908695 6.03663874 0.09476243 0.95586884 0.95373774 0.05729299
10.79478741 5.68252802 1.35000098 0.92549294 0.89779127 0.81620532
10.90388584 5.76499128 0.51917672 0.93484646 0.91081977 0.31389222
11.07767105 6.08821821 0.09406530 0.94974601 0.96188688 0.05687151
10.85689926 5.82770300 0.51853818 0.93081808 0.92072767 0.31350616
11.45463753 6.20104265 -0.33115762 0.98206526 0.97971219 -0.20021661
11.05839252 6.16844654 0.09446891 0.94809312 0.97456229 0.05711553
10.85335922 5.91401482 0.52056015 0.93051457 0.93436420 0.31472862
11.43471146 6.28351498 -0.33148408 0.98035693 0.99274212 -0.20041397
10.87430286 5.99216270 0.52353984 0.93231016 0.94671094 0.31653014
10.82953453 5.66166449 0.86916947 0.92847198 0.89449501 0.52549648
10.89109898 5.59634972 1.28657341 0.93375021 0.88417584 0.77785724
10.76379108 5.71375895 0.86637586 0.92283541 0.90272546 0.52380747
10.79755020 5.63443851 1.27894223 0.92572981 0.89019352 0.77324349
10.79265881 5.81615543 0.87245607 0.92531043 0.91890323 0.52748352
11.17730427 6.06342983 0.02398225 0.95828807 0.95797050 0.01449958
10.76369190 5.70309687 1.27917349 0.92282695 0.90104097 0.77338326
11.14599991 6.13738632 0.02408406 0.95560420 0.96965504 0.01456113
10.92393589 5.85945177 0.45292121 0.93656546 0.92574370 0.27383438
11.53862381 6.23572445 -0.41013676 0.98926586 0.98519158 -0.24796708
11.14565754 6.22869873 0.02464401 0.95557481 0.98408163 0.01489967
10.89744091 5.93368721 0.45349261 0.93429393 0.93747228 0.27417985
11.48868847 6.30234623 -0.40988770 0.98498464 0.99571729 -0.24781650
10.84467316 5.62043190 1.64445961 0.92976987 0.88798058 0.99423385
10.87986755 5.99073839 0.45406398 0.93278730 0.94648588 0.27452531
10.90209103 5.68548632 0.80659819 0.93469262 0.89825863 0.48766610
10.86688709 5.71896982 1.65399683 0.93167442 0.90354878 1.00000000
10.83798122 5.73889589 0.80414641 0.92919612 0.90669692 0.48618376
10.89045143 5.61835909 1.23949051 0.93369466 0.88765311 0.74939108
10.82627678 5.82013941 0.80629176 0.92819268 0.91953272 0.48748085
11.21599388 6.06090784 -0.02342364 0.96160513 0.95757204 -0.01416184
10.80392456 5.65984297 1.23300827 0.92627627 0.89420724 0.74547195
11.14966106 6.11582613 -0.02371085 0.95591807 0.96624869 -0.01433549
10.79970646 5.74446630 1.23703170 0.92591465 0.90757698 0.74790454
11.02897072 5.55991602 1.60195076 0.94557065 0.87841958 0.96853316
10.99259853 5.88141060 0.39838198 0.94245231 0.92921305 0.24086018
11.59796524 6.24515867 -0.46396264 0.99435347 0.98668212 -0.28051001
10.91083336 5.56518745 1.58743322 0.93544215 0.87925243 0.95975590
10.90857506 5.90262508 0.39563113 0.93524849 0.93256474 0.23919703
11.52630043 6.27672958 -0.46277481 0.98820931 0.99167007 -0.27979183
10.87565041 5.63363218 1.58743322 0.93242574 0.89006615 0.95975590
10.89926910 5.98648548 0.39700654 0.93445069 0.94581395 0.24002860
10.89214993 5.67672110 0.72936469 0.93384033 0.89687383 0.44097105
10.86459923 5.71472073 1.59134185 0.93147826 0.90287745 0.96211904
10.82096958 5.72644186 0.72654641 0.92773765 0.90472931 0.43926710
10.88979530 5.61932516 1.15561521 0.93363845 0.88780576 0.69868040
10.80236626 5.80373144 0.72795558 0.92614269 0.91694039 0.44011909
11.32259178 6.12648487 -0.10830258 0.97074431 0.96793270 -0.06547932
10.80490303 5.66187048 1.14973342 0.92636019 0.89452755 0.69512433
10.82879734 5.90577364 0.73302847 0.92840874 0.93306220 0.44318613
11.26106548 6.18502522 -0.10836224 0.96546936 0.97718155 -0.06551538
10.79196167 5.74175406 1.15246427 0.92525065 0.90714848 0.69677538
11.66382504 6.28595018 -0.55155206 1.00000000 0.99312687 -0.33346620
11.30765629 6.30323887 -0.10813735 0.96946383 0.99585831 -0.06537942
10.95270157 5.58779526 1.52473652 0.93903172 0.88282430 0.92184973
10.92350388 5.93386269 0.31710577 0.93652844 0.93750000 0.19172090
11.56968784 6.32945347 -0.54961747 0.99192911 1.00000000 -0.33229658
10.90689182 5.62931538 1.52178645 0.93510419 0.88938409 0.92006612
10.92522717 6.00158262 0.31834951 0.93667620 0.94819921 0.19247286
10.93425465 5.67492819 0.66609573 0.93745017 0.89659053 0.40271887
10.85201359 5.68758154 1.51883638 0.93039918 0.89858967 0.91828251
10.83487701 5.70991611 0.66140532 0.92892998 0.90211833 0.39988306
10.95373821 5.63132906 1.10147119 0.93912059 0.88970226 0.66594517
10.83043385 5.79488039 0.66375053 0.92854905 0.91554201 0.40130097
11.41456318 6.12401199 -0.18091808 0.97862947 0.96754199 -0.10938236
10.85821438 5.66863060 1.09465945 0.93093085 0.89559561 0.66182679
10.81834030 5.87619209 0.66557461 0.92751223 0.92838854 0.40240380
11.29689026 6.15244007 -0.18061882 0.96854079 0.97203338 -0.10920143
10.80481720 5.72739363 1.09265602 0.92635280 0.90487963 0.66061556
11.32446575 6.26017189 -0.18087153 0.97090495 0.98905408 -0.10935422
10.92070675 5.57551050 1.43339419 0.93628865 0.88088340 0.86662453
11.06196022 5.97834539 0.26154664 0.94839901 0.94452792 0.15813008
10.86079407 5.60967016 1.42856085 0.93115199 0.88628036 0.86370230
10.98284149 6.00252247 0.25970501 0.94161576 0.94834769 0.15701663
10.82533360 5.67779922 1.42856085 0.92811179 0.89704418 0.86370230
11.00254345 6.10350418 0.26180068 0.94330490 0.96430194 0.15828367
10.74685669 5.66858912 0.58578575 0.92138356 0.89558905 0.35416377
10.95977211 5.63437366 1.00729442 0.93963790 0.89018327 0.60900629
10.78325176 5.77452326 0.59066242 0.92450392 0.91232574 0.35711220
11.38587475 6.10626125 -0.24071643 0.97616988 0.96473753 -0.14553621
10.74216938 5.60849857 0.98822415 0.92098171 0.88609523 0.59747642
10.80644798 5.87448311 0.59470648 0.92649263 0.92811853 0.35955721
11.34200954 6.17481947 -0.24066867 0.97240907 0.97556913 -0.14550734
10.78068161 5.71493340 0.99600041 0.92428356 0.90291101 0.60217792
11.40460300 6.30190372 -0.24159221 0.97777557 0.99564737 -0.14606571
11.11766720 6.02138281 0.17806803 0.95317507 0.95132744 0.10765923
11.03827000 6.04593515 0.17661908 0.94636792 0.95520651 0.10678320
11.07352543 6.15585423 0.17871755 0.94939059 0.97257280 0.10805193
