5.54383945 5.10594988 2.10617328 0.97311532 0.86647230 0.84937781
5.45428038 5.25289106 1.68518746 0.95739496 0.89140803 0.67960262
5.46771574 5.08340693 2.08595204 0.95975327 0.86264676 0.84122300
5.69700146 4.99934483 2.47966599 1.00000000 0.84838158 1.00000000
5.38483477 5.23491049 1.67101502 0.94520509 0.88835675 0.67388713
5.43427086 5.11633873 2.08540535 0.95388263 0.86823529 0.84100252
5.59009838 4.96841097 2.44628358 0.98123521 0.84313214 0.98653752
5.34906435 5.26589680 1.67012918 0.93892628 0.89361507 0.67352992
5.38257360 5.13174295 2.07775402 0.94480819 0.87084937 0.83791691
5.53048420 4.97811460 2.43368626 0.97077107 0.84477884 0.98145729
5.31311750 5.29664040 1.66924345 0.93261647 0.89883220 0.67317271
5.36540842 5.18020153 2.08376575 0.94179517 0.87907267 0.84034133
5.26604509 5.31602526 1.66481447 0.92435384 0.90212178 0.67138660
5.32589483 5.20706749 2.08103323 0.93485934 0.88363183 0.83923936
5.48287344 5.06133938 2.44061470 0.96241391 0.85890198 0.98425138
5.25022030 5.36718035 1.67057204 0.92157608 0.91080272 0.67370850
5.32715940 5.27436066 2.09469628 0.93508130 0.89505136 0.84474939
5.44818401 5.09310389 2.43935513 0.95632482 0.86429232 0.98374343
5.22179890 5.40568829 1.67234361 0.91658723 0.91733748 0.67442292
5.31445932 5.31167889 2.09961510 0.93285203 0.90138423 0.84673303
5.41720247 5.11222601 2.43620563 0.95088661 0.86753732 0.98247331
5.19088888 5.42458391 1.67057204 0.91116160 0.92054403 0.67370850
5.37947083 5.14093113 2.43368626 0.94426358 0.87240857 0.98145729
5.34174347 5.38921785 1.28825438 0.93764120 0.91454244 0.51952738
5.54799747 5.12497950 2.05059266 0.97384518 0.86970156 0.82696325
5.28990889 5.40432167 1.28379083 0.92854267 0.91710556 0.51772732
5.45955515 5.26598692 1.64425623 0.95832086 0.89363033 0.66309583
5.47616720 5.12296677 2.03568840 0.96123677 0.86936003 0.82095265
5.23536539 5.41614676 1.27864063 0.91896862 0.91911227 0.51565033
5.28209829 5.16003180 1.59974623 0.92717165 0.87564993 0.64514583
5.44106483 5.15462923 2.03462386 0.95507520 0.87473309 0.82052338
5.20530128 5.45322132 1.27967072 0.91369140 0.92540377 0.51606578
5.34283876 5.28487396 1.62869930 0.93783349 0.89683545 0.65682203
5.40717506 5.18738365 2.03409147 0.94912648 0.88029146 0.82030863
5.16284943 5.47719479 1.27761066 0.90623981 0.92947203 0.51523501
5.29154348 5.30042315 1.62308156 0.92882961 0.89947414 0.65455651
5.37711620 5.20745707 2.03196239 0.94385022 0.88369793 0.81945002
5.51050997 4.91536713 2.35667920 0.96726495 0.83413070 0.95040184
5.16916084 5.53611279 1.28585100 0.90734762 0.93947029 0.51855814
5.26926088 5.32806921 1.62394583 0.92491829 0.90416563 0.65490508
5.34705114 5.24383163 2.03302693 0.93857288 0.88987064 0.81987935
5.52458525 4.99083138 2.37640142 0.96973562 0.84693682 0.95835543
5.15558195 5.59171629 1.29134452 0.90496415 0.94890612 0.52077359
5.24799299 5.37361145 1.62783504 0.92118514 0.91189408 0.65647352
5.33320045 5.29629087 2.04047918 0.93614167 0.89877290 0.82288468
5.49311781 5.02544451 2.37640142 0.96421212 0.85281062 0.95835543
5.21684504 5.40928316 1.62869930 0.91571772 0.91794753 0.65682203
5.31617451 5.34605598 2.04686666 0.93315309 0.90721798 0.82546061
5.44055128 5.04040575 2.36715674 0.95498508 0.85534954 0.95462728
5.36801147 5.39642620 1.25255895 0.94225210 0.91576570 0.50513214
5.19626045 5.45605898 1.63302064 0.91210449 0.92588532 0.65856475
5.41292620 5.07840729 2.36900568 0.95013601 0.86179835 0.95537287
5.29935646 5.39496994 1.24422586 0.93020099 0.91551858 0.50177157
5.31937838 5.52118301 0.79683703 0.93371546 0.93693674 0.32134855
5.17788649 5.54582596 0.52589649 0.90887928 0.94111866 0.21208359
5.38228655 5.11363125 2.36962199 0.94475782 0.86777580 0.95562142
5.25984716 5.42251253 1.24289250 0.92326587 0.92019254 0.50123382
5.22863483 5.49537754 0.78690284 0.91778719 0.93255758 0.31734228
5.19949532 5.63992405 0.53322273 0.91267228 0.95708692 0.21503814
5.36919594 5.16586876 2.37825036 0.94246000 0.87664044 0.95910108
5.22020102 5.44977236 1.24155927 0.91630679 0.92481846 0.50069618
5.21354246 5.53154230 0.78884119 0.91513801 0.93869472 0.31812397
5.15142584 5.64076710 0.53043175 0.90423459 0.95723003 0.21391258
5.54815006 5.15044498 1.99391627 0.97387195 0.87402302 0.80410677
5.38426876 5.22966433 2.39612389 0.94510573 0.88746643 0.96630913
5.20262957 5.48287249 1.24355912 0.91322243 0.93043554 0.50150269
5.21557903 5.73683453 0.00439259 0.91549546 0.97353250 0.00177145
5.44975519 5.30689287 1.59263277 0.95660061 0.90057200 0.64227712
5.17194080 5.55690622 0.78762972 0.90783560 0.94299895 0.31763542
5.11588240 5.67302275 0.53043175 0.89799565 0.96270376 0.21391258
5.40616941 5.08169889 1.95353711 0.94894999 0.86235696 0.78782266
5.17348576 5.52119446 1.24489248 0.90810680 0.93693870 0.50204039
5.03558254 5.60840750 0.00042997 0.88390052 0.95173860 0.00017340
5.35796976 5.28319788 1.57506442 0.94048947 0.89655101 0.63519216
5.12888718 5.58050108 0.78617597 0.90027839 0.94700295 0.31704915
5.20061827 5.67925882 0.27228585 0.91286939 0.96376199 0.10980747
5.09334707 5.71996975 0.53217608 0.89403999 0.97067058 0.21461603
5.43135357 5.17033291 1.97476208 0.95337057 0.87739801 0.79638231
5.58577585 5.00834322 2.32204485 0.98047644 0.84990859 0.93643451
5.23012543 5.75161314 -0.25322658 0.91804880 0.97604042 -0.10212124
5.16421413 5.58102465 1.25122559 0.90647936 0.94709182 0.50459439
5.08356428 5.73442698 0.00274150 0.89232278 0.97312397 0.00110559
5.32328892 5.31537294 1.57464612 0.93440187 0.90201110 0.63502347
5.11101580 5.63177443 0.78932577 0.89714140 0.95570397 0.31831938
5.14479828 5.68954945 0.27068958 0.90307128 0.96550828 0.10916372
5.07566977 5.77285528 0.53461820 0.89093709 0.97964519 0.21560089
5.28787947 5.61846495 0.49778190 0.92818642 0.95344537 0.20074555
5.38488865 5.19091177 1.96958530 0.94521457 0.88089019 0.79429460
5.54570103 5.03566790 2.31844783 0.97344208 0.85454553 0.93498391
5.14059687 5.72470331 -0.25203952 0.90233380 0.97147387 -0.10164253
5.05531216 5.77530336 0.00296165 0.88736367 0.98006064 0.00119437
5.27470016 5.33337784 1.57004488 0.92587304 0.90506649 0.63316786
5.10327005 5.69489861 0.79441404 0.89578176 0.96641606 0.32037139
5.23515177 5.48492241 0.74383479 0.91893107 0.93078339 0.29997379
5.10099125 5.71280336 0.27005106 0.89538175 0.96945447 0.10890622
5.22797966 5.62536240 0.49482393 0.91767216 0.95461583 0.19955266
5.35078812 5.22328997 1.96906757 0.93922883 0.88638473 0.79408580
5.49142408 5.04980946 2.30885601 0.96391481 0.85694534 0.93111575
5.10717201 5.75988913 -0.25209886 0.89646667 0.97744483 -0.10166646
5.03065729 5.82060003 0.00329186 0.88303596 0.98774737 0.00132754
5.25198698 5.37763739 1.57339120 0.92188621 0.91257727 0.63451737
5.23935795 5.54120827 0.74892223 0.91966939 0.94033504 0.30202544
5.08588648 5.75027323 0.27100885 0.89273041 0.97581303 0.10929248
5.17568874 5.62214184 0.49170166 0.90849352 0.95406932 0.19829351
5.33434868 5.25660515 1.97217369 0.93634319 0.89203829 0.79533845
5.46896839 5.07692528 2.30945539 0.95997316 0.86154687 0.93135744
5.08260393 5.78690386 -0.25215822 0.89215422 0.98202920 -0.10169040
5.01872969 5.86251163 0.00373216 0.88094234 0.99485976 0.00150510
5.22658730 5.40232706 1.57339120 0.91742778 0.91676706 0.63451737
5.17724562 5.54505014 0.74429727 0.90876675 0.94098699 0.30016029
5.06930208 5.80473089 0.27260512 0.88981932 0.98505443 0.10993622
5.13488293 5.64866495 0.49104434 0.90133083 0.95857024 0.19802842
5.32849026 5.31738329 1.98252726 0.93531489 0.90235221 0.79951382
5.41605520 5.09164095 2.30046296 0.95068526 0.86404407 0.92773098
5.05789948 5.83235264 -0.25242531 0.88781786 0.98974180 -0.10179811
5.39573240 5.80162191 -0.30234128 0.94711798 0.98452681 -0.12192823
5.15834856 5.70658588 -0.03995392 0.90544975 0.96839935 -0.01611262
5.20062399 5.44356632 1.57590091 0.91287041 0.92376530 0.63552952
5.13555050 5.57018518 0.74314106 0.90144801 0.94525236 0.29969400
5.36156607 5.49416304 0.98176771 0.94112068 0.93235153 0.39592740
5.06393528 5.87285042 0.27515915 0.88887727 0.99661422 0.11096621
5.10997343 5.69265509 0.49235898 0.89695841 0.96603531 0.19855858
5.31394720 5.37003374 1.98977482 0.93276215 0.91128695 0.80243665
5.41028166 5.15049505 2.31185341 0.94967180 0.87403154 0.93232453
5.26694393 5.73550034 -0.29951876 0.92451161 0.97330612 -0.12078996
4.91784430 5.89280224 0.00296165 0.86323380 1.00000000 0.00119437
5.10102129 5.71506929 -0.04036116 0.89538705 0.96983898 -0.01627685
5.33822489 5.43293858 1.19873798 0.93702364 0.92196178 0.48342720
5.18237782 5.49324989 1.58092058 0.90966761 0.93219656 0.63755381
5.11252308 5.61553144 0.74522227 0.89740598 0.95294756 0.30053332
5.29955006 5.49916935 0.97598761 0.93023497 0.93320107 0.39359641
5.20374680 5.70191860 0.22998433 0.91341853 0.96760732 0.09274811
5.09532213 5.74845886 0.49498826 0.89438665 0.97550511 0.19961892
5.37919092 5.18570757 2.31245303 0.94421440 0.88000709 0.93256634
5.17018557 5.70198202 -0.29765090 0.90752751 0.96761811 -0.12003669
5.06235981 5.74401331 -0.04041206 0.88860077 0.97475076 -0.01629738
5.28478861 5.44648409 1.19426465 0.92764390 0.92426044 0.48162320
5.10910892 5.68291426 0.75077218 0.89680666 0.96438229 0.30277151
5.24040508 5.50648880 0.97078544 0.91985321 0.93444318 0.39149848
5.13026237 5.69304800 0.22731784 0.90051973 0.96610200 0.09167276
5.08148718 5.80579948 0.49778190 0.89195818 0.98523575 0.20074555
5.37661886 5.24864435 2.32564187 0.94376296 0.89068735 0.93788511
5.11151552 5.70908928 -0.29694527 0.89722914 0.96882415 -0.11975212
5.05513906 5.80881929 -0.03985211 0.88733327 0.98574823 -0.01607157
5.24229050 5.47100639 1.19234741 0.92018414 0.92842185 0.48085001
5.39561033 5.29408026 1.51435733 0.94709653 0.89839774 0.61071020
5.21246052 5.54653502 0.97223049 0.91494805 0.94123894 0.39208123
5.09305859 5.72368097 0.22722261 0.89398932 0.97130036 0.09163436
5.46620607 5.15523911 1.90920734 0.95948827 0.87483662 0.76994538
5.28388071 5.65169334 0.45629546 0.92748451 0.95908415 0.18401489
5.08749914 5.75454378 -0.29731885 0.89301348 0.97653776 -0.11990278
5.03161526 5.85560036 -0.03959759 0.88320416 0.99368691 -0.01596892
5.19834042 5.49377251 1.19011068 0.91246957 0.93228525 0.47994798
5.34691095 5.31272745 1.50994205 0.93854827 0.90156215 0.60892963
5.30604649 5.53739738 0.72381788 0.93137532 0.93968832 0.29190135
5.17685318 5.56087160 0.97020745 0.90869790 0.94367182 0.39126539
5.06867981 5.75060797 0.22741307 0.88971013 0.97586983 0.09171117
5.43341637 5.17295313 1.90620184 0.95373267 0.87784266 0.76873332
5.22341108 5.63986492 0.45246449 0.91687024 0.95707691 0.18246993
5.06296778 5.78145599 -0.29740188 0.88870746 0.98110473 -0.11993627
4.98836327 5.86101246 -0.03990301 0.87561208 0.99460530 -0.01609209
5.17643309 5.52254009 1.19106936 0.90862417 0.93716705 0.48033461
5.31210661 5.32817888 1.50713229 0.93243903 0.90418422 0.60779649
5.27114916 5.57062674 0.72381788 0.92524976 0.94532728 0.29190135
5.16184282 5.61519670 0.97454256 0.90606308 0.95289075 0.39301363
5.04823399 5.80038309 0.22855584 0.88612121 0.98431659 0.09217203
5.38403606 5.19090843 1.90019071 0.94506490 0.88088965 0.76630914
5.17176914 5.65487194 0.45062563 0.90780550 0.95962358 0.18172836
5.06196260 5.85389805 -0.29852256 0.88853103 0.99339801 -0.12038822
5.42256737 5.78914976 -0.33424065 0.95182830 0.98241031 -0.13479261
5.15767813 5.57238531 1.19490373 0.90533209 0.94562572 0.48188093
5.27852392 5.36145020 1.50713229 0.92654425 0.90983033 0.60779649
5.18868732 5.55268431 0.71599454 0.91077513 0.94228250 0.28874636
5.13574362 5.65780020 0.97656560 0.90148187 0.96012050 0.39382949
5.29692411 5.44743538 0.93191200 0.92977405 0.92442191 0.37582159
5.34992552 5.22328568 1.89968979 0.93907744 0.88638401 0.76610714
5.12414312 5.67390394 0.44924650 0.89944565 0.96285325 0.18117218
5.59527206 5.04709768 2.25292587 0.98214334 0.85648519 0.90856022
5.35088587 5.78485346 -0.33295381 0.93924600 0.98168123 -0.13427365
5.16107798 5.64704752 1.20416999 0.90592885 0.95829576 0.48561782
5.14541721 5.72177172 -0.06878411 0.90317988 0.97097635 -0.02773926
5.24884176 5.39871359 1.50833642 0.92133409 0.91615385 0.60828209
5.16713524 5.59981871 0.71822977 0.90699208 0.95028114 0.28964779
5.27497196 5.49343252 0.93442464 0.92592078 0.93222755 0.37683487
5.32804585 5.26765776 1.90369725 0.93523687 0.89391387 0.76772326
5.10294771 5.72239780 0.45093212 0.89572519 0.97108263 0.18185195
5.52962303 5.05108547 2.23898005 0.97061992 0.85716188 0.90293616
5.24720335 5.74437237 -0.33047915 0.92104650 0.97481167 -0.13327567
5.63510704 5.76604939 -0.38960692 0.98913562 0.97849023 -0.15712072
5.10804081 5.75248909 -0.06880206 0.89661920 0.97618908 -0.02774650
5.20937395 5.42594767 1.50673091 0.91440630 0.92077547 0.60763460
5.13318348 5.63364649 0.71845329 0.90103251 0.95602167 0.28973794
5.19115734 5.47486401 0.92437404 0.91120869 0.92907649 0.37278166
5.08756495 5.61038685 0.18785623 0.89302504 0.95207453 0.07575868
5.30581999 5.31196022 1.90770459 0.93133557 0.90143198 0.76933932
5.08397245 5.77384901 0.45292419 0.89239442 0.97981381 0.18265532
5.43752146 5.02968502 2.21399379 0.95445323 0.85353029 0.89285970
5.15092039 5.71026087 -0.32825196 0.90414590 0.96902299 -0.13237749
5.35254335 5.41313457 1.12865222 0.93953693 0.91860110 0.45516300
5.06259489 5.77391958 -0.06892771 0.88864201 0.97982579 -0.02779718
5.20221663 5.48693562 1.51475871 0.91314995 0.93112504 0.61087209
5.10696268 5.67615509 0.72001797 0.89642996 0.96323532 0.29036894
5.16344309 5.51458263 0.92576998 0.90634400 0.93581671 0.37334463
5.11467314 5.71237421 0.19189653 0.89778334 0.96938163 0.07738806
5.30233479 5.37543869 1.91872478 0.93072379 0.91220415 0.77378356
5.07889986 5.84187841 0.45660192 0.89150405 0.99135828 0.18413848
5.27229452 5.65843916 0.40808138 0.92545080 0.96022892 0.16457111
5.48521757 5.13854218 2.24711514 0.96282536 0.87200314 0.90621686
5.09770346 5.72305775 -0.32760856 0.89480466 0.97119462 -0.13211802
5.49306726 5.76422405 -0.38648659 0.96420324 0.97818047 -0.15586236
5.22147417 5.34789848 1.10751700 0.91653025 0.90753061 0.44663960
5.02491140 5.80409908 -0.06894566 0.88202739 0.98494720 -0.02780441
5.18912601 5.54234028 1.52118099 0.91085213 0.94052714 0.61346203
5.08699036 5.72600222 0.72270030 0.89292419 0.97169429 0.29145065
5.28198862 5.55274153 0.67079061 0.92715240 0.94229221 0.27051651
5.14487267 5.56432247 0.92912018 0.90308434 0.94425744 0.37469569
5.09451485 5.76240349 0.19292809 0.89424497 0.97787154 0.07780407
5.21360826 5.66655588 0.40568584 0.91514957 0.96160632 0.16360503
5.44589901 5.16630077 2.24420977 0.95592374 0.87671375 0.90504521
5.05901146 5.75196457 -0.32750955 0.88801301 0.97610003 -0.13207810
5.41003656 5.74924612 -0.38436475 0.94962877 0.97563875 -0.15500666
5.26070452 5.45583534 1.12351942 0.92341638 0.92584735 0.45309305
5.02073097 5.87364769 -0.06849691 0.88129359 0.99674952 -0.02762344
5.24071693 5.56168747 0.66847992 0.91990793 0.94381028 0.26958466
5.13335133 5.60453033 0.93219119 0.90106195 0.95108068 0.37593418
5.06336641 5.78182650 0.19267021 0.88877743 0.98116755 0.07770006
5.13967562 5.63957834 0.40075386 0.90217209 0.95702827 0.16161606
5.37875748 5.15075827 2.22619653 0.94413835 0.87407619 0.89778078
5.04232454 5.78782845 -0.32790551 0.88508397 0.98218608 -0.13223778
5.38698435 5.77905273 -0.38455197 0.94558239 0.98069686 -0.15508217
5.22261143 5.46773100 1.12080204 0.91672987 0.92786604 0.45199719
5.16665554 5.70363808 -0.12018523 0.90690786 0.96789914 -0.04846831
5.16490602 5.55093193 0.66217810 0.90660077 0.94198513 0.26704326
5.06342077 5.85594368 0.19507720 0.88878697 0.99374515 0.07867076
5.10681725 5.67471933 0.40103570 0.89640439 0.96299165 0.16172972
5.30655241 5.14570808 2.20934534 0.93146414 0.87321919 0.89098507
5.31526947 5.77463579 -0.38292941 0.93299425 0.97994733 -0.15442783
5.18407249 5.49613380 1.11989617 0.90996510 0.93268597 0.45163187
5.10798264 5.71070719 -0.12026326 0.89660895 0.96909875 -0.04849978
5.12857723 5.58181286 0.66196799 0.90022397 0.94722557 0.26695853
5.28899431 5.46948862 0.89046085 0.92838210 0.92816430 0.35910517
5.20721674 5.69443274 0.14451832 0.91402763 0.96633697 0.05828136
5.07770681 5.71413279 0.40174025 0.89129466 0.96968007 0.16201386
5.50592470 5.18919230 1.84832060 0.96646011 0.88059843 0.74539095
5.34901428 5.25290012 2.24130440 0.93891746 0.89140952 0.90387350
5.17640495 5.69575739 -0.37818649 0.90861923 0.96656179 -0.15251510
5.15078831 5.53004074 1.12019813 0.90412271 0.93843991 0.45175365
5.06801701 5.73820210 -0.12027703 0.88959378 0.97376460 -0.04850534
5.38360500 5.31631422 1.44356430 0.94498920 0.90217084 0.58216077
5.10144711 5.62274313 0.66322839 0.89546180 0.95417136 0.26746681
5.27772808 5.52704144 0.89502013 0.92640454 0.93793094 0.36094382
5.11894369 5.66932344 0.14166503 0.89853299 0.96207595 0.05713069
5.05886126 5.76537323 0.40357214 0.88798666 0.97837549 0.16275263
5.41999722 5.17262220 1.82996690 0.95137721 0.87778652 0.73798925
5.12578583 5.71184254 -0.37750003 0.89973396 0.96929139 -0.15223825
5.15486765 5.60439014 1.12895417 0.90483874 0.95105690 0.45528477
5.03977394 5.77895451 -0.12024949 0.88463622 0.98068023 -0.04849423
5.32379484 5.32359266 1.43628025 0.93449068 0.90340596 0.57922328
5.09397173 5.68571949 0.66763967 0.89414960 0.96485835 0.26924580
5.21984673 5.53551817 0.89046085 0.91624457 0.93936944 0.35910517
5.08722353 5.70583963 0.14188451 0.89296514 0.96827275 0.05721920
5.04874420 5.82713223 0.40639043 0.88621080 0.98885590 0.16388918
5.39574099 5.21468973 1.83286488 0.94711947 0.88492531 0.73915797
5.10442352 5.76035452 -0.37818649 0.89598423 0.97752380 -0.15251510
5.01121855 5.81957865 -0.12022195 0.87962389 0.98757404 -0.04848312
5.29849339 5.36533976 1.43858039 0.93004948 0.91049039 0.58015090
5.08193970 5.74436426 0.67142081 0.89203763 0.97481030 0.27077067
5.17688274 5.55948162 0.88885164 0.90870309 0.94343597 0.35845619
5.05392170 5.74068403 0.14203084 0.88711959 0.97418576 0.05727821
5.34626961 5.23215437 1.82706892 0.93843573 0.88788903 0.73682058
5.25402832 5.66854143 0.36643133 0.92224449 0.96194327 0.14777447
5.46215057 5.00540686 2.13628864 0.95877641 0.84941030 0.86152273
5.06152773 5.78480816 -0.37787446 0.88845468 0.98167354 -0.15238926
5.26356936 5.38040113 1.43589687 0.92391926 0.91304630 0.57906866
5.25095510 5.53327417 0.62945718 0.92170507 0.93898863 0.25384757
5.16536570 5.59987974 0.89180177 0.90668148 0.95029145 0.35964593
5.03471899 5.77345324 0.14246981 0.88374895 0.97974664 0.05745524
5.32293129 5.25865746 1.82755184 0.93433911 0.89238656 0.73701531
5.19091845 5.65344954 0.36291355 0.91116679 0.95938218 0.14635582
5.46957636 5.05967903 2.14866304 0.96007985 0.85862023 0.86651307
5.06178904 5.84024620 -0.37918502 0.88850057 0.99108130 -0.15291779
4.92624998 5.84990501 -0.12029539 0.86470926 0.99272043 -0.04851274
5.23509932 5.41902828 1.43743026 0.91892189 0.91960126 0.57968706
5.24593496 5.59818172 0.63386476 0.92082387 0.95000333 0.25562507
5.13939381 5.64250565 0.89367914 0.90212262 0.95752501 0.36040303
5.30346823 5.30576229 1.83238184 0.93092275 0.90038019 0.73896319
5.12588930 5.65334797 0.36004719 0.89975214 0.95936495 0.14519988
5.43908215 5.09525394 2.14922547 0.95472717 0.86465722 0.86673993
5.11226082 5.65010881 -0.16318217 0.89735991 0.95881528 -0.06580812
5.20500088 5.45608568 1.43858039 0.91363865 0.92588985 0.58015090
5.17292309 5.59003639 0.62825507 0.90800804 0.94862109 0.25336277
5.23990393 5.44421625 0.82998931 0.91976523 0.92387563 0.33471820
5.27682543 5.34590435 1.83479679 0.92624611 0.90719223 0.73993707
5.09690380 5.69289494 0.36069864 0.89466429 0.96607602 0.14546259
5.39858437 5.12142515 2.14585066 0.94761854 0.86909842 0.86537892
5.12050104 5.73145294 -0.16340162 0.89880633 0.97261924 -0.06589662
5.18672228 5.50587082 1.44318092 0.91043019 0.93433827 0.58200616
5.14706707 5.63273621 0.62965751 0.90346950 0.95586717 0.25392836
5.22889233 5.50141382 0.83431387 0.91783237 0.93358195 0.33646220
5.20200300 5.71301842 0.10754617 0.91311246 0.96949095 0.04337123
5.27555418 5.41239691 1.84638870 0.92602295 0.91847593 0.74461186
5.07289457 5.73829603 0.36187121 0.89044994 0.97378051 0.14593546
5.37323761 5.16187334 2.14866304 0.94316941 0.87596244 0.86651307
5.07911205 5.75749922 -0.16337502 0.89154130 0.97703928 -0.06588589
5.17602110 5.56428528 1.45008159 0.90855181 0.94425112 0.58478910
5.10227013 5.65459776 0.62825507 0.89560628 0.95957702 0.25336277
5.16835499 5.50674582 0.82948053 0.90720618 0.93448681 0.33451301
5.07805157 5.64725065 0.10335481 0.89135516 0.95833027 0.04168094
5.04459047 5.77909851 0.36265296 0.88548172 0.98070467 0.14625072
5.36000967 5.21421576 2.15653777 0.94084752 0.88484484 0.86968881
5.06635618 5.79797459 -0.16344817 0.88930225 0.98390788 -0.06591540
5.11126471 5.71873331 0.63366443 0.89718509 0.97046077 0.25554428
5.15589428 5.54553175 0.83202440 0.90501893 0.94106871 0.33553889
5.09777880 5.72348690 0.10557750 0.89481789 0.97126746 0.04257731
5.25065041 5.67314768 0.32244462 0.92165160 0.96272492 0.13003550
5.37519693 5.27830648 2.17284942 0.94351333 0.89572096 0.87626696
5.02591896 5.82513952 -0.16342822 0.88220423 0.98851776 -0.06590735
5.31882524 5.75452566 -0.20023961 0.93361837 0.97653466 -0.08075266
5.37296629 5.31794024 1.37280285 0.94312179 0.90244675 0.55362409
5.09229851 5.77017689 0.63626891 0.89385593 0.97919065 0.25659460
5.26668930 5.57227564 0.57441747 0.92446691 0.94560713 0.23165114
5.11018515 5.56615591 0.82998931 0.89699560 0.94456857 0.33471820
5.07224607 5.76744032 0.10608555 0.89033610 0.97872627 0.04278219
5.45256567 5.20924568 1.76013482 0.95709395 0.88400143 0.70982736
5.16357374 5.65016031 0.31792477 0.90636694 0.95882404 0.12821274
5.36785412 5.33761835 2.18353629 0.94222444 0.90578610 0.88057679
5.19062471 5.68762159 -0.19915684 0.91111523 0.96518111 -0.08031599
5.33805418 5.35020638 1.37243700 0.93699366 0.90792227 0.55347657
5.19341993 5.56459475 0.56923336 0.91160583 0.94430369 0.22956049
5.11386490 5.64067125 0.83736652 0.89764148 0.95721376 0.33769327
5.05028152 5.81583691 0.10678411 0.88648063 0.98693907 0.04306391
5.41131592 5.23530769 1.75735664 0.94985336 0.88842416 0.70870697
5.14541006 5.70171452 0.31947103 0.90317863 0.96757269 0.12883632
5.13195896 5.69492626 -0.19888614 0.90081757 0.96642071 -0.08020683
5.28634405 5.36548090 1.36767995 0.92791694 0.91051435 0.55155814
5.13399172 5.57082272 0.56590068 0.90117437 0.94536054 0.22821650
5.38388872 5.27463579 1.75920880 0.94503903 0.89509803 0.70945394
5.09349823 5.71608686 0.31804371 0.89406651 0.97001165 0.12826070
5.09340858 5.72407770 -0.19885430 0.89405078 0.97136772 -0.08019398
5.23877811 5.38453436 1.36402059 0.91956764 0.91374767 0.55008239
5.12846231 5.63529348 0.56997395 0.90020376 0.95630115 0.22985916
5.15193272 5.69172716 0.05395862 0.90432358 0.96587783 0.02176044
5.33817673 5.29606009 1.75504160 0.93701518 0.89873374 0.70777339
5.07864714 5.77190304 0.31994680 0.89145970 0.97948360 0.12902819
5.06263924 5.76196289 -0.19891800 0.88864982 0.97779673 -0.08021968
5.20484304 5.41734362 1.36402059 0.91361099 0.91931534 0.55008239
5.08360863 5.65706158 0.56867790 0.89233059 0.95999515 0.22933649
5.09736013 5.70316458 0.05325914 0.89474440 0.96781874 0.02147835
5.30754805 5.33224678 1.75596762 0.93163890 0.90487456 0.70814681
5.04622126 5.80820990 0.32030362 0.88576794 0.98564482 0.12917209
5.05123377 5.80381727 -0.19910908 0.88664782 0.98489940 -0.08029673
5.19964743 5.46311998 1.36950958 0.91269898 0.92708355 0.55229598
5.08212662 5.70914888 0.57219571 0.89207047 0.96883428 0.23075515
5.06511116 5.72114801 0.05305928 0.88908368 0.97087055 0.02139775
5.29332018 5.36825275 1.75967181 0.92914146 0.91098469 0.70964068
5.18547630 5.51711893 1.37499845 0.91021150 0.93624711 0.55450952
5.09494638 5.79618073 0.57904619 0.89432073 0.98360348 0.23351781
5.05150270 5.77839041 0.05390866 0.88669503 0.98058450 0.02174029
5.28126383 5.42365026 1.76708031 0.92702520 0.92038560 0.71262836
5.03606367 5.83417606 0.05470808 0.88398498 0.99005121 0.02206268
5.26331043 5.47351217 1.77263665 0.92387378 0.92884707 0.71486914
