6.96624708 6.36615705 2.10859013 0.92458773 0.91912657 0.92571342
7.01610947 6.49345255 2.13649225 0.93120563 0.93750513 0.93796301
6.97091103 6.53339767 2.13516355 0.92520672 0.94327229 0.93737972
6.97348785 6.61878300 2.14889312 0.92554873 0.95559996 0.94340724
7.07957363 6.48625326 1.63915491 0.93962884 0.93646574 0.71962196
6.95421600 6.68413925 2.15597939 0.92299092 0.96503592 0.94651824
7.01273251 6.50643015 1.63297462 0.93075740 0.93937880 0.71690869
6.98055840 6.53805447 1.63263130 0.92648715 0.94394463 0.71675795
7.35742426 6.55301666 0.72422832 0.97650629 0.94610482 0.31795079
6.97500801 6.61575890 1.64121497 0.92575049 0.95516336 0.72052634
7.42798567 6.64562941 0.04500949 0.98587143 0.95947599 0.01976007
7.29395533 6.57905245 0.72161180 0.96808243 0.94986379 0.31680208
7.34466791 6.65449047 0.04398214 0.97481322 0.96075529 0.01930904
7.18346596 6.56145334 0.71341336 0.95341784 0.94732291 0.31320280
7.49334288 6.70282125 -0.28705803 0.99454594 0.96773314 -0.12602425
7.33947802 6.73438025 0.04489942 0.97412437 0.97228956 0.01971175
6.99242830 6.40632963 2.06429219 0.92806256 0.92492658 0.90626574
7.19249105 6.46930170 0.37742731 0.95461571 0.93401831 0.16569817
7.19318962 6.65391779 0.71951860 0.95470840 0.96067262 0.31588313
7.36971474 6.67576361 -0.28542581 0.97813749 0.96382666 -0.12530766
7.30286837 6.78581905 0.04504618 0.96926540 0.97971612 0.01977618
7.00797844 6.50181627 2.08114552 0.93012643 0.93871266 0.91366470
7.20728207 6.54175711 1.04906809 0.95657879 0.94447917 0.46056196
7.28727579 6.63838005 0.38721779 0.96719587 0.95842934 0.16999640
7.17736197 6.72355413 0.72265840 0.95260769 0.97072649 0.31726155
7.38204718 6.77206612 -0.28652385 0.97977436 0.97773051 -0.12578973
6.97697020 6.55505896 2.08417058 0.92601091 0.94639969 0.91499275
7.11647701 6.52053356 1.03913391 0.94452679 0.94141501 0.45620066
7.26911783 6.68484116 0.38817558 0.96478587 0.96513724 0.17041688
7.38080692 6.83537483 -0.28714707 0.97960973 0.98687083 -0.12606333
7.06296825 6.41336536 1.57855022 0.93742490 0.92594236 0.69301528
7.49252653 6.64132357 -0.01042925 0.99443758 0.95885432 -0.00457865
6.97581673 6.61602068 2.09324527 0.92585784 0.95520115 0.91897672
7.12329769 6.60978127 1.04712975 0.94543207 0.95430034 0.45971099
7.25614691 6.75766420 0.39030394 0.96306437 0.97565120 0.17135127
7.35888052 6.56880856 0.67493051 0.97669953 0.94838482 0.29630804
7.08507395 6.51488113 1.59288311 0.94035888 0.94059891 0.69930768
7.36268711 6.60962915 -0.01193094 0.97720480 0.95427835 -0.00523792
7.09750986 6.66939497 1.04979503 0.94200939 0.96290720 0.46088111
7.25820732 6.56157160 0.66835725 0.96333784 0.94733995 0.29342225
7.53443623 6.65766048 -0.34658846 1.00000000 0.96121299 -0.15215930
7.05267620 6.56731415 1.59488308 0.93605894 0.94816905 0.70018572
7.35807514 6.68931532 -0.01129463 0.97659266 0.96578318 -0.00495857
7.43352652 6.60946417 0.33616742 0.98660690 0.95425451 0.14758426
7.21389103 6.60436058 0.66802859 0.95745599 0.95351768 0.29327798
7.46707964 6.68225193 -0.34588283 0.99106020 0.96476340 -0.15184951
7.03283739 6.63174582 1.59988296 0.93342584 0.95747149 0.70238078
7.32179594 6.74082088 -0.01119282 0.97177756 0.97321939 -0.00491387
7.33635616 6.62168550 1.01161981 0.97371006 0.95601904 0.44412142
7.39036465 6.65470600 0.33607218 0.98087823 0.96078640 0.14754243
7.18250370 6.65902090 0.66917890 0.95329010 0.96140939 0.29378298
7.42643118 6.73037672 -0.34592435 0.98566514 0.97171152 -0.15186773
7.03533173 6.71792936 1.61021602 0.93375689 0.96991444 0.70691717
7.17120314 6.55531883 0.99219495 0.95179027 0.94643718 0.43559352
7.28629303 6.64460039 0.33207247 0.96706545 0.95932740 0.14578648
7.18857002 6.74894094 0.67460185 0.95409530 0.97439176 0.29616377
7.37809324 6.77150917 -0.34575832 0.97924954 0.97765011 -0.15179485
7.12999296 6.57962990 0.99057621 0.94632071 0.94994718 0.43488285
7.26079035 6.68426228 0.33245340 0.96368062 0.96505368 0.14595371
7.40194368 6.85772991 -0.34733561 0.98241508 0.99009842 -0.15248731
7.12050581 6.65407276 0.99566364 0.94506150 0.96069497 0.43711635
7.26696157 6.77460623 0.33559602 0.96449971 0.97809726 0.14733340
7.43058348 6.63679886 -0.04842844 0.98621625 0.95820105 -0.02126106
7.10108709 6.50039101 2.02473307 0.94248420 0.93850690 0.88889849
7.30474520 6.57917738 0.61719567 0.96951449 0.94988179 0.27096128
7.38133478 6.67663240 -0.04851819 0.97967976 0.96395206 -0.02130046
7.02431726 6.51156378 2.01427555 0.93229502 0.94011998 0.88430744
7.25889015 6.58720636 1.29216075 0.96342844 0.95104104 0.56728452
7.23679352 6.60070038 0.61443740 0.96049571 0.95298922 0.26975036
7.41877127 6.60577297 -0.38378346 0.98464847 0.95372164 -0.16848865
7.33629513 6.72017050 -0.04855409 0.97370195 0.97023797 -0.02131622
6.97330427 6.54617882 2.01134753 0.92552435 0.94511759 0.88302195
7.12282467 6.54544687 1.27337527 0.94536930 0.94501191 0.55903733
7.41202831 6.64920092 0.29041123 0.98375356 0.95999163 0.12749636
7.23172855 6.67994213 0.61826831 0.95982343 0.96442991 0.27143222
7.44233227 6.71130323 -0.38596117 0.98777562 0.96895778 -0.16944471
7.16566181 6.54009485 1.53616059 0.95105481 0.94423920 0.67440534
7.34368277 6.81247854 -0.04794378 0.97468245 0.98356515 -0.02104828
6.97871828 6.63443089 2.02515125 0.92624295 0.95785916 0.88908207
7.31212044 6.61071396 0.96991915 0.97049338 0.95443499 0.42581400
7.09167910 6.59952974 1.27539837 0.94123554 0.95282024 0.55992550
7.30662727 6.63773537 0.28671479 0.96976429 0.95833623 0.12587355
7.20996332 6.74436188 0.62041366 0.95693469 0.97373068 0.27237406
7.38675451 6.74577045 -0.38551572 0.98039913 0.97393405 -0.16924915
7.07667542 6.54066610 1.52561605 0.93924421 0.94432169 0.66977608
6.97767210 6.71757030 2.03728175 0.92610407 0.96986258 0.89440763
7.19297409 6.56452894 0.95650762 0.95467979 0.94776690 0.41992608
7.07489634 6.64645576 1.27828836 0.93900806 0.95959526 0.56119430
7.31348276 6.70728588 0.28894985 0.97067422 0.96837777 0.12685479
7.37102365 6.79544497 -0.38606015 0.97831124 0.98110586 -0.16948816
7.05009699 6.57799101 1.52657461 0.93571657 0.94971055 0.67019695
7.13993216 6.59877777 0.95471942 0.94763988 0.95271164 0.41914099
7.26973391 6.75174236 0.28886390 0.96486765 0.97479624 0.12681705
7.02581358 6.63846540 1.53040898 0.93249363 0.95844167 0.67188030
7.39023209 6.62019444 -0.11507693 0.98086065 0.95580375 -0.05052108
7.12150192 6.66528654 0.95829582 0.94519371 0.96231401 0.42071113
7.20894766 6.50067568 0.54744506 0.95679986 0.93854797 0.24033938
7.02097845 6.71804428 1.53871679 0.93185186 0.96993101 0.67552757
7.50217485 6.61405468 -0.45014131 0.99571812 0.95491731 -0.19762108
7.37520266 6.69063139 -0.11499432 0.97886592 0.96597320 -0.05048482
7.12865829 6.47753048 1.21863282 0.94614357 0.93520635 0.53500432
7.46389723 6.62319899 0.22733688 0.99063778 0.95623755 0.09980546
7.24914026 6.61966515 0.55519533 0.96213442 0.95572734 0.24374190
7.49184084 6.68895674 -0.45145187 0.99434656 0.96573144 -0.19819644
7.34039688 6.74358892 -0.11497137 0.97424632 0.97361904 -0.05047474
7.14871645 6.49623919 1.94464886 0.94880575 0.93790746 0.85373992
7.30309153 6.53163624 0.89618784 0.96929502 0.94301796 0.39344448
7.11848116 6.55028963 1.22449565 0.94479281 0.94571108 0.53757817
7.33575583 6.59265661 0.22309352 0.97363037 0.95182788 0.09794254
7.22208023 6.67859650 0.55660444 0.95854288 0.96423566 0.24436054
7.43778133 6.72519541 -0.45095262 0.98717159 0.97096348 -0.19797726
7.06297874 6.49999142 1.93220568 0.93742633 0.93844920 0.84827709
7.28849268 6.60137224 0.89996898 0.96735740 0.95308626 0.39510447
7.06702232 6.58545685 1.22254133 0.93796301 0.95078844 0.53672022
7.31788254 6.66009378 0.22426412 0.97125816 0.96156430 0.09845645
7.20769644 6.74969482 0.55928183 0.95663381 0.97450060 0.24553595
7.41901159 6.79334736 -0.45195112 0.98468041 0.98080301 -0.19841562
7.01050949 6.53357887 1.92899454 0.93046236 0.94329846 0.84686738
7.17347765 6.55931759 0.88799542 0.95209217 0.94701451 0.38984784
7.06915379 6.64982605 1.22896254 0.93824589 0.96008188 0.53953922
7.27167130 6.68101263 0.22353250 0.96512479 0.96458447 0.09813526
7.42809582 6.86614370 -0.45369849 0.98588610 0.99131316 -0.19918275
7.20318365 6.49705791 1.44749320 0.95603484 0.93802565 0.63547862
6.98965216 6.57591915 1.93180430 0.92769414 0.94941139 0.84810090
7.14820719 6.61909151 0.89030612 0.94873816 0.95564449 0.39086229
7.28672600 6.77954865 0.22638579 0.96712291 0.97881085 0.09938791
7.39942980 6.92631149 -0.45432258 0.98208141 1.00000000 -0.19945674
7.12565565 6.50893021 1.43994486 0.94574505 0.93973976 0.63216472
6.98373222 6.65341854 1.94183910 0.92690837 0.96060055 0.85250640
7.49741173 6.65596819 -0.17118227 0.99508595 0.96096867 -0.07515246
7.14281940 6.69781017 0.89555764 0.94802308 0.96700966 0.39316779
7.35008621 6.59395218 0.50649190 0.97553235 0.95201498 0.22236012
7.06280613 6.53348112 1.43541586 0.93740338 0.94328433 0.63017642
7.43020582 6.68016148 -0.17106922 0.98616612 0.96446162 -0.07510282
7.22919178 6.53775263 1.17984080 0.95948678 0.94390106 0.51797384
7.28786898 6.62117290 0.50466782 0.96727461 0.95594501 0.22155932
7.04041004 6.59526062 1.43934095 0.93443090 0.95220387 0.63189960
7.39103889 6.72941351 -0.17108253 0.98096776 0.97157246 -0.07510867
7.14420795 6.54279661 1.17179501 0.94820738 0.94462925 0.51444155
7.41408205 6.62292576 0.17791010 0.98402613 0.95619810 0.07810611
7.26371431 6.68308449 0.50623131 0.96406871 0.96488363 0.22224571
7.00601816 6.64615440 1.44085062 0.92986625 0.95955175 0.63256234
7.37649536 6.80153513 -0.17120887 0.97903746 0.98198515 -0.07516413
7.29317331 6.57457066 0.85003757 0.96797866 0.94921672 0.37318358
7.09425545 6.57945108 1.17018580 0.94157749 0.94992131 0.51373506
7.35456705 6.65324974 0.17714803 0.97612703 0.96057618 0.07777154
7.24052572 6.74631691 0.50792503 0.96099102 0.97401291 0.22298929
7.19160080 6.54443073 0.84042096 0.95449752 0.94486523 0.36896169
7.08338737 6.63181496 1.17394054 0.94013500 0.95748150 0.51538348
7.31281948 6.67837572 0.17670350 0.97058618 0.96420377 0.07757638
7.19123316 6.62733221 0.84603065 0.95444876 0.95683426 0.37142447
7.09038210 6.72265577 1.18305910 0.94106340 0.97059679 0.51938671
7.30000973 6.75139713 0.17797360 0.96888602 0.97474641 0.07813399
7.16625500 6.48729134 1.85377359 0.95113355 0.93661559 0.81384385
7.51815939 6.68441200 -0.21794623 0.99783969 0.96507525 -0.09568278
7.16251850 6.68463182 0.84783375 0.95063764 0.96510702 0.37221605
7.25907660 6.52774000 0.44352919 0.96345317 0.94245547 0.19471823
7.07769728 6.48831654 1.84112227 0.93937981 0.93676358 0.80828965
7.41347647 6.67543840 -0.21727747 0.98394573 0.96377969 -0.09538917
7.14601231 6.47782040 1.09785831 0.94844687 0.93524820 0.48198184
7.45366907 6.59794998 0.11086708 0.98928028 0.95259213 0.04867288
7.28298998 6.63223219 0.44876271 0.96662706 0.95754170 0.19701585
7.03391933 6.52998161 1.84035552 0.93356943 0.94277906 0.80795306
7.40247822 6.75012207 -0.21761185 0.98248601 0.97456229 -0.09553597
7.14909554 6.56274557 1.10548997 0.94885606 0.94750947 0.48533231
7.30617237 6.55011177 0.10731967 0.96970391 0.94568545 0.04711549
7.24411583 6.68056250 0.44900060 0.96146756 0.96451950 0.19712028
7.00274277 6.58348083 1.84303916 0.92943156 0.95050317 0.80913121
7.38641691 6.82086849 -0.21789847 0.98035431 0.98477644 -0.09566180
7.35203362 6.63854885 0.78252429 0.97579080 0.95845371 0.34354389
7.10480833 6.60483980 1.10498118 0.94297808 0.95358688 0.48510894
7.34792471 6.67097855 0.11011763 0.97524548 0.96313578 0.04834385
7.24439335 6.76537609 0.45244995 0.96150434 0.97676462 0.19863462
7.00148058 6.64484644 1.85108995 0.92926401 0.95936292 0.81266570
7.20713377 6.57005453 0.76826787 0.95655912 0.94856471 0.33728504
7.09244680 6.65585470 1.10828817 0.94133741 0.96095228 0.48656076
7.31197691 6.70148706 0.10996774 0.97047430 0.96754050 0.04827804
7.18183708 6.63003397 0.77030450 0.95320165 0.95722437 0.33817914
7.31377316 6.78801107 0.11146665 0.97071272 0.98003262 0.04893610
7.16481638 6.69809532 0.77345204 0.95094258 0.96705085 0.33956099
7.16578484 6.50696611 1.76727486 0.95107114 0.93945616 0.77586919
7.09147644 6.50089359 1.75629687 0.94120866 0.93857944 0.77104962
7.05915356 6.55333042 1.75849247 0.93691862 0.94615012 0.77201355
7.03506374 6.61367941 1.76288366 0.93372130 0.95486313 0.77394134
7.13659382 6.47539091 2.25881600 0.94719678 0.93489742 0.99166560
7.02761698 6.69021749 1.77166593 0.93273294 0.96591347 0.77779692
7.06418705 6.49120808 2.24862933 0.93758667 0.93718106 0.98719347
7.02754402 6.53943253 2.25001836 0.93272328 0.94414359 0.98780328
6.99380779 6.56981802 2.24909234 0.92824566 0.94853055 0.98739672
7.03996849 6.69658947 2.27780008 0.93437231 0.96683341 1.00000000
