-4.83696270 10.11899376 -0.30430022 -0.52221918 0.93610775 -0.20381521
-4.87238169 10.03089237 -0.30335054 -0.52604318 0.92795748 -0.20317912
-4.90866184 9.94633102 -0.30246025 -0.52996016 0.92013472 -0.20258284
-5.10429049 10.01945114 0.06845501 -0.55108106 0.92689908 0.04585002
-4.99493456 10.00173664 -0.30376601 -0.53927451 0.92526031 -0.20345740
-5.14225626 9.97752857 0.06808810 -0.55518001 0.92302078 0.04560427
-5.05495453 9.96481037 -0.30367699 -0.54575455 0.92184424 -0.20339778
-5.19740152 9.93086243 0.06779458 -0.56113374 0.91870373 0.04540768
-5.11654615 9.93107605 -0.30364731 -0.55240422 0.91872346 -0.20337790
-4.76135063 10.12892723 -0.37020636 -0.51405579 0.93702668 -0.24795803
-5.25498819 9.88918972 0.06761112 -0.56735104 0.91484857 0.04528480
-5.27460766 9.83212471 0.83848280 -0.56946921 0.90956950 0.56160176
-5.20582104 9.95006943 -0.30450794 -0.56204271 0.92048055 -0.20395434
-4.80686522 10.06089020 -0.36933470 -0.51896977 0.93073255 -0.24737422
-5.19318008 9.62741375 0.06284130 -0.56067795 0.89063168 0.04209005
-5.22432518 9.92009830 0.45936954 -0.56404054 0.91770792 0.30767804
-5.32385159 9.77606487 0.83621514 -0.57478583 0.90438342 0.56008297
-4.82300138 9.93326950 -0.36709327 -0.52071190 0.91892636 -0.24587294
-5.23044062 9.55254173 0.06196071 -0.56470078 0.88370526 0.04150025
-5.04697847 10.03216076 0.00507120 -0.54489338 0.92807484 0.00339660
-5.22390747 9.80732059 0.45404860 -0.56399542 0.90727484 0.30411419
-5.36407471 9.74040794 0.83516854 -0.57912850 0.90108478 0.55938196
-5.07749271 9.45225334 -0.29708877 -0.54818785 0.87442762 -0.19898510
-4.93301105 10.03976059 -0.37008184 -0.53258902 0.92877787 -0.24787465
-5.29094791 9.55574989 0.06254777 -0.57123339 0.88400209 0.04189345
-5.06979132 9.96010113 0.00438398 -0.54735637 0.92140859 0.00293632
-5.32796621 9.89725876 1.23297155 -0.57523006 0.91559505 0.82582378
-5.27398682 9.75324345 0.45277157 -0.56940222 0.90227216 0.30325884
-5.42614460 9.70825005 0.83534300 -0.58582979 0.89810985 0.55949879
-5.16272163 9.46751881 -0.29789004 -0.55738956 0.87583983 -0.19952178
-5.00044394 10.01752090 -0.37028936 -0.53986937 0.92672050 -0.24801363
-5.35874605 9.53624916 0.06284130 -0.57855320 0.88219804 0.04209005
-5.12586641 9.91560268 0.00420582 -0.55341047 0.91729206 0.00281699
-5.34897566 9.78874969 1.22255278 -0.57749832 0.90555686 0.81884545
-5.32552195 9.70242405 0.45170739 -0.57496613 0.89757091 0.30254608
-5.47816086 9.65838432 0.83377308 -0.59144568 0.89349675 0.55844730
-5.22113371 9.43314648 -0.29786035 -0.56369597 0.87266004 -0.19950190
-5.05607843 9.97162437 -0.36995730 -0.54587591 0.92247462 -0.24779123
-5.45135260 9.55965424 0.06405210 -0.58855140 0.88436323 0.04290102
-5.18713999 9.88142776 0.00418037 -0.56002587 0.91413051 0.00279994
-5.38525629 9.70985508 1.21625304 -0.58141536 0.89825833 0.81462598
-5.38540363 9.66702843 0.45160097 -0.58143127 0.89429641 0.30247480
-5.50384283 9.56339836 0.82766789 -0.59421843 0.88470960 0.55435812
-5.30879831 9.45066357 -0.29872099 -0.57316059 0.87428051 -0.20007834
-5.13231516 9.96634960 -0.37057993 -0.55410671 0.92198664 -0.24820825
-5.25193644 9.85394096 0.00425672 -0.56702155 0.91158772 0.00285108
-4.72168636 10.09772587 -0.41382590 -0.50977349 0.93414026 -0.27717367
-5.42955017 9.64644623 1.21213400 -0.58619750 0.89239240 0.81186712
-5.46378613 9.66426182 0.45351651 -0.58989376 0.89404052 0.30375779
-5.56986952 9.53894043 0.82871449 -0.60134697 0.88244700 0.55505913
-5.26863956 9.80614471 0.77944487 -0.56882489 0.90716606 0.52205914
-5.38993216 9.45530224 -0.29937387 -0.58192015 0.87470967 -0.20051561
-5.22438240 9.99066162 -0.37190816 -0.56404668 0.92423570 -0.24909788
-5.16388702 9.54257202 0.00023526 -0.55751538 0.88278300 0.00015757
-4.72731447 9.94697571 -0.41050985 -0.51038110 0.92019433 -0.27495265
-5.47622442 9.58803177 1.20874178 -0.59123665 0.88698846 0.80959505
-5.61612272 9.78894901 0.46330702 -0.60634065 0.90557528 0.31031531
-5.19594765 9.86488152 0.39349678 -0.56097674 0.91259980 0.26355758
-5.63987970 9.52087879 0.83045882 -0.60890555 0.88077617 0.55622745
-5.30066204 9.71854687 0.77435064 -0.57228220 0.89906240 0.51864713
-5.22374249 9.50993824 0.00023526 -0.56397760 0.87976402 0.00015757
-4.83860064 10.01780891 -0.41328147 -0.52239603 0.92674714 -0.27680904
-5.01447821 10.01799679 -0.03729924 -0.54138452 0.92676449 -0.02498241
-5.52433348 9.56727219 1.20946872 -0.59643072 0.88506800 0.81008196
-5.20680571 9.77322292 0.38987797 -0.56214905 0.90412050 0.26113376
-5.71034908 9.53688431 0.83481967 -0.61651373 0.88225681 0.55914831
-5.34831953 9.69695473 0.77467930 -0.57742751 0.89706492 0.51886725
-5.11518002 9.52352047 -0.36227837 -0.55225676 0.88102055 -0.24264801
-5.28301525 9.51146698 0.00061704 -0.57037693 0.87990546 0.00041329
-4.89456797 10.01284313 -0.41377643 -0.52843851 0.92628777 -0.27714056
-5.06888580 10.00851536 -0.03715564 -0.54725862 0.92588741 -0.02488623
-5.60044336 9.55975056 1.21334553 -0.60464787 0.88437217 0.81267858
-5.32499409 9.82135773 1.16169965 -0.57490915 0.90857345 0.77808702
-5.66652298 9.63031673 0.45734757 -0.61178207 0.89090025 0.30632377
-5.24443054 9.69634151 0.38749719 -0.56621116 0.89700818 0.25953916
-5.79401731 9.53993988 0.83883166 -0.62554693 0.88253945 0.56183547
-5.42078590 9.68405151 0.77665126 -0.58525127 0.89587122 0.52018803
-5.15202332 9.44901562 -0.36128220 -0.55623448 0.87412810 -0.24198079
-5.90454435 9.67060947 0.07003272 -0.63747990 0.89462769 0.04690675
-5.35637569 9.50250053 0.00097338 -0.57829726 0.87907594 0.00065195
-4.97345018 10.01409626 -0.41466731 -0.53695500 0.92640364 -0.27773723
-5.12249041 9.95870209 -0.03733514 -0.55304599 0.92127913 -0.02500646
-5.70007658 9.59085941 1.22279501 -0.61540467 0.88725007 0.81900769
-5.35986757 9.73892498 1.15522468 -0.57867426 0.90094757 0.77375019
-5.74540091 9.62535763 0.45926312 -0.62029809 0.89044148 0.30760676
-5.30908298 9.67021084 0.38787812 -0.57319134 0.89459085 0.25979429
-5.89262056 9.56604290 0.84528571 -0.63619256 0.88495427 0.56615829
-5.46386147 9.61857224 0.77369332 -0.58990186 0.88981378 0.51820689
-5.21418571 9.42171192 -0.36140671 -0.56294584 0.87160224 -0.24206419
-5.91028786 9.54501247 0.06812479 -0.63809997 0.88300872 0.04562885
-5.02813768 9.96659851 -0.41422185 -0.54285926 0.92200965 -0.27743888
-4.62497139 10.02993584 -0.48271757 -0.49933171 0.92786896 -0.32331619
-5.17102385 9.89975548 -0.03760440 -0.55828589 0.91582602 -0.02518680
-5.40164089 9.67033386 1.15059972 -0.58318430 0.89460224 0.77065247
-5.79954004 9.57882881 0.45862460 -0.62614316 0.88613707 0.30717909
-5.36198425 9.62268734 0.38711625 -0.57890278 0.89019442 0.25928402
-5.50632858 9.55293465 0.77073532 -0.59448683 0.88374162 0.51622564
-5.29279900 9.42366982 -0.36223689 -0.57143325 0.87178332 -0.24262023
-6.03199816 9.60579872 0.07025287 -0.65124035 0.88863206 0.04705420
-5.10346985 9.95969772 -0.41491476 -0.55099249 0.92137128 -0.27790299
-4.69888639 10.02422905 -0.48352885 -0.50731188 0.92734104 -0.32385954
-5.24252605 9.88472080 -0.03742489 -0.56600559 0.91443515 -0.02506657
-5.43202353 9.58257198 1.14343107 -0.58646452 0.88648337 0.76585102
-5.88057470 9.57620049 0.46075296 -0.63489205 0.88589394 0.30860466
-5.45468378 9.64625168 0.39025891 -0.58891100 0.89237440 0.26138890
-5.56824875 9.52159405 0.77106398 -0.60117197 0.88084233 0.51644582
-5.18848181 10.03634739 0.34809306 -0.56017071 0.92846215 0.23314692
-5.24955606 9.80176449 0.71618760 -0.56676453 0.90676087 0.47969049
-6.08469439 9.55591583 0.06999603 -0.65692967 0.88401741 0.04688217
-5.18076611 9.95578575 -0.41570666 -0.55933768 0.92100936 -0.27843338
-4.78832865 10.05050087 -0.48546347 -0.51696849 0.92977148 -0.32515532
-5.15231562 9.57012081 -0.04029695 -0.55626607 0.88533151 -0.02699022
-4.96021891 10.04151630 -0.11214413 -0.53552645 0.92894030 -0.07511227
-5.47318125 9.54996681 1.14250600 -0.59090811 0.88346708 0.76523143
-5.29474401 9.83725166 1.49215317 -0.57164323 0.91004378 0.99941927
-5.92986059 9.55516338 0.46117863 -0.64021313 0.88394779 0.30888975
-5.63327932 9.52960300 0.77435064 -0.60819298 0.88158321 0.51864713
-5.15302420 9.85434723 0.34044227 -0.55634254 0.91162527 0.22802255
-5.28615761 9.75940132 0.71465522 -0.57071620 0.90284187 0.47866413
-6.13182783 9.53049564 0.07006942 -0.66201842 0.88166577 0.04693133
-4.84255695 10.04224205 -0.48596272 -0.52282321 0.92900741 -0.32548973
-5.14649677 9.45273781 -0.04124831 -0.55563784 0.87447244 -0.02762743
-4.98788214 9.97863770 -0.11224511 -0.53851312 0.92312342 -0.07517990
-5.54502249 9.53601933 1.14528108 -0.59866440 0.88217682 0.76709014
-5.35930443 9.80899525 1.49302018 -0.57861346 0.90742975 1.00000000
-5.99511385 9.52615833 0.46171072 -0.64725816 0.88126457 0.30924612
-5.70632887 9.51626778 0.77648693 -0.61607969 0.88034958 0.52007800
-5.20261574 9.79885483 0.33932474 -0.56169665 0.90649170 0.22727405
-5.34737301 9.72599506 0.71465522 -0.57732528 0.89975142 0.47866413
-6.11725283 9.64295292 -0.30732724 -0.66044480 0.89206922 -0.20584266
-6.21568966 9.52858353 0.07087661 -0.67107248 0.88148892 0.04747197
-5.05352306 9.45780754 -0.40333334 -0.54560000 0.87494141 -0.27014595
-4.92133188 10.04395866 -0.48708603 -0.53132808 0.92916626 -0.32624209
-5.25334883 9.50589657 -0.04036875 -0.56717402 0.87939012 -0.02703831
-5.05408955 9.95424080 -0.11222675 -0.54566115 0.92086643 -0.07516760
-5.63803482 9.55751705 1.15291226 -0.60870641 0.88416553 0.77220142
-5.36786985 9.68003559 1.47712493 -0.57953823 0.89549971 0.98935366
-6.10548735 9.56733894 0.46671242 -0.65917456 0.88507414 0.31259620
-5.78562880 9.51261902 0.77960920 -0.62464124 0.88001204 0.52216923
-5.23839521 9.71852875 0.33700371 -0.56555957 0.89906073 0.22571947
-5.41617632 9.70612144 0.71588111 -0.58475357 0.89791292 0.47948521
-6.14300585 9.55056763 -0.30637759 -0.66322523 0.88352263 -0.20520660
-6.35175085 9.60429192 0.07340829 -0.68576223 0.88849270 0.04916765
-5.12241411 9.44342518 -0.40382826 -0.55303776 0.87361091 -0.27047744
-5.00031900 10.04508018 -0.48820934 -0.53985584 0.92926997 -0.32699448
-5.32475090 9.49361038 -0.04015334 -0.57488292 0.87825352 -0.02689404
-5.11470699 9.91873074 -0.11223593 -0.55220568 0.91758138 -0.07517375
-5.32523298 9.79078484 1.11476350 -0.57493496 0.90574515 0.74664998
-5.41592598 9.62372017 1.47336781 -0.58472657 0.89028996 0.98683715
-5.74985313 9.63183212 0.39673465 -0.62077880 0.89104044 0.26572624
-5.87449741 9.52363300 0.78421044 -0.63423592 0.88103092 0.52525109
-5.29069376 9.66966343 0.33623004 -0.57120597 0.89454019 0.22520126
-5.46719646 9.65456486 0.71434873 -0.59026194 0.89314342 0.47845885
-6.25985098 9.59878349 -0.30792075 -0.67584032 0.88798308 -0.20624018
-6.69666529 9.98723221 0.08276448 -0.72300065 0.92391849 0.05543427
-5.96797228 9.61213303 0.00614019 -0.64432782 0.88921809 0.00411260
-5.17003584 9.39005852 -0.40323433 -0.55817920 0.86867398 -0.27007961
-5.05704308 10.00096512 -0.48777249 -0.54598004 0.92518890 -0.32670188
-5.42498875 9.53115368 -0.03941738 -0.58570504 0.88172668 -0.02640110
-5.18894625 9.90945339 -0.11217626 -0.56022084 0.91672313 -0.07513379
-5.83373737 9.61172390 1.17002451 -0.62983525 0.88918024 0.78366292
-5.37893486 9.74322701 1.11297524 -0.58073282 0.90134555 0.74545223
-5.49499273 9.62211895 1.47885895 -0.59326297 0.89014184 0.99051505
-5.80819416 9.59209347 0.39654419 -0.62707752 0.88736421 0.26559868
-5.36205149 9.65542603 0.33717564 -0.57891005 0.89322311 0.22583461
-5.51877975 9.60447884 0.71296960 -0.59583110 0.88850999 0.47753513
-5.23549604 9.92284489 0.65425766 -0.56524658 0.91796201 0.43821084
-6.33220243 9.57759094 -0.30824721 -0.68365169 0.88602257 -0.20645884
-6.78294849 9.97964859 0.08353500 -0.73231620 0.92321694 0.05595035
-6.03462362 9.58461094 0.00629291 -0.65152383 0.88667202 0.00421488
-5.23578310 9.36959362 -0.40358078 -0.56527758 0.86678076 -0.27031168
-5.13889122 10.00637150 -0.48908305 -0.55481672 0.92568904 -0.32757968
-5.26981974 9.91200733 -0.11208446 -0.56895232 0.91695940 -0.07507230
-5.42055416 9.67459679 1.10850477 -0.58522624 0.89499658 0.74245799
-5.55633688 9.58911324 1.47914791 -0.59988594 0.88708848 0.99070859
-5.89023829 9.59119892 0.39854404 -0.63593537 0.88728148 0.26693815
-5.42556477 9.62676144 0.33743352 -0.58576721 0.89057136 0.22600734
-5.14754772 9.94697857 0.27203843 -0.55575132 0.92019463 0.18220679
-5.56289673 9.54207897 0.71051776 -0.60059416 0.88273734 0.47589293
-5.23765278 9.77709389 0.64523917 -0.56547940 0.90447861 0.43217042
-6.41458035 9.57079983 -0.30884075 -0.69254559 0.88539433 -0.20685638
-6.87394810 9.97795391 0.08445227 -0.74214089 0.92306012 0.05656472
-6.08399534 9.52963066 0.00603838 -0.65685421 0.88158578 0.00404441
-5.33314323 9.40426731 -0.40551102 -0.57578897 0.86998844 -0.27160451
-5.14169550 9.52459717 -0.11300699 -0.55511945 0.88112015 -0.07569020
-4.90712118 10.08292007 -0.17513245 -0.52979380 0.93277055 -0.11730079
-5.44839382 9.61785126 1.10448134 -0.58823192 0.88974708 0.73976314
-5.62755060 9.60717392 1.48666215 -0.60757446 0.88875932 0.99574149
-5.30861330 9.86032772 1.43946636 -0.57314062 0.91217852 0.96413052
-5.92801714 9.55144024 0.39787742 -0.64001411 0.88360339 0.26649165
-5.15649128 9.84994316 0.26903880 -0.55671686 0.91121787 0.18019770
-5.63115978 9.55523014 0.71404225 -0.60796416 0.88395399 0.47825357
-5.28556204 9.75581551 0.64552104 -0.57065189 0.90251011 0.43235922
-6.50907087 9.61323929 -0.31014651 -0.70274717 0.88932043 -0.20773096
-6.94608068 9.98151779 0.08525947 -0.74992859 0.92338985 0.05710537
-6.13748312 9.51431370 0.00624200 -0.66262895 0.88016880 0.00418079
-5.18747663 9.50201893 -0.11300240 -0.56006217 0.87903142 -0.07568713
-4.90898514 9.92829800 -0.17467360 -0.52999508 0.91846645 -0.11699346
-5.50573587 9.57826424 1.10381067 -0.59442282 0.88608485 0.73931396
-5.36288977 9.81286240 1.43723297 -0.57900053 0.90778750 0.96263468
-5.98579121 9.51062012 0.39768696 -0.64625168 0.87982708 0.26636410
-5.17340565 9.73255539 0.26552707 -0.55854303 0.90035832 0.17784560
-5.70134926 9.53675652 0.71557468 -0.61554211 0.88224500 0.47927999
-5.34579659 9.72066307 0.64538014 -0.57715511 0.89925820 0.43226483
-6.57841969 9.58532715 -0.31038395 -0.71023434 0.88673824 -0.20788999
-6.13423061 9.67547035 -0.37568536 -0.66227782 0.89507741 -0.25162777
-6.21460724 9.50237370 0.00664924 -0.67095560 0.87906426 0.00445355
-5.10595512 9.53155994 -0.47547841 -0.55126077 0.88176423 -0.31846750
-5.26156807 9.49550533 -0.11293355 -0.56806141 0.87842882 -0.07564101
-5.01721859 9.98832130 -0.17501275 -0.54168040 0.92401922 -0.11722062
-5.57183552 9.55377197 1.10515189 -0.60155922 0.88381910 0.74021232
-5.35932970 9.66108990 1.41824853 -0.57861620 0.89374709 0.94991922
-6.07543659 9.52003002 0.40035343 -0.65593016 0.88069761 0.26815006
-5.21364403 9.66112328 0.26391754 -0.56288731 0.89375013 0.17676756
-5.76945400 9.51437187 0.71680057 -0.62289494 0.88017416 0.48010105
-5.40579844 9.68513870 0.64523917 -0.58363312 0.89597183 0.43217042
-6.65912199 9.57331848 -0.31091812 -0.71894735 0.88562733 -0.20824777
-6.15716219 9.57779980 -0.37423259 -0.66475362 0.88604188 -0.25065476
-6.34362221 9.56826973 0.00825273 -0.68488461 0.88516027 0.00552754
-5.12481928 9.42369843 -0.47279492 -0.55329746 0.87178600 -0.31667015
-5.33773565 9.49192524 -0.11285553 -0.57628483 0.87809765 -0.07558876
-5.09173584 9.97973824 -0.17509921 -0.54972559 0.92322522 -0.11727853
-5.42283106 9.63240910 1.41908598 -0.58547205 0.89109379 0.95048010
-6.40785646 9.90482521 0.42435178 -0.69181961 0.91629499 0.28422374
-5.72056007 9.61290169 0.34327906 -0.61761618 0.88928920 0.22992259
-5.27041578 9.62115574 0.26362488 -0.56901664 0.89005274 0.17657155
-5.85217142 9.51526070 0.72017181 -0.63182551 0.88025641 0.48235905
-5.46262455 9.64403152 0.64467555 -0.58976835 0.89216900 0.43179291
-6.72607183 9.54108429 -0.31109616 -0.72617555 0.88264537 -0.20836702
-6.27274990 9.62445736 -0.37634948 -0.67723292 0.89035821 -0.25207260
-6.46146917 9.61463642 0.00957625 -0.69760787 0.88944966 0.00641401
-5.18489170 9.39306450 -0.47285733 -0.55978310 0.86895204 -0.31671193
-5.94077969 9.61106014 -0.03643763 -0.64139199 0.88911879 -0.02440531
-5.12756300 9.89610004 -0.17490636 -0.55359364 0.91548783 -0.11714936
-5.48814201 9.60675335 1.42048192 -0.59252334 0.88872039 0.95141506
-5.80052519 9.60923481 0.34491238 -0.62624955 0.88894993 0.23101656
-5.32979488 9.58610249 0.26355171 -0.57542747 0.88681000 0.17652254
-5.95735312 9.55097485 0.72676104 -0.64318138 0.88356030 0.48677242
-5.52212048 9.60778713 0.64453465 -0.59619176 0.88881600 0.43169856
-5.23624229 9.97231579 0.59717292 -0.56532717 0.92253858 0.39997646
-6.80220127 9.52138710 -0.31151164 -0.73439479 0.88082314 -0.20864530
-6.34189272 9.59821606 -0.37668157 -0.68469793 0.88793063 -0.25229502
-6.80137539 9.98588562 0.01591388 -0.73430562 0.92379391 0.01065885
-5.26425505 9.39696407 -0.47416785 -0.56835151 0.86931276 -0.31758973
-6.02874613 9.61755180 -0.03597092 -0.65088928 0.88971937 -0.02409272
-5.23542929 9.95033264 -0.17523222 -0.56523937 0.92050487 -0.11736762
-4.84578848 10.06858063 -0.22681546 -0.52317208 0.93144399 -0.15191720
-5.40699196 9.64001083 1.02873743 -0.58376199 0.89179707 0.68903118
-5.54938412 9.57379627 1.42076111 -0.59913528 0.88567156 0.95160210
-5.88380814 9.61004925 0.34680361 -0.63524115 0.88902527 0.23228326
-5.40656233 9.58204842 0.26479545 -0.58371562 0.88643491 0.17735557
-5.57336235 9.55737400 0.64326644 -0.60172409 0.88415229 0.43084913
-5.14049768 9.99424839 0.21912508 -0.55499017 0.92456752 0.14676632
-5.22531557 9.80198479 0.58701038 -0.56414747 0.90678126 0.39316976
-6.89598083 9.52537727 -0.31237227 -0.74451965 0.88119227 -0.20922174
-6.43758869 9.61140537 -0.37800980 -0.69502968 0.88915074 -0.25318465
-6.87191725 9.95448780 0.01609204 -0.74192160 0.92088932 0.01077818
-5.35568762 9.42111301 -0.47622728 -0.57822299 0.87154680 -0.31896910
-6.08690405 9.57611084 -0.03600682 -0.65716821 0.88588566 -0.02411677
-5.10973024 9.60276890 -0.17401524 -0.55166835 0.88835180 -0.11655250
-4.82425261 9.90346718 -0.22555754 -0.52084696 0.91616940 -0.15107468
-5.43866825 9.59017754 1.02579653 -0.58718193 0.88718694 0.68706143
-5.62438011 9.59885502 1.42913663 -0.60723215 0.88798970 0.95721185
-5.32837200 9.93879700 1.38688552 -0.57527387 0.91943771 0.92891276
-5.93324709 9.58900452 0.34714746 -0.64057875 0.88707846 0.23251358
-5.64661694 9.57917786 0.64721197 -0.60963297 0.88616937 0.43349177
-5.14957523 9.89727592 0.21652135 -0.55597019 0.91559660 0.14502239
-5.27715015 9.78778172 0.58779216 -0.56974375 0.90546733 0.39369339
-7.24840021 9.91196156 -0.32008821 -0.78256834 0.91695517 -0.21438974
-6.94157267 9.95484066 0.01660109 -0.74944192 0.92092192 0.01111913
-6.13304615 9.54900169 -0.03598887 -0.66214991 0.88337779 -0.02410474
-5.13085699 9.49840164 -0.17374258 -0.55394930 0.87869680 -0.11636988
-4.93145657 9.96445751 -0.22636962 -0.53242117 0.92181158 -0.15161860
-5.48398495 9.52993011 1.02264559 -0.59207451 0.88161349 0.68495095
-5.34508705 9.82164478 1.37401223 -0.57707846 0.90859997 0.92029047
-5.99976921 9.56167984 0.34766322 -0.64776081 0.88455063 0.23285903
-5.70873404 9.54693890 0.64749384 -0.61633939 0.88318694 0.43368056
-5.17043161 9.78703117 0.21372712 -0.55822194 0.90539789 0.14315085
-5.33277607 9.74393845 0.58701038 -0.57574934 0.90141135 0.39316976
-7.41315222 10.00423431 -0.32264042 -0.80035567 0.92549133 -0.21609917
-7.02931452 9.94700146 0.01716104 -0.75891489 0.92019671 0.01149418
-6.20058346 9.52199554 -0.03586322 -0.66944152 0.88087946 -0.02402058
-5.20490885 9.49225426 -0.17384233 -0.56194425 0.87812811 -0.11643669
-5.00649786 9.95831394 -0.22659254 -0.54052293 0.92124325 -0.15176791
-5.52676058 9.46605492 1.01907444 -0.59669274 0.87570441 0.68255907
-5.79043293 9.60382366 1.44169986 -0.62515992 0.88844937 0.96562654
-5.38265562 9.74453926 1.36730742 -0.58113456 0.90146697 0.91579968
-6.05972815 9.52379417 0.34766322 -0.65423423 0.88104582 0.23285903
-5.77685833 9.52454281 0.64862114 -0.62369436 0.88111508 0.43443561
-5.18726301 9.67163754 0.21074237 -0.56003910 0.89472282 0.14115173
-5.39875507 9.71895313 0.58766186 -0.58287275 0.89910001 0.39360610
-7.48308325 9.96704292 -0.32281849 -0.80790573 0.92205077 -0.21621844
-6.65619755 9.57600498 -0.37996066 -0.71863163 0.88587588 -0.25449130
-6.11939573 9.56031418 -0.41887423 -0.66067618 0.88442433 -0.28055498
-6.29232883 9.53119278 -0.03534266 -0.67934680 0.88173026 -0.02367192
-5.28396463 9.49427795 -0.17397533 -0.57047945 0.87831527 -0.11652578
-5.06806231 9.92487812 -0.22657661 -0.54716969 0.91815013 -0.15175724
-5.39807606 9.62935638 1.35470235 -0.58279943 0.89081138 0.90735704
-6.26826334 9.71529484 0.35944030 -0.67674857 0.89876157 0.24074711
-5.85639000 9.52038002 0.65129852 -0.63228095 0.88072997 0.43622887
-5.23833752 9.62131596 0.21010731 -0.56555337 0.89006758 0.14072637
-5.45578098 9.67789364 0.58714068 -0.58902949 0.89530158 0.39325702
-7.58438540 9.97069836 -0.32376814 -0.81884271 0.92238891 -0.21685450
-6.66913652 9.46688938 -0.37825885 -0.72002852 0.87578160 -0.25335148
-6.24483013 9.62218857 -0.42184383 -0.67421860 0.89014828 -0.28254396
-6.40785408 9.57447243 -0.03444514 -0.69181937 0.88573408 -0.02307078
-5.36917162 9.50612068 -0.17414823 -0.57967877 0.87941086 -0.11664158
-5.15050602 9.93193436 -0.22692692 -0.55607069 0.91880286 -0.15199186
-5.71369362 9.51021194 1.03314865 -0.61687481 0.87978935 0.69198573
-5.47125340 9.61762047 1.35818887 -0.59069997 0.88972569 0.90969223
-6.50466394 9.94295883 0.37319455 -0.70227140 0.91982275 0.24995948
-5.82508612 9.64078522 0.27437958 -0.62890124 0.89186865 0.18377486
-5.93504381 9.51389790 0.65383494 -0.64077276 0.88013035 0.43792772
-5.29286575 9.57772636 0.20972627 -0.57144046 0.88603508 0.14047116
-5.09572983 10.02975273 0.14324345 -0.55015683 0.92785203 0.09594207
-5.51250410 9.63650131 0.58661956 -0.59515357 0.89147240 0.39290798
-5.22163153 9.92850780 0.53023905 -0.56374973 0.91848588 0.35514528
-7.66767836 9.94974232 -0.32427263 -0.82783538 0.92045027 -0.21719240
-6.79802465 9.52256584 -0.38074932 -0.73394388 0.88093221 -0.25501955
-6.31398010 9.59610844 -0.42223978 -0.68168432 0.88773561 -0.28280917
-6.06288624 9.65150452 -0.11168975 -0.65457517 0.89286029 -0.07480793
-5.22132349 9.95364475 -0.22734094 -0.56371647 0.92081130 -0.15226917
-5.52642727 9.60889339 1.36087084 -0.59665674 0.88891834 0.91148859
-5.86422110 9.60298157 0.27394062 -0.63312644 0.88837147 0.18348086
-5.34968090 9.57359600 0.21048835 -0.57757449 0.88565302 0.14098158
-5.13018608 9.98071003 0.14254396 -0.55387688 0.92331511 0.09547357
-5.56286526 9.61904621 0.58727098 -0.60059077 0.88985759 0.39334431
-5.20668840 9.78734875 0.52238882 -0.56213635 0.90542728 0.34988731
-7.75509310 9.96551418 -0.32525197 -0.83727306 0.92190933 -0.21784835
-6.84982300 9.50016975 -0.38099834 -0.73953623 0.87886035 -0.25518632
-6.37466717 9.58953094 -0.42293268 -0.68823636 0.88712716 -0.28327325
-6.83804464 9.97632980 -0.02929340 -0.73826456 0.92290992 -0.01962023
-6.07730484 9.57380390 -0.11182286 -0.65613186 0.88567221 -0.07489709
-5.08700180 9.54959583 -0.22399706 -0.54921448 0.88343275 -0.15002950
-5.60973883 9.61330986 1.36703932 -0.60565144 0.88932693 0.91562015
-5.30190134 9.87498856 1.29831493 -0.57241595 0.91353482 0.86958969
-5.94018126 9.59146309 0.27503803 -0.64132738 0.88730592 0.18421589
-5.43544865 9.58495712 0.21213949 -0.58683431 0.88670403 0.14208749
-5.17066813 9.90570068 0.14134483 -0.55824751 0.91637599 0.09467041
-5.66371775 9.65268326 0.59248251 -0.61147922 0.89296937 0.39683491
-5.25295305 9.72630692 0.52048570 -0.56713128 0.89978027 0.34861264
-7.84360647 9.94952869 -0.32587519 -0.84682935 0.92043054 -0.21826577
-6.94703674 9.50867462 -0.38232660 -0.75003183 0.87964714 -0.25607598
-6.86856651 9.88723278 -0.02979601 -0.74155986 0.91466755 -0.01995687
-6.15568829 9.56405354 -0.11174483 -0.66459447 0.88477021 -0.07484482
-5.13552618 9.49631405 -0.22380598 -0.55445337 0.87850368 -0.14990151
-5.68522120 9.60342789 1.37106216 -0.61380082 0.88841277 0.91831458
-5.33829546 9.79440498 1.29144645 -0.57634526 0.90608001 0.86498928
-5.99926853 9.55225563 0.27496487 -0.64770675 0.88367879 0.18416688
-5.22627306 9.86063862 0.14099509 -0.56425083 0.91220731 0.09443615
-5.70480108 9.58435822 0.59000707 -0.61591476 0.88664860 0.39517689
-5.31013536 9.68610001 0.52000993 -0.57330495 0.89606076 0.34829399
-7.98974323 10.00461292 -0.32786351 -0.86260688 0.92552638 -0.21959750
-7.00556898 9.95004845 -0.02862924 -0.75635123 0.92047858 -0.01917538
-6.22219896 9.53524876 -0.11171729 -0.67177522 0.88210553 -0.07482637
-5.19605064 9.46561432 -0.22382191 -0.56098789 0.87566364 -0.14991218
-5.26608562 9.85327339 0.90027869 -0.56854916 0.91152596 0.60299164
-5.35378790 9.67726612 1.27923596 -0.57801789 0.89524353 0.85681093
-6.05702734 9.51099777 0.27481854 -0.65394258 0.87986207 0.18406887
-5.17765617 9.62140751 0.13514936 -0.55900192 0.89007604 0.09052078
-5.76594305 9.55003166 0.59013736 -0.62251592 0.88347310 0.39526415
-5.37766218 9.66476917 0.52084255 -0.58059543 0.89408743 0.34885165
-7.95793200 9.83775806 -0.32563776 -0.85917240 0.91009063 -0.21810673
-7.53760481 10.05169106 -0.39868063 -0.81379211 0.92988157 -0.26702964
-6.21792555 9.69625092 -0.49750793 -0.67131388 0.89699984 -0.33322251
-7.11102772 9.96599865 -0.02796507 -0.76773703 0.92195415 -0.01873054
-6.29959536 9.52268600 -0.11164386 -0.68013132 0.88094330 -0.07477719
-5.26803303 9.45551586 -0.22402890 -0.56875938 0.87472939 -0.15005082
-5.28245926 9.73589039 0.89139152 -0.57031691 0.90066683 0.59703916
-5.39512539 9.60880566 1.27414823 -0.58248085 0.88891023 0.85340321
-6.14369535 9.51477814 0.27664760 -0.66329968 0.88021177 0.18529394
-5.24087238 9.59395504 0.13529925 -0.56582701 0.88753641 0.09062118
-5.84255886 9.54081631 0.59222198 -0.63078767 0.88262057 0.39666039
-5.44415188 9.64123154 0.52155620 -0.58777398 0.89190996 0.34932965
-7.46059227 9.81921291 -0.39386573 -0.80547750 0.90837502 -0.26380470
-6.71610022 9.57179451 -0.42733759 -0.72509897 0.88548636 -0.28622359
-6.27329206 9.64860249 -0.49719590 -0.67729145 0.89259183 -0.33301350
-7.23692894 10.00853252 -0.02699576 -0.78132987 0.92588896 -0.01808131
-6.41374063 9.56440639 -0.11141896 -0.69245493 0.88480288 -0.07462656
-5.37443018 9.50588226 -0.22479323 -0.58024651 0.87938881 -0.15056275
-5.70953751 9.54294682 0.98106354 -0.61642611 0.88281763 0.65709996
-5.33682489 9.69028473 0.89009547 -0.57618648 0.89644790 0.59617108
-5.44560385 9.55746365 1.27160430 -0.58793074 0.88416058 0.85169935
-6.50575542 9.93973446 0.29691327 -0.70238924 0.91952443 0.19886754
-5.29911661 9.55733585 0.13519932 -0.57211530 0.88414878 0.09055425
-5.91823006 9.52932072 0.59417629 -0.63895744 0.88155711 0.39796937
-5.51154757 9.61897278 0.52238882 -0.59505028 0.88985080 0.34988731
-7.66818810 9.96252537 -0.39884666 -0.82789046 0.92163283 -0.26714084
-6.71919584 9.44966316 -0.42491242 -0.72543317 0.87418801 -0.28459924
-6.35354185 9.63907337 -0.49831921 -0.68595558 0.89171034 -0.33376589
-6.51407862 9.58353615 -0.11125374 -0.70328784 0.88657254 -0.07451589
-6.07310009 9.79341984 -0.17616323 -0.65567791 0.90598887 -0.11799119
-5.79885530 9.58907413 0.98967838 -0.62606925 0.88708490 0.66287005
-5.40174389 9.69986057 0.89379847 -0.58319539 0.89733374 0.59865129
-5.52019167 9.58331966 1.27923596 -0.59598356 0.88655251 0.85681093
-5.77628708 9.51236248 0.21563227 -0.62363267 0.87998831 0.14442690
-5.36066198 9.56193638 0.13604870 -0.57876003 0.88457435 0.09112315
-5.99073315 9.54522610 0.59756380 -0.64678520 0.88302851 0.40023828
-7.74933672 9.97054100 -0.40000889 -0.83665156 0.92237437 -0.26791927
-6.81626272 9.49088192 -0.42713961 -0.73591292 0.87800115 -0.28609097
-6.41104984 9.62735081 -0.49900571 -0.69216442 0.89062583 -0.33422568
-6.57384682 9.57419205 -0.11119407 -0.70974064 0.88570815 -0.07447594
-6.02988243 9.58933353 -0.17551151 -0.65101194 0.88710886 -0.11755468
-5.41570473 9.58242512 0.88491136 -0.58470267 0.88646978 0.59269887
-5.58229160 9.55187511 1.27974474 -0.60268813 0.88364363 0.85715169
-5.91058874 9.59659290 0.22014116 -0.63813245 0.88778043 0.14744687
-5.63512897 9.58880520 0.52452976 -0.60839266 0.88705999 0.35132128
-7.82170582 9.93423843 -0.40034094 -0.84446484 0.91901600 -0.26814169
-6.89580917 9.47531414 -0.42798099 -0.74450111 0.87656093 -0.28665453
-6.96547699 10.01098919 -0.10985848 -0.75202274 0.92611623 -0.07358138
-6.13853645 9.62705708 -0.17581077 -0.66274267 0.89059871 -0.11775512
-5.45408058 9.51016331 0.88083810 -0.58884591 0.87978482 0.58997065
-5.67245388 9.56785965 1.28737628 -0.61242241 0.88512236 0.86226314
-5.98032713 9.57450771 0.22071271 -0.64566171 0.88573736 0.14782968
-5.71259212 9.58239460 0.52655184 -0.61675590 0.88646698 0.35267565
-7.91258812 9.92089748 -0.40129560 -0.85427690 0.91778183 -0.26878110
-6.97899628 9.46394253 -0.42897087 -0.75348234 0.87550896 -0.28731754
-7.01099253 9.94248009 -0.10992732 -0.75693679 0.91977847 -0.07362749
-6.18583775 9.56816578 -0.17573097 -0.66784954 0.88515067 -0.11770167
-5.52570677 9.49638367 0.88305986 -0.59657896 0.87851012 0.59145874
-6.03500366 9.52830982 0.22039518 -0.65156484 0.88146359 0.14761701
-5.77371693 9.54802227 0.52667075 -0.62335521 0.88328719 0.35275528
-8.30961227 10.28681183 -0.41237816 -0.89714134 0.95163256 -0.27620402
-7.10116625 9.93733215 -0.10981717 -0.76667231 0.91930223 -0.07355371
-6.26782084 9.56252575 -0.17586397 -0.67670077 0.88462889 -0.11779075
-5.60948467 9.50267982 0.88750345 -0.60562402 0.87909257 0.59443498
-6.10016823 9.49860287 0.22071271 -0.65860027 0.87871540 0.14782968
-5.85440779 9.54563236 0.52904963 -0.63206697 0.88306612 0.35434863
-8.65466022 10.57838535 -0.42159289 -0.93439418 0.97860605 -0.28237587
-7.51465750 9.92475033 -0.44604605 -0.81131458 0.91813827 -0.29875422
-7.25635862 10.32780647 -0.53195637 -0.78342754 0.95542496 -0.35629550
-7.20910597 9.95577049 -0.10963817 -0.77832597 0.92100793 -0.07343382
-6.34997606 9.55623150 -0.17599697 -0.68557060 0.88404661 -0.11787984
-5.69763851 9.51513863 0.89268756 -0.61514145 0.88024509 0.59790725
-6.44520330 9.89679527 0.23728761 -0.69585174 0.91555214 0.15893129
-5.91532040 9.51035690 0.52916861 -0.63864332 0.87980276 0.35442829
-8.83302879 10.65945244 -0.42524555 -0.95365161 0.98610556 -0.28482237
-7.66711140 9.99458408 -0.44970855 -0.82777417 0.92459857 -0.30120727
-6.77160168 9.50762844 -0.50231326 -0.73109114 0.87955034 -0.33644104
-7.29394627 9.94095230 -0.10955097 -0.78748566 0.91963714 -0.07337541
-6.43852711 9.59088516 -0.17625633 -0.69513094 0.88725245 -0.11805355
-6.00409317 9.67661858 -0.22851925 -0.64822763 0.89518362 -0.15305838
-5.77016973 9.53423405 0.89768660 -0.62297225 0.88201165 0.60125548
-6.55566454 9.96305943 0.24097091 -0.70777762 0.92168224 0.16139829
-5.84978771 9.60481262 0.14314352 -0.63156813 0.88854086 0.09587514
-5.96960497 9.49760628 0.53023905 -0.64450413 0.87862319 0.35514528
-9.04326534 10.80964661 -0.43043402 -0.97634965 1.00000000 -0.28829753
-7.72271347 9.96939373 -0.45005500 -0.83377725 0.92226821 -0.30143934
-6.80817842 9.46423912 -0.50187641 -0.73504013 0.87553638 -0.33614844
-6.53137445 9.59813499 -0.17644918 -0.70515513 0.88792312 -0.11818272
-6.07858086 9.66073322 -0.22872625 -0.65626961 0.89371407 -0.15319702
-6.66373062 9.98977661 0.24357463 -0.71944487 0.92415386 0.16314222
-5.93725920 9.61214447 0.14444257 -0.64101195 0.88921911 0.09674522
-9.12778187 10.77246952 -0.43097362 -0.98547441 0.99656075 -0.28865895
-7.81117392 9.95366287 -0.45109439 -0.84332782 0.92081296 -0.30213550
-6.92272043 9.49729633 -0.50480950 -0.74740654 0.87859452 -0.33811298
-6.61432028 9.58979607 -0.17658219 -0.71411037 0.88715166 -0.11827181
-6.09839869 9.55820847 -0.22812118 -0.65840924 0.88422948 -0.15279175
-5.99965334 9.57804298 0.14454250 -0.64774829 0.88606441 0.09681215
-7.84737921 9.87156296 -0.45005500 -0.84723669 0.91321790 -0.30143934
-6.98699617 9.46005249 -0.50505912 -0.75434601 0.87514907 -0.33828017
-6.69397163 9.57588005 -0.17669524 -0.72270983 0.88586432 -0.11834753
-6.20058155 9.58526802 -0.22874218 -0.66944134 0.88673276 -0.15320769
-6.06719780 9.55198383 0.14489225 -0.65504068 0.88365364 0.09704641
-7.97961283 9.90915489 -0.45282665 -0.86151320 0.91669554 -0.30329573
-7.08334017 9.46564484 -0.50699371 -0.76474774 0.87566644 -0.33957592
-7.10517836 10.02750492 -0.17871024 -0.76710546 0.92764407 -0.11969713
-6.26287222 9.54946804 -0.22877403 -0.67616653 0.88342094 -0.15322903
-6.12493515 9.51030922 0.14479232 -0.66127425 0.87979835 0.09697948
-8.09363174 9.92226219 -0.45485586 -0.87382317 0.91790807 -0.30465487
-7.14508438 9.42414188 -0.50711852 -0.77141392 0.87182701 -0.33965951
-7.14068604 9.97766590 -0.17864373 -0.77093905 0.92303348 -0.11965259
-6.33754873 9.56491566 -0.22920395 -0.68422890 0.88484997 -0.15351698
-6.23710632 9.58536243 0.14789006 -0.67338473 0.88674152 0.09905429
-8.75031757 10.62230682 -0.47856316 -0.94472176 0.98266917 -0.32053363
-7.24207211 9.98596764 -0.17886318 -0.78188515 0.92380148 -0.11979958
-6.42754984 9.56978607 -0.22963388 -0.69394583 0.88530058 -0.15380494
-6.57280445 9.96538162 0.16043089 -0.70962811 0.92189705 0.10745393
-8.89772701 10.66371536 -0.48168126 -0.96063673 0.98649991 -0.32262206
-7.33790731 9.98533821 -0.17904939 -0.79223192 0.92374325 -0.11992429
-6.53469944 9.59872913 -0.23030265 -0.70551413 0.88797808 -0.15425287
-6.67962742 9.99044609 0.16242944 -0.72116119 0.92421579 0.10879253
-9.06151199 10.72198963 -0.48539326 -0.97831964 0.99189085 -0.32510829
-7.45077848 10.00632858 -0.17932869 -0.80441797 0.92568511 -0.12011137
-6.59714651 9.56077766 -0.23033449 -0.71225619 0.88446718 -0.15427420
-6.76352596 9.97976208 0.16337875 -0.73021924 0.92322743 0.10942835
-9.15735245 10.69821835 -0.48648211 -0.98866701 0.98969179 -0.32583761
-7.94773722 9.98773575 -0.53638726 -0.85807174 0.92396504 -0.35926324
-6.67538071 9.54539299 -0.23058927 -0.72070271 0.88304394 -0.15444484
-8.01534271 9.94383526 -0.53663689 -0.86537075 0.91990381 -0.35943043
-7.74389029 10.13091946 -0.18024641 -0.83606356 0.93721098 -0.12072604
-6.77213860 9.55554104 -0.23109882 -0.73114908 0.88398272 -0.15478612
-8.10037613 9.92118645 -0.53776020 -0.87455130 0.91780859 -0.36018282
-7.84420109 10.16230965 -0.18053237 -0.84689355 0.94011486 -0.12091757
-7.14689064 9.98594666 -0.23562101 -0.77160895 0.92379957 -0.15781502
-8.13942337 9.87363720 -0.53738576 -0.87876701 0.91340983 -0.35993201
-8.02393818 10.26073456 -0.18115748 -0.86629874 0.94922018 -0.12133626
-8.27419090 9.90988064 -0.54094291 -0.89331710 0.91676271 -0.36231452
-7.32262039 9.96473217 -0.23630570 -0.79058146 0.92183697 -0.15827361
-8.37108040 9.89896488 -0.54262793 -0.90377772 0.91575289 -0.36344314
-7.41845465 9.96349621 -0.23675156 -0.80092812 0.92172265 -0.15857224
-8.48113728 9.90242386 -0.54493695 -0.91565990 0.91607285 -0.36498967
-7.53018475 9.98222923 -0.23740441 -0.81299102 0.92345566 -0.15900952
-9.26232243 10.68060589 -0.57926059 -1.00000000 0.98806244 -0.38797909
-7.69333792 10.06677055 -0.23872603 -0.83060569 0.93127656 -0.15989472
-7.84433270 10.16515064 -0.24007951 -0.84690773 0.94037771 -0.16080125
-8.00269985 10.23713493 -0.24130559 -0.86400574 0.94703698 -0.16162246
-8.15855980 10.30281544 -0.24248391 -0.88083303 0.95311308 -0.16241167
-8.35552406 10.41692162 -0.24417177 -0.90209818 0.96366900 -0.16354218
