10.69585991 7.48081207 1.00436985 0.98985898 0.97471702 0.68758047
10.70550442 7.52285004 0.10221070 0.99075156 0.98019439 0.06997231
10.58694649 7.50399065 0.99774134 0.97977948 0.97773707 0.68304265
10.59945202 7.54811621 0.10088982 0.98093683 0.98348647 0.06906805
10.77539539 7.46111584 1.46073067 0.99721968 0.97215068 1.00000000
10.79865360 7.50573921 0.56270188 0.99937212 0.97796494 0.38521945
10.65665054 7.62934732 1.00907958 0.98623031 0.99407053 0.69080466
10.72881699 7.51230860 -0.33222601 0.99290901 0.97882086 -0.22743824
10.63349152 7.64829731 0.10246754 0.98408705 0.99653959 0.07014814
10.62766075 7.45781136 1.44570827 0.98354745 0.97172016 0.98971581
10.60612488 7.47085333 0.55323064 0.98155439 0.97341943 0.37873554
10.58040047 7.50766230 -0.33038604 0.97917366 0.97821552 -0.22617862
10.64340687 7.59781599 0.55876440 0.98500466 0.98996210 0.38252389
10.62546062 7.64068413 -0.33207762 0.98334384 0.99554765 -0.22733666
10.74018383 7.51311064 0.94229668 0.99396098 0.97892541 0.64508587
10.75557327 7.56918001 0.02953085 0.99538523 0.98623097 0.02021649
10.61300087 7.52408218 0.93424445 0.98219073 0.98035491 0.63957340
10.61815357 7.57288265 0.02813098 0.98266757 0.98671341 0.01925815
10.75267220 7.48443317 1.38624132 0.99511671 0.97518885 0.94900542
10.68773651 7.42099714 0.48225251 0.98910719 0.96692342 0.33014470
10.64394665 7.62148523 0.94098204 0.98505461 0.99304610 0.64418584
10.74117184 7.50927258 -0.40992922 0.99405241 0.97842532 -0.28063300
10.64245605 7.66598988 0.02907271 0.98491669 0.99884486 0.01990286
10.68505859 7.51897573 0.48482376 0.98885936 0.97968960 0.33190498
10.64477730 7.54200935 -0.40868399 0.98513150 0.98269075 -0.27978051
10.64900303 7.59406471 0.48549038 0.98552257 0.98947334 0.33236131
10.62157059 7.62619829 -0.40930662 0.98298383 0.99366021 -0.28020677
10.70861053 7.47815371 0.86544174 0.99103898 0.97437066 0.59247178
10.71541119 7.51648474 -0.02037209 0.99166840 0.97936499 -0.01394650
10.58011627 7.48756456 0.85777980 0.97914737 0.97559685 0.58722651
10.64029312 7.56392097 -0.02067724 0.98471648 0.98554575 -0.01415541
10.76617908 7.42295456 1.33202994 0.99636674 0.96717846 0.91189289
10.77409077 7.46669388 0.42597640 0.99709892 0.97287750 0.29161870
10.66138840 7.62101364 0.86881298 0.98666877 0.99298465 0.59477973
10.62724876 7.63034296 -0.02042594 0.98350930 0.99420023 -0.01398337
10.69817066 7.47562122 1.32912409 0.99007285 0.97404069 0.90990359
10.72533035 7.53309107 0.42589045 0.99258637 0.98152876 0.29155988
10.62757206 7.50527573 -0.45995367 0.98353922 0.97790456 -0.31487918
10.63876057 7.57246113 0.42382732 0.98457468 0.98665851 0.29014748
10.59969521 7.58589554 -0.46054760 0.98095930 0.98840892 -0.31528577
10.75250530 7.50145006 0.78784388 0.99510127 0.97740608 0.53934920
10.73883438 7.54050589 -0.10773346 0.99383610 0.98249489 -0.07375313
10.61872864 7.50795317 0.78037548 0.98272079 0.97825336 0.53423637
10.62109661 7.55807829 -0.10793082 0.98293996 0.98478448 -0.07388824
10.78357983 7.45808363 1.24615216 0.99797714 0.97175562 0.85310191
10.76330853 7.48259878 0.34190744 0.99610108 0.97494984 0.23406604
10.63303947 7.61858273 0.78573018 0.98404521 0.99266791 0.53790218
10.72491741 7.50478745 -0.54655951 0.99254817 0.97784090 -0.37416857
10.64323235 7.67485523 -0.10773346 0.98498851 1.00000000 -0.07375313
10.69118690 7.46903896 1.23880005 0.98942649 0.97318304 0.84806877
10.67061710 7.49312496 0.33934680 0.98752284 0.97632134 0.23231305
10.70250702 7.56445408 -0.54705876 0.99047416 0.98561519 -0.37451035
10.61804581 7.51771736 1.23543894 0.98265761 0.97952563 0.84576780
10.61191463 7.55192757 0.33883467 0.98209018 0.98398304 0.23196246
10.61897373 7.60599661 -0.54568583 0.98274350 0.99102801 -0.37357047
10.80543804 7.51433134 0.72107768 1.00000000 0.97908443 0.49364176
10.64204121 7.41683197 -0.18097793 0.98487830 0.96638072 -0.12389548
10.63253689 7.49335241 0.71104538 0.98399872 0.97635096 0.48677379
10.59523010 7.48355103 -0.18097793 0.98054612 0.97507387 -0.12389548
10.65662479 7.61115837 0.71677810 0.98622793 0.99170059 0.49069834
10.65417290 7.60091257 -0.18136364 0.98600101 0.99036562 -0.12415954
10.75084686 7.48969555 1.18060768 0.99494779 0.97587448 0.80823094
10.61948872 7.42518473 0.27373967 0.98279113 0.96746904 0.18739913
10.63212776 7.50648594 1.17179251 0.98396081 0.97806221 0.80219615
10.64756870 7.54504347 0.27666092 0.98538983 0.98308611 0.18939899
10.64941597 7.61955833 1.17980623 0.98556077 0.99279505 0.80768228
10.62914658 7.63282824 0.27780402 0.98368496 0.99452406 0.19018154
10.78400803 7.50146675 0.64454389 0.99801672 0.97740823 0.44124758
10.62877941 7.40495014 -0.24098712 0.98365092 0.96483254 -0.16497710
10.63538456 7.49791193 0.63716936 0.98426223 0.97694504 0.43619907
10.60003471 7.48424673 -0.24116229 0.98099077 0.97516453 -0.16509703
10.62872124 7.59353876 0.64014298 0.98364556 0.98940480 0.43823478
10.63963413 7.58741283 -0.24189475 0.98465550 0.98860663 -0.16559847
10.75674820 7.49058008 1.08024287 0.99549395 0.97598976 0.73952228
10.69015121 7.48735762 0.18826059 0.98933065 0.97556990 0.12888111
10.63128853 7.50302362 1.07135582 0.98388314 0.97761106 0.73343831
10.60372257 7.52666378 0.18706146 0.98133206 0.98069131 0.12806019
10.63420486 7.60550785 1.07709539 0.98415303 0.99096435 0.73736757
10.63909340 7.65255308 0.18960960 0.98460549 0.99709415 0.12980463
