4.23183012 5.34787035 0.26820633 0.76279223 0.72462028 0.10805536
2.56395030 4.68909550 -0.21716937 0.46215498 0.63535827 -0.08749352
2.74760604 4.65973377 -0.25016612 0.49525914 0.63137990 -0.10078730
2.55611825 4.81983519 -0.03776532 0.46074325 0.65307313 -0.01521495
2.65922856 4.65917397 -0.06958040 0.47932899 0.63130403 -0.02803265
3.24507546 6.14446926 1.50337994 0.58492857 0.83255708 0.60568392
2.90407205 4.48239136 -0.27009732 0.52346230 0.60735053 -0.10881720
3.69463992 5.32249451 -0.34018087 0.66596311 0.72118193 -0.13705258
2.92318654 4.65550947 -0.08851151 0.52690774 0.63080752 -0.03565965
4.86144018 7.20756578 -0.11789499 0.87628019 0.97660345 -0.04749771
2.97993565 5.47045135 0.62141401 0.53713685 0.74122965 0.25035620
2.94642520 5.04231644 0.54103041 0.53109652 0.68321866 0.21797113
3.73340464 5.06176329 -0.15875982 0.67295045 0.68585366 -0.06396139
3.83878446 4.86120844 -0.18716666 0.69194531 0.65867907 -0.07540598
3.41659999 5.29528904 0.57003254 0.61584610 0.71749568 0.22965555
4.35105276 6.27250290 0.66763967 0.78428227 0.84990525 0.26897967
3.48601818 5.18689442 0.74178851 0.62835878 0.70280856 0.29885286
4.29685545 5.69571161 0.57977146 0.77451313 0.77175176 0.23357919
2.65091586 4.88249683 0.15799242 0.47783062 0.66156358 0.06365222
3.08007097 5.25527573 0.15237066 0.55518633 0.71207404 0.06138732
3.43959212 6.27703333 1.94147265 0.61999041 0.85051906 0.78218335
3.43396878 6.55497456 0.50949961 0.61897683 0.88817930 0.20526795
3.05775905 5.39425850 0.37289050 0.55116457 0.73090577 0.15023068
3.72117853 5.80138063 0.15854251 0.67074668 0.78606957 0.06387384
3.59316468 5.21286917 0.09381755 0.64767206 0.70632803 0.03779735
3.20128322 5.15005350 0.32772851 0.57703495 0.69781673 0.13203575
3.33835173 4.99553490 0.28619099 0.60174173 0.67687994 0.11530105
3.55598640 4.72482824 0.04994681 0.64097065 0.64019996 0.02012265
3.96381569 4.93214083 0.02023325 0.71448231 0.66829020 0.00815160
3.45881605 4.73896122 0.24487181 0.62345558 0.64211494 0.09865431
4.35112286 5.56899309 0.28295535 0.78429490 0.75458175 0.11399747
2.51654601 4.67159271 -0.21660551 0.45361030 0.63298672 -0.08726635
4.00158882 6.86591721 -0.30283937 0.72129101 0.93031108 -0.12200838
2.46879649 4.72569513 -0.04004016 0.44500339 0.64031744 -0.01613144
2.68319869 4.76971340 -0.06820597 0.48364964 0.64628178 -0.02747892
3.21093559 6.17338657 1.50554061 0.57877481 0.83647525 0.60655445
2.99356866 4.68632650 -0.27554157 0.53959417 0.63498312 -0.11101060
3.66679859 5.35383224 -0.34049290 0.66094464 0.72542810 -0.13717829
2.86666799 4.62947369 -0.08897822 0.51672018 0.62727970 -0.03584768
2.92777824 5.45577145 0.61681038 0.52773541 0.73924059 0.24850148
3.04734802 5.28922606 0.57178640 0.54928797 0.71667421 0.23036215
4.39522076 6.04461575 -0.16269670 0.79224360 0.81902719 -0.06554749
4.53912640 5.81660843 -0.19659321 0.81818277 0.78813291 -0.07920376
4.20555115 6.14571381 0.64789379 0.75805545 0.83272570 0.26102442
3.46435642 5.22516584 0.74458033 0.62445420 0.70799422 0.29997763
4.22901917 5.67941141 0.57436216 0.76228559 0.76954311 0.23139988
2.56967187 4.80377102 0.15224582 0.46318629 0.65089649 0.06133702
2.93643332 5.08461046 0.14189520 0.52929550 0.68894941 0.05716695
3.07925248 5.96468639 0.44931978 0.55503881 0.80819702 0.18102261
3.01011777 5.38904667 0.37058985 0.54257721 0.73019958 0.14930379
3.80905318 6.02258539 0.16860029 0.68658620 0.81604218 0.06792594
3.35594869 4.93685865 0.08057536 0.60491359 0.66892946 0.03246232
3.20098901 5.22287893 0.33247891 0.57698196 0.70768434 0.13394959
3.69542646 6.21877193 2.30798984 0.66610485 0.84262484 0.92984635
3.32676435 5.04632664 0.28872743 0.59965312 0.68376201 0.11632293
3.57843471 4.81786442 0.05274105 0.64501697 0.65280610 0.02124839
3.79300618 4.78197193 0.01463733 0.68369371 0.64794278 0.00589711
4.44932127 6.18760252 0.35939574 0.80199528 0.83840150 0.14479388
4.83126783 6.26030207 0.33303058 0.87084156 0.84825206 0.13417186
2.58950448 4.88202143 -0.21986996 0.46676117 0.66149920 -0.08858153
2.80788493 4.89991856 -0.25510553 0.50612450 0.66392422 -0.10277729
2.39365649 4.65203190 -0.04187471 0.43145934 0.63033628 -0.01687055
2.57216644 4.64160299 -0.07031851 0.46363595 0.62892324 -0.02833003
2.93969560 4.66604471 -0.27440321 0.52988350 0.63223499 -0.11055198
3.48691726 5.16189671 -0.33238006 0.62852085 0.69942147 -0.13390976
2.85616803 4.67818832 -0.08865511 0.51482755 0.63388044 -0.03571750
3.75974846 6.34582710 1.54327381 0.67769897 0.85984045 0.62175643
3.20767331 4.89915800 -0.12440773 0.57818681 0.66382116 -0.05012157
2.91243029 5.13067055 0.54796785 0.52496892 0.69519037 0.22076610
3.50107551 4.87220335 -0.15779555 0.63107288 0.66016889 -0.06357291
3.81781435 4.96123552 -0.18769212 0.68816543 0.67223245 -0.07561768
4.57134962 6.76764774 0.72393650 0.82399100 0.91699588 0.29166061
4.24255037 5.77335978 0.58277667 0.76472455 0.78227282 0.23478992
2.51170826 4.76671028 0.14905328 0.45273829 0.64587486 0.06005080
2.92729473 5.14281368 0.14408553 0.52764821 0.69683576 0.05804939
3.34588408 6.29256582 1.93295598 0.60309947 0.85262370 0.77875215
2.81556273 5.53565359 0.40536234 0.50750840 0.75006437 0.16331297
2.99166679 5.43574286 0.37321916 0.53925139 0.73652679 0.15036309
3.11011124 4.97978497 0.11461493 0.56060112 0.67474586 0.04617623
3.29912972 4.91975594 0.07889266 0.59467191 0.66661209 0.03178439
3.35272574 5.55071306 0.36006179 0.60433269 0.75210488 0.14506222
3.69743371 6.31257915 2.33449149 0.66646665 0.85533541 0.94052339
3.25563645 5.00705099 0.28365454 0.58683223 0.67844033 0.11427916
3.57867789 4.88227510 0.05439219 0.64506078 0.66153353 0.02191360
3.67499757 4.69423246 0.01108992 0.66242254 0.63605434 0.00446792
3.59229088 5.05600834 0.26676035 0.64751458 0.68507391 0.10747281
3.59374857 4.72609329 0.21563326 0.64777732 0.64037138 0.08687465
2.53487444 4.85202217 -0.21909836 0.45691404 0.65743434 -0.08827067
2.56726360 4.54910088 -0.24630588 0.46275222 0.61638945 -0.09923208
2.36437988 4.66697979 -0.04187471 0.42618218 0.63236171 -0.01687055
2.55260229 4.67518854 -0.07006399 0.46010950 0.63347393 -0.02822749
2.77082300 4.45803165 -0.26782063 0.49944404 0.60404986 -0.10789997
3.43102217 5.14884663 -0.33106953 0.61844569 0.69765317 -0.13338178
2.85234356 4.73897362 -0.08820636 0.51413822 0.64211661 -0.03553671
3.68838930 6.31519461 1.52988839 0.66483641 0.85568982 0.61636370
4.53710127 7.00958824 -0.11868441 0.81781769 0.94977808 -0.04781575
2.91721606 5.21462440 0.55675524 0.52583152 0.70656586 0.22430637
3.69605231 5.21463633 -0.15909898 0.66621768 0.70656753 -0.06409803
4.68435192 6.15914774 -0.19945939 0.84435982 0.83454597 -0.08035849
4.60069418 6.90364122 0.73759055 0.82928044 0.93542254 0.29716158
3.72068262 6.21699619 0.91876429 0.67065734 0.84238422 0.37015313
4.14917135 5.72080564 0.57295972 0.74789292 0.77515191 0.23083486
2.49631977 4.81081629 0.15075596 0.44996449 0.65185112 0.06073678
3.55176139 6.32274771 0.20770015 0.64020908 0.85671324 0.08367854
2.82681012 5.64602518 0.41443291 0.50953579 0.76501936 0.16696735
2.95267510 5.44568682 0.37239751 0.53222311 0.73787415 0.15003206
3.11210179 5.05378866 0.11736577 0.56095994 0.68477315 0.04728450
4.64481735 7.00600958 0.16975896 0.83723366 0.94929320 0.06839274
3.04275107 5.10648489 0.31853423 0.54845935 0.69191331 0.12833154
3.64539051 6.31423044 2.32647943 0.65708584 0.85555917 0.93729550
3.29123926 5.13129997 0.29239121 0.59324968 0.69527566 0.11779901
3.57125473 4.93713570 0.05566229 0.64372277 0.66896701 0.02242531
3.71296859 4.80401182 0.01383791 0.66926688 0.65092909 0.00557504
3.57869744 5.10468578 0.26884496 0.64506435 0.69166952 0.10831266
3.50980806 4.67691135 0.21028079 0.63264692 0.63370740 0.08471823
2.50706315 4.87319803 -0.21918739 0.45190102 0.66030365 -0.08830654
2.83416343 5.09175253 -0.25884122 0.51086122 0.68991709 -0.10428233
2.31021523 4.63154173 -0.04290206 0.41641894 0.62755996 -0.01728444
2.57183194 4.78077316 -0.06876592 0.46357566 0.64778036 -0.02770452
2.72822404 4.45143032 -0.26712772 0.49176553 0.60315537 -0.10762081
2.96160698 4.51023626 -0.30635649 0.53383309 0.61112338 -0.12342536
2.77991462 4.68440723 -0.08896028 0.50108278 0.63472307 -0.03584045
3.65834737 6.35522175 1.53407133 0.65942132 0.86111337 0.61804891
2.91035533 4.57215357 -0.12540828 0.52459490 0.61951303 -0.05052467
2.60397530 5.07642221 0.55744761 0.46936953 0.68783993 0.22458532
2.98667407 5.41692162 0.58126754 0.53835142 0.73397654 0.23418193
3.37339544 4.82054472 -0.15740985 0.60805839 0.65316927 -0.06341751
4.59977627 6.12780046 -0.19885430 0.82911497 0.83029848 -0.08011471
3.28553915 5.38457584 0.57070315 0.59222221 0.72959381 0.22992572
3.45292377 5.26149464 0.52605748 0.62239349 0.71291667 0.21193881
3.66053009 6.20439768 0.91269517 0.65981477 0.84067720 0.36770797
3.35991240 5.28119802 0.74318445 0.60562807 0.71558642 0.29941526
4.38422155 6.12781477 0.62004089 0.79026097 0.83030045 0.24980299
2.47686791 4.84778833 0.15203299 0.44645828 0.65686071 0.06125128
2.83715773 5.13381910 0.14160950 0.51140094 0.69561702 0.05705185
3.18415666 6.46736479 0.49275395 0.57394791 0.87630844 0.19852144
3.72785735 6.14807892 0.17135115 0.67195058 0.83304614 0.06903420
3.52971315 6.01623631 0.39775842 0.63623488 0.81518185 0.16024950
3.62343550 6.36848068 2.33818960 0.65312839 0.86290991 0.94201326
3.38115859 5.34367752 0.30845538 0.60945773 0.72405219 0.12427096
3.53207183 4.94806051 0.05521776 0.63665998 0.67044729 0.02224621
3.59866714 4.71784449 0.01039043 0.64866388 0.63925368 0.00418611
3.47988319 5.03001356 0.26115793 0.62725294 0.68155169 0.10521569
3.48393464 4.70367193 0.21063763 0.62798321 0.63733333 0.08486200
2.45666003 4.84953356 -0.21853450 0.44281578 0.65709716 -0.08804350
2.57472658 4.69824266 -0.24908690 0.46409741 0.63659769 -0.10035250
2.26445842 4.61179543 -0.04359918 0.40817124 0.62488437 -0.01756530
2.45781970 4.63988018 -0.07103118 0.44302481 0.62868977 -0.02861715
2.67965341 4.43417978 -0.26613784 0.48301062 0.60081798 -0.10722201
3.68776941 6.20235348 1.13387370 0.66472465 0.84040022 0.45681670
3.28079414 5.06100321 -0.32620180 0.59136689 0.68575066 -0.13142066
2.73838663 4.68102121 -0.08917568 0.49359733 0.63426423 -0.03592723
2.94682121 4.69343328 -0.12512831 0.53116792 0.63594604 -0.05041188
2.60141921 5.13120937 0.56326276 0.46890879 0.69526339 0.22692813
2.97642183 5.45879221 0.58496749 0.53650343 0.73964989 0.23567256
4.24819088 6.14154434 -0.16267675 0.76574129 0.83216071 -0.06553945
3.78061509 5.09213781 -0.18834499 0.68146020 0.68996930 -0.07588071
3.04046011 5.03347969 0.52264524 0.54804641 0.68202132 0.21056409
4.01930714 6.18150473 0.64012152 0.72448474 0.83757526 0.25789312
3.61735344 6.19761038 0.90864909 0.65203214 0.83975750 0.36607790
3.34029102 5.30533457 0.74458033 0.60209131 0.71885681 0.29997763
4.22123051 5.95805740 0.59660047 0.76088166 0.80729884 0.24035928
2.41199589 4.77546024 0.14703132 0.43476504 0.64706045 0.05923619
2.64807105 4.84793425 0.12532492 0.47731784 0.65688050 0.05049109
3.14584565 6.46615124 0.49118403 0.56704229 0.87614399 0.19788894
3.38523507 6.40332985 0.45883548 0.61019254 0.86763191 0.18485633
2.94687510 4.90405083 0.10816763 0.53117764 0.66448408 0.04357873
3.72691512 6.28572321 1.92351151 0.67178071 0.85169655 0.77494717
3.13296890 4.85205650 0.07347872 0.56472123 0.65743905 0.02960321
3.64673114 6.28503275 0.42013121 0.65732747 0.85160297 0.16926308
3.60638356 6.40873528 2.34681797 0.65005475 0.86836427 0.94548947
4.49570560 7.16684818 0.45937398 0.81035608 0.97108632 0.18507327
3.45704412 4.89101648 0.05236002 0.62313616 0.66271800 0.02109488
3.55097365 4.70133400 0.00934120 0.64006710 0.63701659 0.00376340
3.37646270 4.92918253 0.25190741 0.60861129 0.66788936 0.10148883
3.47122097 4.73288345 0.21158917 0.62569159 0.64129144 0.08524536
2.43022561 4.85388994 -0.21841580 0.43805096 0.65768743 -0.08799568
2.82021832 5.19980097 -0.26066756 0.50834757 0.70455736 -0.10501813
3.14191198 6.16278744 1.13522875 0.56633323 0.83503914 0.45736265
2.23144603 4.59898233 -0.04407617 0.40222070 0.62314826 -0.01775747
2.43405819 4.64787483 -0.07108208 0.43874177 0.62977302 -0.02863765
2.70561528 4.52588081 -0.26841453 0.48769027 0.61324322 -0.10813924
3.66447783 6.22989035 1.13579082 0.66052634 0.84413135 0.45758909
2.92919850 4.56938934 -0.30735502 0.52799141 0.61913848 -0.12382764
2.70933104 4.68173075 -0.08930133 0.48836002 0.63436037 -0.03597785
3.00217605 4.83099699 -0.12479327 0.54114568 0.65458554 -0.05027690
2.63074756 5.27201366 0.58022356 0.47419527 0.71434194 0.23376133
3.25506020 4.76135397 -0.15702415 0.58672833 0.64514911 -0.06326212
4.25786972 5.80623102 -0.19517604 0.76748592 0.78672677 -0.07863281
2.99967527 5.03708363 0.52063352 0.54069489 0.68250966 0.20975360
3.98254514 6.20997906 0.64054161 0.71785831 0.84143341 0.25806236
4.75833464 6.81130934 0.69797534 0.85769528 0.92291188 0.28120133
2.40488505 4.83710432 0.14979820 0.43348330 0.65541303 0.06035092
2.46315670 4.58005095 0.10989743 0.44398683 0.62058312 0.04427564
2.66383600 5.55726385 0.40117592 0.48015949 0.75299251 0.16162635
2.90534258 5.58592367 0.38077837 0.52369136 0.75687581 0.15340856
2.98686385 5.04306269 0.11418511 0.53838563 0.68331981 0.04600307
3.70675039 6.34242725 1.93386519 0.66814601 0.85937977 0.77911848
4.00598288 6.27951717 0.13471471 0.72208303 0.85085565 0.05427406
2.97573924 5.19643879 0.32190546 0.53638041 0.70410180 0.12968975
3.55319285 6.40793705 2.33818960 0.64046711 0.86825615 0.94201326
3.28848386 5.32631922 0.30394614 0.59275299 0.72170019 0.12245427
3.69935226 5.30707741 0.06760130 0.66681248 0.71909297 0.02723531
3.55737996 4.77151728 0.01084010 0.64122182 0.64652622 0.00436728
3.40324116 5.03648233 0.25868243 0.61343813 0.68242818 0.10421836
3.47670054 4.80299664 0.21515748 0.62667924 0.65079159 0.08668296
2.38564301 4.84031057 -0.21794097 0.43001488 0.65584749 -0.08780438
2.62627816 4.91815138 -0.25361124 0.47338966 0.66639465 -0.10217527
3.11202645 6.20000553 1.13856196 0.56094635 0.84008205 0.45870551
2.21275902 4.63460732 -0.04363587 0.39885235 0.62797529 -0.01758009
2.40665388 4.66662407 -0.07103118 0.43380213 0.63231349 -0.02861715
2.85158825 4.84146404 -0.27697688 0.51400208 0.65600377 -0.11158886
3.62526202 6.25279188 1.13579082 0.65345764 0.84723443 0.45758909
2.84992599 4.50847816 -0.30442190 0.51370245 0.61088520 -0.12264594
2.70053148 4.73522091 -0.08892437 0.48677391 0.64160818 -0.03582598
2.92026210 4.76638842 -0.12501816 0.52638060 0.64583123 -0.05036750
2.49241138 5.07246256 0.55090559 0.44926003 0.68730336 0.22194965
2.90011334 5.48173952 0.58311754 0.52274877 0.74275917 0.23492725
3.23286700 4.79334641 -0.15707070 0.58272797 0.64948398 -0.06328087
4.02002001 5.55638885 -0.19245316 0.72461325 0.75287396 -0.07753582
2.94596267 5.01804781 0.51571596 0.53101313 0.67993033 0.20777240
3.96053290 6.26172781 0.64390260 0.71389061 0.84844524 0.25941643
4.16403294 6.03689003 0.59980601 0.75057173 0.81798041 0.24165073
4.41680765 5.96027279 0.55127394 0.79613465 0.80759901 0.22209807
3.46305060 5.17051649 0.70299411 0.62421882 0.70058942 0.28322330
2.38402748 4.87188816 0.15096880 0.42972368 0.66012615 0.06082254
2.54926085 4.81036043 0.12151567 0.45950720 0.65178931 0.04895641
2.47189212 5.23819780 0.36873114 0.44556141 0.70976001 0.14855495
2.86195898 5.58812761 0.37929940 0.51587141 0.75717443 0.15281270
2.93909574 5.03406477 0.11280968 0.52977538 0.68210059 0.04544893
3.67354441 6.37732840 1.93748891 0.66216058 0.86410874 0.78057837
3.12092137 4.96872711 0.07684413 0.56254965 0.67324752 0.03095908
3.56454277 6.32514143 0.41967151 0.64251292 0.85703760 0.16907787
3.54734802 6.49368191 2.36160970 0.63941354 0.87987429 0.95144880
3.18507743 5.23292732 0.29450491 0.57411385 0.70904589 0.11865057
3.69412422 5.37148142 0.06918894 0.66587013 0.72781956 0.02787494
3.71899223 5.05239534 0.01888423 0.67035264 0.68458432 0.00760811
3.38034034 5.07108068 0.25972474 0.60931021 0.68711615 0.10463829
3.47210670 4.86039877 0.21777424 0.62585121 0.65856940 0.08773721
2.39848375 4.94533157 -0.21942480 0.43232945 0.67007750 -0.08840219
2.57376862 4.89393044 -0.25265658 0.46392474 0.66311282 -0.10179066
2.24176478 4.77353477 -0.04110420 0.40408069 0.64679956 -0.01656012
2.39735699 4.72080469 -0.07047123 0.43212634 0.63965482 -0.02839155
2.80315566 4.82809591 -0.27608600 0.50527203 0.65419245 -0.11122993
2.74600196 4.40613747 -0.29999104 0.49496999 0.59701836 -0.12086084
2.65709949 4.72763634 -0.08917568 0.47894523 0.64058048 -0.03592723
2.89545822 4.79318333 -0.12499521 0.52190965 0.64946187 -0.05035825
2.40816212 4.97881079 0.53612548 0.43407398 0.67461383 0.21599503
2.68548727 5.15689373 0.53802419 0.48406217 0.69874352 0.21675998
3.27982640 4.93039370 -0.15753619 0.59119248 0.66805345 -0.06346841
4.12039137 5.76994562 -0.19430026 0.74270529 0.78181022 -0.07827998
2.96186662 5.11919641 0.52644515 0.53387988 0.69363570 0.21209501
4.17159462 5.70557213 0.51868784 0.75193471 0.77308780 0.20896973
3.46637058 5.24686003 0.71184450 0.62481725 0.71093369 0.28678897
2.37830353 4.93904686 0.15405494 0.42869195 0.66922593 0.06206588
2.42589021 4.64952755 0.11199252 0.43726951 0.62999696 0.04511971
2.48305845 5.34955931 0.37797615 0.44757414 0.72484916 0.15227959
2.83401704 5.62021446 0.38061404 0.51083481 0.76152211 0.15334235
3.00250101 5.21902466 0.12106223 0.54120427 0.70716208 0.04877373
3.64289308 6.41711044 1.94266582 0.65663564 0.86949909 0.78266406
3.13620591 5.06283903 0.08006323 0.56530470 0.68599939 0.03225599
3.01423168 5.42199707 0.33845520 0.54331875 0.73466426 0.13635734
3.50916839 6.52087593 2.36345863 0.63253164 0.88355905 0.95219374
3.03136659 5.05308867 0.27801800 0.54640728 0.68467826 0.11200830
3.29832697 4.85750580 0.04861320 0.59452724 0.65817738 0.01958536
3.60218978 4.95946980 0.01528686 0.64929885 0.67199320 0.00615879
3.26877332 4.97022247 0.25021365 0.58920014 0.67345017 0.10080644
3.40798068 4.83491087 0.21432488 0.61429244 0.65511584 0.08634752
2.38103890 4.98923111 -0.21989962 0.42918500 0.67602575 -0.08859348
2.47814035 4.78595352 -0.24975103 0.44668764 0.64848226 -0.10062007
2.27493119 4.92573404 -0.03831569 0.41005898 0.66742212 -0.01543668
2.33070111 4.66257715 -0.07151477 0.42011157 0.63176513 -0.02881198
2.72145724 4.75518703 -0.27351233 0.49054581 0.64431351 -0.11019305
2.72774315 4.43859529 -0.30055270 0.49167883 0.60141629 -0.12108711
2.69855475 4.87397242 -0.08784735 0.48641759 0.66040856 -0.03539207
2.81689477 4.73069382 -0.12521093 0.50774854 0.64099473 -0.05044516
2.37175250 4.98306894 0.53467172 0.42751113 0.67519081 0.21540934
2.58640909 5.04485416 0.52114308 0.46620321 0.68356252 0.20995890
3.27061319 4.98442173 -0.15766920 0.58953178 0.67537409 -0.06352200
3.38888693 4.81518459 -0.18473041 0.61085075 0.65244299 -0.07442446
2.87582326 5.04256153 0.51415128 0.51837045 0.68325186 0.20714203
3.43985987 5.59727812 0.55525619 0.62003869 0.75841433 0.22370243
3.68957496 6.19443750 0.87719220 0.66505015 0.83932757 0.35340449
4.09778595 6.10363579 0.60160911 0.73863065 0.82702422 0.24237716
3.43871880 5.27685595 0.71318543 0.61983299 0.71499807 0.28732920
3.07858706 6.51237535 0.24578765 0.55491883 0.88240725 0.09902329
2.51068830 4.88457537 0.12380122 0.45255446 0.66184521 0.04987722
2.36070752 5.16900635 0.35913724 0.42552024 0.70038480 0.14468974
2.61756873 5.27606297 0.34725490 0.47181976 0.71489060 0.13990256
2.90499425 5.12284613 0.11538860 0.52362853 0.69413018 0.04648793
3.05928540 5.00925446 0.07691730 0.55143970 0.67873889 0.03098856
2.98010516 5.44082928 0.33845520 0.53716737 0.73721594 0.13635734
2.98934269 5.05489874 0.27660885 0.53883243 0.68492353 0.11144058
3.28876996 4.90976191 0.04981980 0.59280455 0.66525793 0.02007147
3.59319091 5.01280737 0.01623616 0.64767677 0.67922026 0.00654125
3.26773167 5.03764677 0.25386176 0.58901238 0.68258595 0.10227620
3.39471865 4.88075447 0.21610904 0.61190194 0.66132754 0.08706633
2.33699465 4.97689390 -0.21945448 0.42124596 0.67435414 -0.08841415
2.16717768 5.16790581 0.94250405 0.39063627 0.70023566 0.37971744
2.45076537 4.80676317 -0.24987555 0.44175327 0.65130192 -0.10067023
2.21277022 4.87062931 -0.03970994 0.39885437 0.65995556 -0.01599840
2.29068065 4.65563822 -0.07182020 0.41289783 0.63082492 -0.02893503
2.73316407 4.51022577 -0.30254969 0.49265596 0.61112201 -0.12189167
2.56228423 4.69556236 -0.08983984 0.46185467 0.63623452 -0.03619481
3.25186825 6.15073681 1.45375848 0.58615297 0.83340627 0.58569235
2.75858951 4.70010948 -0.12533943 0.49723893 0.63685066 -0.05049694
3.74790955 6.29236221 1.46619034 0.67556500 0.85259610 0.59070092
2.36879611 5.05910635 0.54290980 0.42697823 0.68549365 0.21872830
2.54925108 5.05038404 0.51975560 0.45950544 0.68431181 0.20939991
3.47379637 5.37002087 -0.15911227 0.62615579 0.72762161 -0.06410339
3.36659026 4.84785366 -0.18484187 0.60683179 0.65686953 -0.07446937
2.90117526 5.16295481 0.52733928 0.52294016 0.69956481 0.21245523
2.99437690 4.94644022 0.47207138 0.53973985 0.67022771 0.19018881
3.61834002 6.16293812 0.86825830 0.65220994 0.83505952 0.34980518
4.19831800 6.34034967 0.62705302 0.75675166 0.85909826 0.25262806
4.34427166 6.09912443 0.55775416 0.78305995 0.82641298 0.22470883
3.40762830 5.30169916 0.71372181 0.61422890 0.71836424 0.28754529
2.24238920 4.80897427 0.14469011 0.40419322 0.65160149 0.05829297
2.45359683 4.84865999 0.12103951 0.44226363 0.65697879 0.04876458
2.23019981 4.96346951 0.33803070 0.40199608 0.67253512 0.13618630
2.62752604 5.38002062 0.35530710 0.47361460 0.72897655 0.14314665
2.80494261 5.01866150 0.10937113 0.50559413 0.68001348 0.04406360
3.40887046 6.18280029 1.85724831 0.61445284 0.83775079 0.74825096
2.88258338 4.78916740 0.06667472 0.51958895 0.64891773 0.02686201
2.96750808 5.49988079 0.34197968 0.53489673 0.74521726 0.13777728
2.94337368 5.04950047 0.27463606 0.53054649 0.68419206 0.11064578
3.73173809 6.31849194 2.27048802 0.67265010 0.85613662 0.91473758
3.22716022 4.88352537 0.04804165 0.58169931 0.66170293 0.01935509
3.60454249 5.09553909 0.01808481 0.64972293 0.69043016 0.00728604
3.31518340 5.18275213 0.26350313 0.59756559 0.70224726 0.10616053
3.37079692 4.91184092 0.21682270 0.60759002 0.66553962 0.08735385
2.29153585 4.96056414 -0.21894997 0.41305196 0.67214149 -0.08821089
2.06547976 5.01174450 0.91057277 0.37230510 0.67907625 0.36685291
2.43678355 4.85417271 -0.25062269 0.43923303 0.65772575 -0.10097124
2.14654064 4.80396748 -0.04132435 0.38691643 0.65092313 -0.01664881
2.30092216 4.75078058 -0.07067484 0.41474387 0.64371645 -0.02847359
2.47143221 4.44401741 -0.26376218 0.44547850 0.60215098 -0.10626490
2.71921778 4.55127954 -0.30342340 0.49014214 0.61668468 -0.12224367
2.53367114 4.71333408 -0.08982189 0.45669714 0.63864255 -0.03618757
3.19788933 6.14151287 1.44664741 0.57642323 0.83215648 0.58282745
2.74210691 4.73980618 -0.12527977 0.49426791 0.64222944 -0.05047290
3.69833231 6.29891872 1.46217644 0.66662866 0.85348451 0.58908379
2.35981178 5.10270166 0.54727113 0.42535877 0.69140071 0.22048540
2.45754027 4.92748165 0.50218076 0.44297445 0.66765893 0.20231932
2.91194940 4.54243946 -0.15578721 0.52488220 0.61548686 -0.06276378
3.30499291 4.80776405 -0.18430048 0.59572875 0.65143752 -0.07425125
2.96220613 5.33147621 0.54723299 0.53394103 0.72239894 0.22047004
3.00392914 5.01498222 0.47879338 0.54146171 0.67951494 0.19289699
3.63923264 6.26540565 0.88221747 0.65597588 0.84894359 0.35542908
4.67897797 7.14366817 0.72121537 0.84339118 0.96794552 0.29056433
4.22677135 5.99445581 0.54349774 0.76188040 0.81223071 0.21896517
3.36778998 5.29423857 0.70996714 0.60704803 0.71735334 0.28603262
3.53219104 5.17167187 0.66412932 0.63668150 0.70074594 0.26756540
2.25367188 4.89399290 0.14905328 0.40622693 0.66312128 0.06005080
2.34699464 4.69431448 0.11218298 0.42304847 0.63606548 0.04519645
2.21239376 4.98669291 0.33925173 0.39878651 0.67568183 0.13667823
2.51229048 5.20774651 0.33838102 0.45284325 0.70563394 0.13632745
2.84657025 5.15097332 0.11521667 0.51309758 0.69794136 0.04641866
3.38889551 6.21578312 1.86242509 0.61085230 0.84221989 0.75033659
2.97727180 4.99803829 0.07501511 0.53665668 0.67721909 0.03022220
3.92949152 7.38023806 0.50425905 0.70829535 1.00000000 0.20315664
2.93859434 5.09608603 0.27731344 0.52968502 0.69050431 0.11172445
3.68161225 6.30146694 2.25789857 0.66361481 0.85382974 0.90966552
3.43376350 5.25246429 0.06144128 0.61893982 0.71169305 0.02475356
3.70608854 5.29056835 0.02353084 0.66802675 0.71685606 0.00948014
3.39266515 5.36053753 0.27601087 0.61153179 0.72633666 0.11119967
3.32957244 4.90130949 0.21491960 0.60015923 0.66411263 0.08658712
2.25413847 4.94032621 -0.21844546 0.40631104 0.66939932 -0.08800763
2.10581183 5.18045473 0.94044399 0.37957501 0.70193601 0.37888747
2.42283535 4.88348103 -0.25103778 0.43671885 0.66169697 -0.10113847
2.10787702 4.77737665 -0.04205817 0.37994725 0.64732015 -0.01694446
2.27328825 4.75076675 -0.07082756 0.40976283 0.64371455 -0.02853511
2.51072168 4.56622696 -0.26688024 0.45256045 0.61870998 -0.10752111
2.72845364 4.61555195 -0.30529559 0.49180689 0.62539339 -0.12299794
2.53193355 4.76415110 -0.08942698 0.45638394 0.64552808 -0.03602847
3.18582201 6.18960381 1.45459497 0.57424808 0.83867264 0.58602935
2.75973272 4.82196188 -0.12509619 0.49744499 0.65336132 -0.05039894
3.67552996 6.32811689 1.46498621 0.66251850 0.85744077 0.59021580
2.34972095 5.16629982 0.55381316 0.42353991 0.70001805 0.22312106
2.42917800 4.94816589 0.50287449 0.43786213 0.67046154 0.20259883
2.87591434 4.54878426 -0.15574066 0.51838684 0.61634654 -0.06274503
3.29051638 4.85155249 -0.18452340 0.59311938 0.65737075 -0.07434106
2.97038388 5.42683029 0.55706811 0.53541511 0.73531914 0.22443242
3.00796342 5.09357643 0.48614559 0.54218888 0.69016427 0.19585906
4.53394651 7.01724052 0.70258325 0.81724906 0.95081490 0.28305778
4.22327948 6.06984043 0.54905218 0.76125097 0.82244509 0.22120295
3.35331941 5.34557581 0.71479458 0.60443968 0.72430938 0.28797749
3.48960233 5.17898893 0.66183984 0.62900484 0.70173740 0.26664302
2.76623869 6.11993551 0.21982156 0.49861771 0.82923281 0.08856203
2.89445186 5.87002659 0.17398821 0.52172828 0.79537088 0.07009663
2.16601348 4.96574068 0.33593747 0.39042643 0.67284286 0.13534299
2.43904877 5.13893938 0.33065748 0.43964136 0.69631082 0.13321577
2.64041066 4.84700680 0.09948527 0.47593707 0.65675479 0.04008077
3.36795759 6.27104378 1.87277877 0.60707825 0.84970754 0.75450790
2.84909368 4.85325193 0.06806479 0.51355243 0.65760100 0.02742204
2.93543148 5.58699369 0.34673005 0.52911490 0.75702077 0.13969111
3.61756802 6.35563993 0.37834859 0.65207082 0.86117005 0.15242964
3.64960074 6.33768129 2.26269460 0.65784472 0.85873669 0.91159773
3.14847875 4.87999296 0.04658103 0.56751692 0.66122431 0.01876663
3.30962205 4.79186440 0.00764244 0.59656316 0.64928317 0.00307900
3.35260963 5.37156963 0.27522913 0.60431176 0.72783148 0.11088472
3.36127162 5.01479292 0.22158045 0.60587305 0.67948931 0.08927066
2.21412301 4.93428802 -0.21811903 0.39909822 0.66858113 -0.08787612
2.41420650 4.94344521 -0.25207546 0.43516350 0.66982192 -0.10155653
2.11409187 4.87505722 -0.04037038 0.38106748 0.66055554 -0.01626448
2.24682903 4.77218056 -0.07072575 0.40499350 0.64661610 -0.02849409
2.53114462 4.67352200 -0.26945388 0.45624173 0.63324815 -0.10855798
2.80373597 4.81011057 -0.31172347 0.50537664 0.65175545 -0.12558761
2.42644787 4.63438654 -0.09089891 0.43737000 0.62794542 -0.03662149
3.06659389 5.43200397 -0.12353110 0.55275708 0.73602015 -0.04976839
3.65232491 6.37994671 1.47180986 0.65833575 0.86446357 0.59296495
2.39440227 5.35521650 0.57707369 0.43159375 0.72561568 0.23249230
2.41110229 4.99011421 0.50634325 0.43460396 0.67614543 0.20399632
2.85358715 4.57697105 -0.15578057 0.51436234 0.62016577 -0.06276111
3.18171334 4.75605011 -0.18340878 0.57350749 0.64443046 -0.07389200
2.98122883 5.52950430 0.56779730 0.53736991 0.74923116 0.22875501
2.94570589 5.06091070 0.47984371 0.53096688 0.68573815 0.19332014
4.46206856 7.00188971 0.69737428 0.80429298 0.94873494 0.28095919
4.73840332 6.89756536 0.63958973 0.85410267 0.93459928 0.25767887
3.44926858 5.18927336 0.66005909 0.62173462 0.70313090 0.26592559
2.18152285 4.89816952 0.14766982 0.39322200 0.66368717 0.05949344
2.16745496 5.05628490 0.34326372 0.39068624 0.68511134 0.13829459
2.37781954 5.09286022 0.32507023 0.42860469 0.69006717 0.13096477
2.55641913 4.76294613 0.09458532 0.46079749 0.64536482 0.03810668
2.91221690 5.03160334 0.07486878 0.52493042 0.68176711 0.03016325
2.90846562 5.62129354 0.34810922 0.52425426 0.76166832 0.14024675
3.10089111 5.53392315 0.30986449 0.55893916 0.74982989 0.12483867
3.61160088 6.36380053 2.26389360 0.65099519 0.86227578 0.91208082
3.20420170 5.03658962 0.05172496 0.57756102 0.68244272 0.02083903
3.75134802 5.49990225 0.02847723 0.67618477 0.74522018 0.01147295
3.17311263 5.15410757 0.25698867 0.57195717 0.69836605 0.10353598
3.37949967 5.11058617 0.22693290 0.60915869 0.69246900 0.09142706
2.67928290 6.08434200 -0.23651859 0.48294383 0.82441002 -0.09528896
2.37087893 4.93333006 -0.25149435 0.42735365 0.66845137 -0.10132241
2.08031130 4.88087368 -0.04051714 0.37497851 0.66134369 -0.01632361
2.24646187 4.84960222 -0.06983492 0.40492734 0.65710646 -0.02813520
2.59796858 4.87139988 -0.27455172 0.46828681 0.66005999 -0.11061180
2.75040913 4.78784895 -0.31028813 0.49576440 0.64873910 -0.12500934
3.68510485 6.22385645 1.07068121 0.66424435 0.84331375 0.43135762
2.39728141 4.64954042 -0.09089891 0.43211272 0.62999868 -0.03662149
2.62459755 4.72367096 -0.12544499 0.47308671 0.64004320 -0.05053946
2.35198855 5.35013342 0.57440841 0.42394865 0.72492695 0.23141851
2.40462947 5.05710363 0.51304942 0.43343723 0.68522227 0.20669810
2.85496211 4.64433384 -0.15597342 0.51461017 0.62929320 -0.06283880
2.97235441 4.50616932 -0.18082923 0.53577030 0.61057234 -0.07285275
2.92419147 5.50592709 0.56243271 0.52708888 0.74603653 0.22659372
3.07415509 5.35652351 0.51366377 0.55412000 0.72579277 0.20694561
4.53611660 7.21877861 0.71981299 0.81764024 0.97812271 0.28999934
4.54023647 6.70008850 0.61403924 0.81838286 0.90784180 0.24738504
3.39691901 5.18104601 0.65548015 0.61229855 0.70201612 0.26408082
2.71691132 6.21835041 0.22354619 0.48972639 0.84256774 0.09006262
3.24678183 6.79154825 0.22084209 0.58523613 0.92023432 0.08897319
2.14944267 5.10290480 0.34640354 0.38743952 0.69142818 0.13955957
2.32816648 5.06972551 0.32161927 0.41965470 0.68693250 0.12957445
2.46060944 4.65324497 0.08848188 0.44352767 0.63050067 0.03564771
3.02601504 5.30276155 0.08555033 0.54544270 0.71850818 0.03446664
3.73698401 6.32808924 1.86662900 0.67359567 0.85743701 0.75203025
3.49824691 6.87636232 0.45460981 0.63056302 0.93172634 0.18315387
3.00786710 5.44869232 0.30140969 0.54217148 0.73828137 0.12143238
3.60617471 6.44788742 2.28607512 0.65001714 0.87366933 0.92101735
3.16087008 5.03795624 0.05102640 0.56975049 0.68262786 0.02055759
4.19325876 6.22689581 0.04971173 0.75583971 0.84372562 0.02002793
3.72356367 6.14152575 0.33073220 0.67117661 0.83215821 0.13324587
3.41419506 5.23350048 0.23418847 0.61541259 0.70912355 0.09435020
2.64336777 6.10656929 -0.23660763 0.47647008 0.82742172 -0.09532483
2.31829786 4.90301752 -0.25045666 0.41787586 0.66434407 -0.10090435
2.08557677 4.98067522 -0.03879267 0.37592760 0.67486650 -0.01562885
2.30122614 5.04892302 -0.06723879 0.41479865 0.68411386 -0.02708926
2.59131336 4.93373775 -0.27583852 0.46708721 0.66850656 -0.11113023
2.65584159 4.69219828 -0.30623168 0.47871849 0.63577873 -0.12337507
3.66094732 6.27245855 1.07521021 0.65988994 0.84989923 0.43318227
2.37520742 4.67880535 -0.09075531 0.42813388 0.63396400 -0.03656363
2.54845166 4.65603495 -0.12566531 0.45936134 0.63087869 -0.05062823
2.20036936 5.08921242 0.53782159 0.39661911 0.68957293 0.21667835
2.40928531 5.14935541 0.52299309 0.43427643 0.69772214 0.21070422
2.81336188 4.64160967 -0.15589361 0.50711173 0.62892413 -0.06280665
2.93740082 4.51472282 -0.18073368 0.52946985 0.61173135 -0.07281426
2.83369827 5.41658163 0.54879767 0.51077735 0.73393047 0.22110042
3.04733253 5.38782930 0.51513422 0.54928517 0.73003465 0.20753804
3.09024811 6.12608814 0.86269701 0.55702078 0.83006644 0.34756464
4.07720327 6.57630634 0.64047617 0.73492056 0.89106965 0.25803599
4.61580515 6.90367556 0.63366497 0.83200419 0.93542719 0.25529188
3.75686836 6.25361156 0.84808636 0.67717981 0.84734553 0.34167829
3.40544176 5.26545191 0.66514683 0.61383480 0.71345288 0.26797533
2.32483864 5.40660810 0.17555147 0.41905484 0.73257911 0.07072644
2.55923963 5.45051575 0.14903757 0.46130589 0.73852843 0.06004447
2.06674647 4.99277830 0.33471644 0.37253344 0.67650640 0.13485105
2.30288315 5.09876204 0.32293394 0.41509733 0.69086689 0.13010411
2.47254777 4.74852371 0.09235026 0.44567958 0.64341062 0.03720621
2.83299208 5.03997993 0.07369820 0.51065010 0.68290210 0.02969164
3.70497966 6.36480951 1.87063646 0.66782683 0.86241251 0.75364476
2.98603845 5.49022675 0.30324155 0.53823686 0.74390918 0.12217040
3.58039808 6.49711514 2.29566693 0.64537084 0.88033950 0.92488170
2.97854137 4.81240845 0.04188163 0.53688550 0.65206683 0.01687333
4.53174067 6.81832981 0.06669933 0.81685144 0.92386311 0.02687192
3.02860594 5.05973053 0.24682614 0.54590970 0.68557823 0.09944168
3.23792362 5.03369617 0.21848790 0.58363944 0.68205065 0.08802473
2.52411413 5.93143129 -0.23352124 0.45497447 0.80369103 -0.09408138
2.30614901 4.95730352 -0.25136983 0.41568601 0.67169970 -0.10127225
2.03690434 4.95108128 -0.03963656 0.36715436 0.67085660 -0.01596883
2.19194126 4.89202356 -0.06963130 0.39509994 0.66285443 -0.02805316
2.50189066 4.83605051 -0.27267095 0.45096865 0.65527028 -0.10985408
3.10086989 6.09537077 1.07284367 0.55893534 0.82590437 0.43222883
2.53709912 4.55025673 -0.30055270 0.45731503 0.61654603 -0.12108711
2.35108566 4.70439148 -0.09064760 0.42378590 0.63743085 -0.03652024
2.66540742 4.94073677 -0.12496308 0.48044276 0.66945493 -0.05034531
2.15757394 5.07731771 0.53442943 0.38890517 0.68796122 0.21531172
2.52001405 5.47247267 0.56253648 0.45423543 0.74150354 0.22663553
2.97274280 4.97751617 -0.15712389 0.53584033 0.67443842 -0.06330231
2.90897632 4.53308964 -0.18073368 0.52434635 0.61421996 -0.07281426
2.61783957 5.07854748 0.50386912 0.47186860 0.68812788 0.20299953
3.05822277 5.48664045 0.52479708 0.55124819 0.74342322 0.21143103
3.06656981 6.17556047 0.86761016 0.55275273 0.83676982 0.34954408
3.79294324 6.20216608 0.59339494 0.68368238 0.84037483 0.23906782
3.68533611 6.22243357 0.83950424 0.66428608 0.84312099 0.33822072
3.37979674 5.29842758 0.66692758 0.60921222 0.71792096 0.26869276
2.16899943 5.13002014 0.15873735 0.39096463 0.69510227 0.06395233
2.72745943 5.90107393 0.17189312 0.49162769 0.79957771 0.06925256
2.01897836 4.96499968 0.33087888 0.36392316 0.67274249 0.13330497
2.21860027 4.99673271 0.31241676 0.39990523 0.67704219 0.12586693
2.52320051 4.92251873 0.10000105 0.45480978 0.66698647 0.04028857
2.86461306 5.17110443 0.07845368 0.51634979 0.70066905 0.03160753
3.66588354 6.38963985 1.87113738 0.66077971 0.86577696 0.75384659
2.69236231 5.45125484 0.32895443 0.48530141 0.73862857 0.13252965
2.96285844 5.52994585 0.30493253 0.53405863 0.74929100 0.12285167
3.50473619 6.45585823 2.27288604 0.63173270 0.87474930 0.91570371
2.93375278 4.80708694 0.04099256 0.52881229 0.65134579 0.01651514
3.20576286 4.90023136 0.00844185 0.57784241 0.66396660 0.00340107
2.98163080 5.05282497 0.24487181 0.53744239 0.68464255 0.09865431
3.30192685 5.20365620 0.22907388 0.59517610 0.70507973 0.09228963
2.37807417 5.68484211 -0.22930714 0.42865059 0.77027899 -0.09238360
2.25985837 4.93902302 -0.25062269 0.40734208 0.66922271 -0.10097124
2.21778536 5.19810343 0.92123449 0.39975837 0.70432734 0.37114832
2.02134037 5.00277567 -0.03886605 0.36434892 0.67786103 -0.01565841
2.11562276 4.80338478 -0.07105663 0.38134342 0.65084416 -0.02862740
2.47596002 4.86059952 -0.27291843 0.44629464 0.65859658 -0.10995378
3.05899525 6.10766220 1.07156551 0.55138743 0.82756978 0.43171391
2.50942850 4.56785631 -0.30061510 0.45232737 0.61893076 -0.12111226
2.29170203 4.65794086 -0.09125791 0.41308191 0.63113695 -0.03676612
2.51525474 4.73528433 -0.12554139 0.45337754 0.64161676 -0.05057830
2.09328771 4.99024773 0.52158767 0.37731752 0.67616349 0.21013801
2.50579715 5.50956535 0.56577390 0.45167282 0.74652952 0.22793983
3.14545441 5.32620478 -0.15841402 0.56697178 0.72168469 -0.06382208
2.87140417 4.52148485 -0.18049483 0.51757389 0.61264753 -0.07271802
2.65032506 5.20259237 0.51795119 0.47772413 0.70493555 0.20867294
2.44037485 4.96407413 0.66848463 0.43988037 0.67261708 0.26932007
3.36273503 5.55316114 0.51505983 0.60613686 0.75243658 0.20750807
3.33440971 5.11765432 0.42944631 0.60103118 0.69342673 0.17301597
2.93305802 4.99792290 0.64506447 0.52868706 0.67720348 0.25988454
2.16767097 5.19556236 0.16192991 0.39072520 0.70398301 0.06523856
2.46824932 5.41118097 0.14551400 0.44490477 0.73319870 0.05862489
1.98968089 4.95964336 0.32948339 0.35864228 0.67201674 0.13274276
2.29429770 5.23130465 0.33262944 0.41354978 0.70882601 0.13401024
2.43990970 4.81470966 0.09424146 0.43979654 0.65237862 0.03796814
2.53486657 4.63168716 0.05533472 0.45691261 0.62757963 0.02229333
3.64725590 6.42702007 1.87714839 0.65742207 0.87084186 0.75626832
2.57630706 5.27720213 0.31301764 0.46438232 0.71504498 0.12610900
2.92455149 5.52096748 0.30310065 0.52715379 0.74807447 0.12211364
2.91106749 4.82085848 0.04099256 0.52472323 0.65321177 0.01651514
3.14876795 4.86337423 0.00689298 0.56756902 0.65897256 0.00277706
2.94778538 5.04954863 0.24356893 0.53134167 0.68419862 0.09812941
3.62423444 5.76750994 0.26773056 0.65327245 0.78148019 0.10786369
2.28616214 5.53680038 -0.22675495 0.41208336 0.75021976 -0.09135537
2.24237013 4.96235085 -0.25091323 0.40418980 0.67238355 -0.10108829
2.18091583 5.17946148 0.91590130 0.39311257 0.70180142 0.36899966
2.02487755 5.08107758 -0.03750848 0.36498651 0.68847066 -0.01511147
2.10181403 4.83344078 -0.07077666 0.37885439 0.65491664 -0.02851460
2.43517876 4.83643007 -0.27192855 0.43894377 0.65532172 -0.10955498
3.03540277 6.13264132 1.07348275 0.54713482 0.83095443 0.43248633
2.46096444 4.53055191 -0.29886770 0.44359165 0.61387610 -0.12040826
2.29921699 4.72995806 -0.09064760 0.41443649 0.64089507 -0.03652024
2.41985917 4.60924768 -0.12589937 0.43618241 0.62453914 -0.05072252
3.27954602 6.14949942 1.39353848 0.59114194 0.83323860 0.56143087
2.06863761 5.01984692 0.52376837 0.37287432 0.68017411 0.21101658
2.41719770 5.40569210 0.55051160 0.43570265 0.73245496 0.22179092
2.85895753 4.56480074 -0.18073368 0.51533037 0.61851674 -0.07281426
2.58042192 5.14439726 0.50856316 0.46512401 0.69705033 0.20489068
2.38005447 4.91863298 0.65865844 0.42900756 0.66645992 0.26536128
3.00612235 5.03153801 0.45155033 0.54185700 0.68175822 0.18192127
4.48393106 6.96400785 0.63162833 0.80823374 0.94360209 0.25447136
2.12372279 5.18131924 0.16033362 0.38280347 0.70205313 0.06459545
2.44655919 5.45388174 0.14694247 0.44099510 0.73898453 0.05920040
1.98668146 5.04445076 0.33628634 0.35810161 0.68350786 0.13548353
2.18500638 5.07016945 0.31685370 0.39384991 0.68699265 0.12765449
2.32019782 4.64901924 0.08555911 0.41821831 0.62992811 0.03447018
2.44266701 4.53165388 0.05050608 0.44029352 0.61402541 0.02034796
2.57482004 5.35990047 0.31868744 0.46411428 0.72625035 0.12839326
2.88423347 5.52863932 0.30225515 0.51988637 0.74911398 0.12177300
2.85836053 4.80118465 0.03959544 0.51522279 0.65054601 0.01595227
3.20254159 5.01420593 0.01079014 0.57726181 0.67940980 0.00434715
2.91797876 5.07143736 0.24382950 0.52596903 0.68716449 0.09823439
3.35017681 5.40903807 0.24096824 0.60387319 0.73290837 0.09708164
2.26548910 5.58631372 -0.22731881 0.40835702 0.75692868 -0.09158254
2.70403361 6.07454729 -0.27590087 0.48740515 0.82308286 -0.11115535
2.14148545 5.17668676 0.91290140 0.38600522 0.70142543 0.36779106
2.01384044 5.14778233 -0.03644445 0.36299706 0.69750899 -0.01468279
2.10074592 4.91447878 -0.06983492 0.37866187 0.66589707 -0.02813520
2.42941594 4.90188742 -0.27331439 0.43790501 0.66419095 -0.11011331
2.83242702 5.28639221 -0.32514089 0.51054823 0.71629018 -0.13099325
2.28314900 4.77323008 -0.09036040 0.41154024 0.64675826 -0.03640453
2.39362717 4.62967968 -0.12588561 0.43145403 0.62730765 -0.05071698
3.23717856 6.16305590 1.39193296 0.58350515 0.83507550 0.56078398
2.06878853 5.11199474 0.53418714 0.37290150 0.69265985 0.21521410
2.23814726 5.09392214 0.50888693 0.40342861 0.69021112 0.20502111
3.31775522 5.78590918 -0.16002335 0.59802920 0.78397322 -0.06447044
2.80272985 4.53853607 -0.18031968 0.50519526 0.61495793 -0.07264746
2.42312169 4.90522909 0.47659904 0.43677047 0.66464376 0.19201292
2.94125962 5.49839449 0.51996565 0.53016543 0.74501586 0.20948453
2.42338681 5.09100533 0.68409103 0.43681827 0.68981588 0.27560762
3.20434427 5.44378185 0.49742946 0.57758671 0.73761600 0.20040512
4.49902773 7.08435965 0.64181149 0.81095493 0.95990938 0.25857395
2.12438464 5.27805281 0.16512246 0.38292277 0.71516025 0.06652478
2.42849159 5.50564766 0.14884710 0.43773839 0.74599868 0.05996774
1.95352435 5.05311203 0.33593747 0.35212502 0.68468142 0.13534299
2.11311769 4.99033880 0.30847281 0.38089189 0.67617583 0.12427799
2.82233119 5.75600243 0.13782519 0.50872844 0.77992100 0.05552722
3.39811182 6.16924572 1.78748357 0.61251354 0.83591419 0.72014403
2.39981031 5.07440901 0.29309666 0.43256858 0.68756711 0.11808322
2.87879658 5.60334301 0.30676439 0.51890641 0.75923610 0.12358969
2.85629129 4.86742496 0.04137359 0.51484978 0.65952140 0.01666865
3.05633616 4.85360336 0.00544404 0.55090809 0.65764862 0.00219330
2.89779711 5.11054468 0.24539298 0.52233124 0.69246340 0.09886429
3.17805386 5.20551300 0.22526769 0.57284784 0.70533133 0.09075618
2.18339348 5.48137522 -0.22541951 0.39355919 0.74270982 -0.09081735
2.67227125 6.10605192 -0.27623293 0.48167998 0.82735163 -0.11128913
1.93318141 5.03321457 -0.03893944 0.34845817 0.68198538 -0.01568798
2.08936334 4.97360134 -0.06919861 0.37661013 0.67390800 -0.02787884
2.42466545 4.97106218 -0.27479917 0.43704873 0.67356396 -0.11071149
2.40102220 4.55582428 -0.29868048 0.43278700 0.61730045 -0.12033284
2.24213266 4.76391506 -0.09059375 0.40414700 0.64549613 -0.03649854
2.35077667 4.61794615 -0.12595445 0.42373019 0.62571776 -0.05074472
3.19567537 6.17806101 1.39072883 0.57602417 0.83710861 0.56029886
2.10418010 5.29672098 0.55672073 0.37928089 0.71768969 0.22429247
2.20212555 5.09878016 0.50773072 0.39693567 0.69086933 0.20455530
2.82626796 4.99558973 -0.15693104 0.50943804 0.67688733 -0.06322461
3.78479052 6.30774355 1.40254331 0.68221283 0.85468024 0.56505871
2.94789624 4.83895588 -0.18296292 0.53136170 0.65566391 -0.07371237
2.42416143 4.98661041 0.48486948 0.43695790 0.67567068 0.19534494
2.80404115 5.32353973 0.49685878 0.50543165 0.72132361 0.20017520
2.45131803 5.23538685 0.70489949 0.44185290 0.70937914 0.28399095
3.12141538 5.37931108 0.48761252 0.56263870 0.72888041 0.19645005
2.95972919 4.89385080 0.59442741 0.53349459 0.66310203 0.23948379
2.12755060 5.38429546 0.17044339 0.38349345 0.72955579 0.06866848
2.30494833 5.31765079 0.13827641 0.41546959 0.72052562 0.05570900
2.05748630 5.42718506 0.36977774 0.37086427 0.73536718 0.14897661
2.08017588 4.99984264 0.30814415 0.37495410 0.67746359 0.12414557
2.25728154 4.66879606 0.08512928 0.40687758 0.63260776 0.03429701
2.46391273 4.71045685 0.05665163 0.44412309 0.63825268 0.02282389
3.36856675 6.20746613 1.79249275 0.60718805 0.84109294 0.72216213
2.35035229 5.05135536 0.28987864 0.42365369 0.68444341 0.11678673
3.60751534 7.11959124 0.42555469 0.65025878 0.96468312 0.17144811
2.83161998 4.89567900 0.04175462 0.51040274 0.66334975 0.01682216
3.00562572 4.84050989 0.00449474 0.54176748 0.65587449 0.00181085
3.06008387 5.47951555 0.27158102 0.55158365 0.74245781 0.10941496
3.73484302 6.27432442 2.18203473 0.67320973 0.85015202 0.87910140
3.15977812 5.24927711 0.22693290 0.56955361 0.71126121 0.09142706
2.15179777 5.50244522 -0.22553821 0.38786402 0.74556476 -0.09086516
2.23836017 5.21102238 -0.25560361 0.40346700 0.70607781 -0.10297796
1.90710413 5.06025219 -0.03864590 0.34375772 0.68564892 -0.01556972
2.05807209 4.98663092 -0.06919861 0.37096986 0.67567343 -0.02787884
2.40797925 5.01689482 -0.27564055 0.43404102 0.67977411 -0.11105047
2.51060510 4.83464432 -0.30797908 0.45253944 0.65507972 -0.12407906
2.23215389 4.82154226 -0.09016294 0.40234831 0.65330446 -0.03632498
2.35603285 4.70043564 -0.12578005 0.42467764 0.63689488 -0.05067445
2.07228804 5.31354141 0.55720532 0.37353230 0.71996886 0.22448771
2.10663199 4.96462440 0.48899963 0.37972283 0.67269164 0.19700889
3.06189895 5.49633455 -0.15876648 0.55191082 0.74473673 -0.06396408
3.70529675 6.26371002 1.38720846 0.66788399 0.84871382 0.55888057
3.25513315 5.41508913 -0.18815389 0.58674151 0.73372823 -0.07580372
2.40554881 5.02868319 0.48822233 0.43360293 0.68137139 0.19669573
2.62028503 5.05377579 0.46261856 0.47230938 0.68477136 0.18638045
2.30253291 4.99682713 0.66414958 0.41503420 0.67705500 0.26757357
2.46570277 4.92620039 0.63737410 0.44444576 0.66748530 0.25678623
3.11309290 5.44381380 0.49282151 0.56113857 0.73762035 0.19854866
4.39074183 7.10988235 0.63847882 0.79143625 0.96336764 0.25723130
2.95855927 4.96165800 0.60180461 0.53328371 0.67228967 0.24245593
2.32413697 5.99793243 0.20471013 0.41892835 0.81270176 0.08247392
2.26754427 5.32285261 0.13780025 0.40872747 0.72123045 0.05551717
1.94353712 5.22310686 0.34954336 0.35032481 0.70771521 0.14082454
2.05937409 5.03860521 0.31044480 0.37120456 0.68271583 0.12507246
2.84427786 5.99166918 0.14736719 0.51268435 0.81185311 0.05937151
2.51817107 4.88721371 0.06330930 0.45390323 0.66220272 0.02550615
3.35335851 6.27283764 1.80551672 0.60444671 0.84995061 0.72740924
2.28975391 5.00245428 0.28451532 0.41273078 0.67781746 0.11462595
2.64256763 5.30922651 0.28069535 0.47632584 0.71938419 0.11308695
2.90802741 5.10305595 0.04867671 0.52417529 0.69144869 0.01961094
3.03500724 4.95628023 0.00734266 0.54706353 0.67156100 0.00295822
2.98638058 5.42681694 0.26623920 0.53829855 0.73531735 0.10726284
3.67606854 6.26460218 2.17041326 0.66261560 0.84883469 0.87441933
3.37672210 5.68712711 0.25595513 0.60865802 0.77058858 0.10311958
2.10866046 5.49342346 -0.22518209 0.38008848 0.74434233 -0.09072169
2.32477570 5.50456762 -0.26191279 0.41904348 0.74585229 -0.10551982
1.87527215 5.07213497 -0.03864590 0.33801997 0.68725902 -0.01556972
2.01532531 4.97170639 -0.06958040 0.36326471 0.67365122 -0.02803265
2.36031318 4.99751616 -0.27470019 0.42544916 0.67714834 -0.11067162
2.52968287 4.94625044 -0.31134903 0.45597824 0.67020202 -0.12543675
2.28317451 5.01597548 -0.08838586 0.41154483 0.67964953 -0.03560903
2.33358788 4.72946739 -0.12574333 0.42063189 0.64082855 -0.05065966
2.06557870 5.39700794 0.56641263 0.37232295 0.73127830 0.22819716
2.10471010 5.04732895 0.49778706 0.37937641 0.68389785 0.20054919
2.62838292 4.78306437 -0.15599337 0.47376904 0.64809078 -0.06284684
3.68062806 6.31234407 1.39295900 0.66343743 0.85530359 0.56119740
3.40454078 5.74281931 -0.19100416 0.61367238 0.77813470 -0.07695204
2.39154124 5.08152628 0.49291638 0.43107805 0.68853146 0.19858688
2.65405011 5.19744968 0.47774309 0.47839558 0.70423877 0.19247384
2.44691491 5.40299797 0.72686398 0.44105923 0.73208994 0.29284003
2.42323828 4.91854286 0.63374478 0.43679148 0.66644770 0.25532404
3.71272635 6.10302019 0.52572346 0.66922319 0.82694083 0.21180424
3.61397457 6.13895988 0.77453303 0.65142310 0.83181053 0.31204501
2.10970592 5.54330301 0.17799909 0.38027692 0.75110084 0.07171254
2.22472072 5.31491375 0.13665748 0.40100846 0.72015476 0.05505677
2.15277719 5.90614414 0.41199085 0.38804057 0.80026472 0.16598348
2.01268697 5.01450539 0.30715817 0.36278912 0.67945033 0.12374834
2.75869656 5.90607977 0.14246725 0.49725822 0.80025601 0.05739741
2.39815044 4.72859335 0.05613950 0.43226936 0.64071012 0.02261756
2.34108257 5.20252466 0.30014563 0.42198282 0.70492643 0.12092312
2.59766650 5.30247402 0.27886349 0.46823236 0.71846926 0.11234894
2.77279544 4.93611383 0.04194514 0.49979955 0.66882855 0.01689892
2.96950722 4.91888809 0.00569386 0.53525710 0.66649449 0.00229395
3.93073678 7.26460266 0.40108818 0.70851982 0.98433173 0.16159099
