15.43045044 9.32809734 -0.40543845 0.97666579 0.80661255 -0.17251132
15.31872272 9.39240074 -0.40451849 0.96959400 0.81217295 -0.17211989
15.43906593 9.56684208 -0.40739712 0.97721112 0.82725710 -0.17334473
14.92856884 9.38013268 -0.39950311 0.94489932 0.81111211 -0.16998588
14.81455517 9.57024574 -0.39959213 0.93768287 0.82755142 -0.17002375
15.79911041 9.38169384 -0.51930201 1.00000000 0.81124711 -0.22095950
14.44320488 9.45898628 -0.39407226 0.91417837 0.81793064 -0.16767509
15.58559418 9.38809299 -0.51556629 0.98648554 0.81180042 -0.21936998
14.29858685 9.49303627 -0.39255875 0.90502483 0.82087499 -0.16703109
15.44434071 9.43588638 -0.51357394 0.97754496 0.81593317 -0.21852225
15.34181595 9.47290897 -0.51216269 0.97105569 0.81913459 -0.21792176
15.23789978 9.54157543 -0.51108348 0.96447831 0.82507223 -0.21746257
14.99689865 9.52264786 -0.50664216 0.94922423 0.82343554 -0.21557282
14.65074635 9.43300056 -0.49958584 0.92731464 0.81568366 -0.21257040
14.34318924 9.36339092 -0.49344268 0.90784788 0.80966443 -0.20995653
15.46866322 9.30371761 -0.58472633 0.97908443 0.80450439 -0.24879710
14.42592144 9.54695892 -0.49697086 0.91308439 0.82553774 -0.21145774
15.43378067 9.41533089 -0.58541924 0.97687656 0.81415570 -0.24909194
14.61367226 9.77015209 -0.50278193 0.92496806 0.84483755 -0.21393032
15.49808884 9.55523300 -0.58858681 0.98094696 0.82625324 -0.25043970
13.61987209 10.21874714 1.35236633 0.86206573 0.88362813 0.57542276
15.24631214 9.53242970 -0.58299404 0.96501082 0.82428139 -0.24806003
13.75247574 10.11706829 1.94483995 0.87045884 0.87483585 0.82751626
13.64255619 10.37053871 1.36196029 0.86350155 0.89675379 0.57950491
15.09511185 10.36781311 -0.51801527 0.95544064 0.89651805 -0.22041200
13.50291252 10.31125736 0.17386815 0.85466284 0.89162761 0.07397973
15.10343456 9.57548428 -0.58056891 0.95596743 0.82800436 -0.24702816
13.59798908 10.13554192 1.93102908 0.86068070 0.87643331 0.82163984
13.75389099 10.29015541 0.77724147 0.87054843 0.88980293 0.33071101
13.51844597 10.45839405 0.17573938 0.85564601 0.90435076 0.07477592
14.60769081 9.38967609 -0.56775016 0.92458946 0.81193733 -0.24157386
13.56411171 10.24354744 1.93563271 0.85853642 0.88577265 0.82359868
13.61581707 10.32078648 0.77234626 0.86180907 0.89245164 0.32862812
14.37767887 9.36972523 -0.56270182 0.91003090 0.81021214 -0.23942582
13.54907227 10.47970390 -0.39205426 0.85758448 0.90619344 -0.16681644
12.65997219 10.04965401 0.15871477 0.80130917 0.86900645 0.06753206
14.44020653 9.54047680 -0.56631482 0.91398859 0.82497722 -0.24096313
13.52000713 10.55946159 -0.39244005 0.85574484 0.91309017 -0.16698059
14.50808048 9.68403053 -0.56968039 0.91828465 0.83739054 -0.24239516
15.37882423 9.47147751 -0.70176476 0.97339809 0.81901079 -0.29859617
13.62859440 10.21166420 1.26569974 0.86261785 0.88301569 0.53854668
12.53164864 10.17436123 0.15831117 0.79318696 0.87979007 0.06736033
15.53279209 9.70110703 -0.70962799 0.98314345 0.83886713 -0.30194193
13.65917873 10.08501625 1.83763707 0.86455363 0.87206429 0.78190219
13.59594440 10.32115936 1.26898634 0.86055124 0.89248389 0.53994513
13.09628010 10.49555779 -0.38692018 0.82892513 0.90756434 -0.16463193
12.55387497 10.32413483 0.16036586 0.79459381 0.89274114 0.06823459
13.61755466 10.39830017 0.08020638 0.86191911 0.89915431 0.03412727
15.03212929 9.52090931 -0.69340229 0.95145416 0.82328522 -0.29503798
13.60509682 10.17776871 1.83902454 0.86113054 0.88008469 0.78249252
13.53295326 10.46899509 0.07990096 0.85656428 0.90526742 0.03399732
14.50743008 9.31756115 -0.67617804 0.91824347 0.80570143 -0.28770921
13.53382111 10.23301697 0.67081082 0.85661918 0.88486207 0.28542548
13.04514313 10.72671318 -0.38849306 0.82568848 0.92755264 -0.16530117
14.36980629 9.35735321 -0.67324495 0.90953261 0.80914229 -0.28646117
13.56449986 10.39062691 0.67652476 0.85856098 0.89849085 0.28785673
13.55799198 10.45500374 -0.49327666 0.85814905 0.90405756 -0.20988590
12.84691334 10.19994926 0.07091630 0.81314158 0.88200265 0.03017440
14.29737282 9.43866158 -0.67274570 0.90494794 0.81617314 -0.28624877
13.73306179 10.10021019 2.35021353 0.86923009 0.87337810 1.00000000
12.73069477 10.70452499 -0.38469443 0.80578554 0.92563397 -0.16368489
13.51488972 10.52368355 -0.49344268 0.85542095 0.90999639 -0.20995653
12.66281986 10.15171814 0.06870195 0.80148941 0.87783206 0.02923221
14.26272202 9.51257420 -0.67312014 0.90275472 0.82256448 -0.28640807
13.59164333 10.12826157 2.33605218 0.86027902 0.87580377 0.99397445
13.66432667 10.23664379 1.17375720 0.86487949 0.88517570 0.49942577
12.63918972 10.26380634 0.06936371 0.79999375 0.88752449 0.02951379
14.36012363 9.70817852 -0.67904878 0.90891975 0.83947861 -0.28893068
13.62830448 10.34403229 1.17651546 0.86259949 0.89446169 0.50059938
11.96286201 10.31691742 -0.37228957 0.75718582 0.89211708 -0.15840670
12.77177811 10.20659733 -0.47725469 0.80838591 0.88257754 -0.20306864
12.57135963 10.34048080 0.06931280 0.79570049 0.89415461 0.02949213
14.25098228 9.76550007 -0.67723894 0.90201169 0.84443527 -0.28816059
13.64256001 10.40015125 0.01612092 0.86350179 0.89931440 0.00685934
13.64435673 10.12788200 1.77237463 0.86361551 0.87577093 0.75413346
11.92488384 10.41559219 -0.37282375 0.75478196 0.90064961 -0.15863399
13.51685238 10.43914032 0.01543881 0.85554516 0.90268582 0.00656911
15.42931557 9.35872555 -0.28152764 0.97659397 0.80926096 -0.11978811
13.59473515 10.22418022 1.77438629 0.86047471 0.88409793 0.75498939
13.61041737 10.28729916 0.59601313 0.86146730 0.88955593 0.25359955
11.95346355 10.57390690 -0.37469336 0.75659090 0.91433924 -0.15942951
15.37020874 9.45548534 -0.28152764 0.97285277 0.81762791 -0.11978811
13.56136227 10.38477898 0.59687275 0.85836238 0.89798516 0.25396532
12.31229877 11.03097439 -0.38318092 0.77930331 0.95386249 -0.16304089
13.58080673 10.45546341 -0.56215739 0.85959315 0.90409732 -0.23919418
12.86474037 10.19513321 0.00947930 0.81426990 0.88158625 0.00403338
15.05013752 9.35706043 -0.27894807 0.95259398 0.80911702 -0.11869052
13.76012325 10.09579659 2.26668501 0.87094289 0.87299645 0.96445918
11.87795830 10.74231148 -0.37552431 0.75181186 0.92890143 -0.15978307
12.42346954 10.41742992 -0.47443217 0.78633982 0.90080851 -0.20186768
13.51561546 10.50705528 -0.56166244 0.85546684 0.90855855 -0.23898357
12.80095387 10.24312878 0.00929980 0.81023258 0.88573647 0.00395700
14.91147804 9.40139771 -0.27819967 0.94381756 0.81295091 -0.11837208
13.54529667 10.06998825 2.24016261 0.85734552 0.87076479 0.95317405
13.70147800 10.23908138 1.06995320 0.86723095 0.88538647 0.45525786
11.95752907 10.95198441 -0.37849200 0.75684828 0.94703209 -0.16104579
12.75140285 10.82874107 -0.48514116 0.80709624 0.93637508 -0.20642430
12.65563393 10.25777245 0.00836638 0.80103457 0.88700271 0.00355984
13.59258938 10.23816967 2.25970554 0.86033893 0.88530767 0.96148944
13.58911419 10.28889656 1.06572580 0.86011893 0.88969404 0.45345914
12.08179188 11.20665264 -0.38240933 0.76471341 0.96905363 -0.16271259
12.08519459 10.39564514 -0.46878713 0.76492882 0.89892477 -0.19946577
12.88908768 10.28146458 -0.54602253 0.81581098 0.88905144 -0.23232891
12.77468491 10.48833084 0.01050247 0.80856991 0.90693939 0.00446873
13.59678841 10.35978127 -0.09861837 0.86060470 0.89582354 -0.04196145
13.71465015 10.16227913 1.66417682 0.86806470 0.87874532 0.70809603
11.80149174 11.08492661 -0.37813586 0.74697191 0.95852780 -0.16089426
11.87323189 10.34415340 -0.46476087 0.75151271 0.89447218 -0.19775261
12.73257065 10.28799343 -0.54310244 0.80590427 0.88961595 -0.23108642
13.53142738 10.44500732 -0.09861837 0.85646766 0.90319318 -0.04196145
13.61550522 10.22202110 1.65955544 0.86178935 0.88391125 0.70612967
13.61507225 10.27320957 0.48640096 0.86176193 0.88833761 0.20696032
11.20770454 10.65927505 -0.36739290 0.70938832 0.92172116 -0.15632319
11.94760418 10.54140282 -0.46862110 0.75622004 0.91152859 -0.19939512
12.57184696 10.28915882 -0.54003388 0.79573131 0.88971674 -0.22978078
13.57409477 10.37673092 0.48749837 0.85916829 0.89728922 0.20742726
11.79361248 11.36014938 -0.38086614 0.74647319 0.98232669 -0.16205597
13.60085487 10.46325207 -0.67361939 0.86086208 0.90477079 -0.28662050
11.31321526 10.99962330 -0.37202248 0.71606660 0.95115149 -0.15829305
12.44263744 10.41391754 -0.53953892 0.78755301 0.90050477 -0.22957017
13.41550827 10.42192173 -0.66825241 0.84913063 0.90119690 -0.28433689
12.79239559 10.23317146 -0.10025229 0.80969089 0.88487542 -0.04265667
13.66204548 10.14478970 2.16357160 0.86473513 0.87723297 0.92058510
13.75129509 10.25968170 0.98191601 0.87038416 0.88716781 0.41779864
10.95070171 10.78108692 -0.36590907 0.69312143 0.93225437 -0.15569185
12.28838825 11.22435093 -0.48335633 0.77778989 0.97058398 -0.20566486
12.68118286 10.27563000 -0.10038999 0.80265170 0.88854688 -0.04271526
13.58379364 10.21968842 2.16115785 0.85978216 0.88370955 0.91955811
13.52590561 10.22413921 0.96875679 0.85611820 0.88409442 0.41219947
10.89406109 10.86098862 -0.36614648 0.68953633 0.93916363 -0.15579286
12.17206573 11.25930405 -0.48206958 0.77042729 0.97360647 -0.20511736
12.72160149 10.44125652 -0.10007789 0.80520999 0.90286881 -0.04258247
13.74225998 10.17029667 1.58270109 0.86981225 0.87943858 0.67342865
11.10950089 11.21659565 -0.37214118 0.70317256 0.96991336 -0.15834357
11.97105312 11.21405697 -0.47837541 0.75770426 0.96969384 -0.20354551
11.96682930 10.40485001 -0.53043216 0.75743693 0.89972073 -0.22569531
12.73565292 10.28542995 -0.64896876 0.80609936 0.88939428 -0.27613184
12.76659298 10.61290073 -0.09974743 0.80805773 0.91771114 -0.04244186
13.50155354 10.36214066 -0.19443780 0.85457683 0.89602757 -0.08273197
13.60332680 10.20024204 1.57328486 0.86101854 0.88202798 0.66942209
11.11142254 11.36061192 -0.37368438 0.70329422 0.98236668 -0.15900019
11.27583313 10.69807720 -0.46052709 0.71370053 0.92507643 -0.19595116
11.89971828 10.47851086 -0.53038269 0.75318915 0.90609026 -0.22567426
12.55306530 10.26919746 -0.64422584 0.79454255 0.88799065 -0.27411374
13.54660034 10.53283405 -0.19490331 0.85742807 0.91078764 -0.08293004
13.62129021 10.34820747 1.58370280 0.86215550 0.89482278 0.67385489
13.63794899 10.39812469 0.40691039 0.86320990 0.89913917 0.17313762
10.72487450 11.10328102 -0.36694774 0.67882776 0.96011496 -0.15613379
11.05680180 10.62345123 -0.45616880 0.69983697 0.91862345 -0.19409674
10.77481651 11.29649925 -0.36952963 0.68198884 0.97682273 -0.15723236
10.97548485 10.67878723 -0.45575371 0.69469005 0.92340839 -0.19392014
11.81305122 10.66881752 -0.53191698 0.74770355 0.92254633 -0.22632709
12.94049454 10.29090881 -0.19282182 0.81906474 0.88986808 -0.08204438
13.73062801 10.18220806 2.05307984 0.86907601 0.88046855 0.87357163
10.83941460 11.47230911 -0.37208182 0.68607754 0.99202526 -0.15831830
10.99931908 10.80315018 -0.45791212 0.69619864 0.93416226 -0.19483852
12.82734489 10.33305836 -0.19261566 0.81190300 0.89351279 -0.08195666
13.56955051 10.19570446 2.03756213 0.85888064 0.88163561 0.86696893
13.52402020 10.21068192 0.87148827 0.85599881 0.88293076 0.37081239
10.95251846 10.89317036 -0.45853472 0.69323641 0.94194639 -0.19510342
11.57471466 10.68668938 -0.52785850 0.73261815 0.92409170 -0.22460023
12.80575180 10.98847771 -0.66469520 0.81053627 0.95018774 -0.28282332
12.68012238 10.34633541 -0.19226320 0.80258459 0.89466089 -0.08180670
13.58181286 10.38870525 0.88064688 0.85965681 0.89832467 0.37470931
12.04268074 11.26103687 -0.54602253 0.76223791 0.97375625 -0.23232891
11.47186565 11.03350353 0.00500967 0.72610831 0.95408118 0.00213158
12.75808811 10.54447269 -0.19288167 0.80751938 0.91179407 -0.08206985
13.61767673 10.43127155 -0.27442589 0.86192679 0.90200543 -0.11676636
13.63998127 10.20822334 1.44554067 0.86333859 0.88271815 0.61506778
10.75869751 10.97290325 -0.45687443 0.68096858 0.94884098 -0.19439699
11.44096088 10.83267021 -0.52790803 0.72415221 0.93671489 -0.22462131
13.51391220 10.48724556 -0.27404371 0.85535908 0.90684557 -0.11660375
13.58033657 10.29732800 1.44609606 0.85956335 0.89042312 0.61530411
13.58844376 10.36145020 0.28913695 0.86007649 0.89596784 0.12302582
10.82324982 11.17801666 -0.46085915 0.68505436 0.96657741 -0.19609246
11.16222858 10.70204163 -0.52068198 0.70650995 0.92541927 -0.22154666
11.77772617 10.49996376 -0.63049638 0.74546766 0.90794533 -0.26827195
13.58227730 10.45825291 0.29048595 0.85968620 0.90433854 0.12359981
10.76491070 11.22313023 -0.46069312 0.68136185 0.97047842 -0.19602181
11.01266766 10.65844822 -0.51726693 0.69704354 0.92164969 -0.22009359
11.78761864 10.60876274 -0.63299268 0.74609381 0.91735327 -0.26933411
12.84745502 10.19941425 -0.26845467 0.81317586 0.88195640 -0.11422565
10.72034359 11.31809521 -0.46148178 0.67854095 0.97869021 -0.19635738
10.97685528 10.75826263 -0.51835579 0.69477677 0.93028075 -0.22055689
11.57281303 10.54814816 -0.62675202 0.73249775 0.91211188 -0.26667875
12.80495739 10.29745483 -0.26867759 0.81048596 0.89043409 -0.11432050
10.92888451 10.84676361 -0.51904869 0.69174051 0.93793356 -0.22085172
11.50925064 10.62336159 -0.62687683 0.72847462 0.91861570 -0.26673186
12.71516991 10.35752869 -0.26842284 0.80480289 0.89562875 -0.11421211
10.97881794 11.03442955 -0.52320611 0.69490105 0.95416123 -0.22262067
11.45251083 10.70500755 -0.62731367 0.72488326 0.92567569 -0.26691774
11.06320572 11.26027393 -0.52865040 0.70024234 0.97369033 -0.22493719
11.37484837 10.76714802 -0.62687683 0.71996766 0.93104911 -0.26673186
11.79987335 11.48986912 -0.10005035 0.74686950 0.99354368 -0.04257075
11.78440285 10.61087894 -0.19057408 0.74589026 0.91753632 -0.08108798
12.73148727 10.63942432 -0.26995146 0.80583572 0.92000467 -0.11486252
10.79618931 11.12697792 -0.52167183 0.68334162 0.96216404 -0.22196785
11.41245079 10.93924999 -0.63143253 0.72234768 0.94593096 -0.26867029
10.74954700 11.21916580 -0.52251321 0.68038940 0.97013563 -0.22232585
11.13380718 10.80772972 -0.62232113 0.70471102 0.93455821 -0.26479346
11.81693268 10.87816525 -0.19125238 0.74794924 0.94064885 -0.08137660
12.19517803 10.42198849 -0.26557258 0.77189016 0.90120268 -0.11299934
10.78040504 11.35826778 -0.52553231 0.68234253 0.98216397 -0.22361045
11.01984978 10.79859734 -0.61957526 0.69749814 0.93376857 -0.26362509
10.83853722 11.56453323 -0.53023422 0.68602198 1.00000000 -0.22561108
10.96457100 10.88027954 -0.62013692 0.69399929 0.94083172 -0.26386407
10.99906540 11.05225849 -0.62469262 0.69618255 0.95570296 -0.26580250
11.16074371 10.66857910 -0.18918419 0.70641595 0.92252570 -0.08049659
10.89713478 11.08839893 -0.62325722 0.68973088 0.95882803 -0.26519173
10.74080849 11.24416351 -0.10216160 0.67983627 0.97229719 -0.04346907
11.85050774 10.65439701 -0.26472864 0.75007439 0.92129934 -0.11264025
11.17994881 11.51912594 -0.63904613 0.70763153 0.99607354 -0.27190980
10.70705318 11.35066032 -0.10203768 0.67769974 0.98150611 -0.04341634
11.74335670 10.69234180 -0.26429871 0.74329227 0.92458051 -0.11245732
10.81926441 11.28932190 -0.62606555 0.68480211 0.97620213 -0.26638666
11.23030663 11.11337090 -0.19038121 0.71081895 0.96098739 -0.08100592
11.50196648 10.70651531 -0.26296118 0.72801358 0.92580611 -0.11188821
10.89209175 11.05249977 -0.18944354 0.68941170 0.95572382 -0.08060695
11.90947247 11.22516918 -0.26815215 0.75380653 0.97065473 -0.11409693
10.81964684 11.11784840 -0.18943025 0.68482631 0.96137458 -0.08060130
11.13187408 10.62679672 -0.26038161 0.70458865 0.91891271 -0.11079062
10.81877422 11.25780201 -0.18976276 0.68477112 0.97347653 -0.08074277
11.03896904 10.67154408 -0.26009500 0.69870824 0.92278206 -0.11066867
10.71620560 11.29214859 -0.18960981 0.67827904 0.97644657 -0.08067770
11.00890636 10.77701855 -0.26050898 0.69680548 0.93190259 -0.11084481
10.77231121 11.45923996 -0.19014181 0.68183023 0.99089515 -0.08090406
11.57618237 11.43805981 -0.26741967 0.73271102 0.98906368 -0.11378527
10.65661716 11.47973633 -0.18992901 0.67450744 0.99266750 -0.08081351
11.53947544 11.54588890 -0.26781774 0.73038769 0.99838781 -0.11395464
10.88013744 11.02533054 -0.26117778 0.68865508 0.95337445 -0.11112938
10.79946709 11.08203030 -0.26105037 0.68354905 0.95827734 -0.11107517
10.81155491 11.23458099 -0.26198986 0.68431413 0.97146863 -0.11147492
10.77386284 11.33703995 -0.26237202 0.68192846 0.98032838 -0.11163753
10.70933723 11.37604904 -0.26224461 0.67784435 0.98370153 -0.11158331
10.70719147 11.51772594 -0.26305670 0.67770851 0.99595249 -0.11192885
