21.67535782 -9.38006115 1.92939520 0.91543937 -0.97270375 0.66340375
21.68434525 -9.22267437 1.92468536 0.91581899 -0.95638287 0.66178429
21.61479568 -9.13691807 0.29271019 0.91288161 -0.94749004 0.10064554
21.81453705 -9.10026455 0.29582891 0.92131752 -0.94368911 0.10171789
21.53176498 -9.27804565 2.72261310 0.90937489 -0.96212482 0.93614399
21.56352043 -9.24629879 1.11214042 0.91071606 -0.95883274 0.38239864
21.69387436 -9.18661213 2.73642421 0.91622144 -0.95264328 0.94089276
21.76295662 -9.17022133 1.12033463 0.91913903 -0.95094353 0.38521615
21.59533501 -9.01189804 -0.48512042 0.91205972 -0.93452555 -0.16680393
23.32482910 -9.56030178 -0.51194817 0.98510331 -0.99139452 -0.17602839
23.09680176 -9.29804039 -0.50734830 0.97547281 -0.96419829 -0.17444676
21.66641808 -9.24839020 1.80388308 0.91506183 -0.95904958 0.62024760
23.37428856 -9.23930264 -0.51085013 0.98719221 -0.95810723 -0.17565084
21.73244476 -9.20404720 0.16251911 0.91785038 -0.95445126 0.05588061
21.77138901 -9.05961800 0.16226459 0.91949517 -0.93947411 0.05579310
21.73108673 -9.33627892 2.61439848 0.91779304 -0.96816355 0.89893544
21.72172737 -9.36215019 0.98955059 0.91739774 -0.97084641 0.34024733
22.57166481 -9.64328671 -0.64739472 0.95329410 -1.00000000 -0.22260036
21.77285385 -9.19258690 2.61231732 0.91955703 -0.95326287 0.89821982
21.65324211 -9.17161274 0.98297966 0.91450536 -0.95108783 0.33798796
21.83561516 -9.16624165 -0.62946343 0.92220771 -0.95053089 -0.21643487
21.77635956 -8.98073483 -0.62684840 0.91970509 -0.93129396 -0.21553572
22.96802902 -9.30490685 -0.65229261 0.97003418 -0.96491033 -0.22428446
21.69797707 -9.24709511 1.67423344 0.91639471 -0.95891529 0.57566887
21.73591805 -9.20935154 0.07402866 0.91799712 -0.95500129 0.02545404
22.87460136 -8.93390942 -0.64764380 0.96608835 -0.92643821 -0.22268601
21.76195335 -9.05956078 0.07372351 0.91909665 -0.93946815 0.02534911
21.54977226 -9.33677197 2.50263143 0.91013539 -0.96821469 0.86050540
21.67990112 -9.33128834 0.87745917 0.91563129 -0.96764606 0.30170578
21.69581604 -9.23848629 2.51336050 0.91630340 -0.95802259 0.86419451
21.66814804 -9.16536617 0.87419254 0.91513491 -0.95044005 0.30058259
23.18648338 -8.76332855 -0.65241718 0.97926044 -0.90874916 -0.22432728
22.53491974 -9.46266079 -0.74290699 0.95174223 -0.98126924 -0.25544134
21.77485847 -8.98378277 -0.72098142 0.91964173 -0.93161005 -0.24790244
21.86794853 -8.86177731 -0.72197133 0.92357332 -0.91895819 -0.24824281
21.67562866 -9.28482914 1.52735925 0.91545081 -0.96282828 0.52516758
21.80338669 -9.17792702 1.53271389 0.92084658 -0.95174265 0.52700871
23.19407463 -9.06034088 -0.75429046 0.97958106 -0.93954903 -0.25935543
21.65722466 -9.03885841 -0.08399109 0.91467357 -0.93732136 -0.02887952
21.55969429 -9.37934685 2.34456968 0.91055447 -0.97262967 0.80615741
23.32049751 -8.98321438 -0.75651765 0.98492038 -0.93155110 -0.26012123
21.67487144 -9.26798820 2.35108161 0.91541886 -0.96108186 0.80839646
21.69030762 -9.21262360 0.72468722 0.91607076 -0.95534062 0.24917664
23.20623779 -8.77231598 -0.75201374 0.98009473 -0.90968114 -0.25857261
21.67493057 -8.96778870 -0.87020016 0.91542137 -0.92995149 -0.29920983
21.85673523 -8.88271236 -0.87444383 0.92309970 -0.92112917 -0.30066898
21.67876434 -9.28942394 1.40157640 0.91558325 -0.96330476 0.48191839
21.80110359 -9.18008232 1.40613651 0.92075014 -0.95196611 0.48348632
21.69345856 -9.14832783 -0.21613054 0.91620386 -0.94867319 -0.07431438
21.60993195 -9.39944553 2.23402429 0.91267616 -0.97471392 0.76814747
23.14027977 -8.94280529 -0.91238707 0.97730905 -0.92736071 -0.31371540
21.67588615 -9.26660442 2.23482585 0.91546172 -0.96093839 0.76842308
21.70376396 -9.23420811 0.61139762 0.91663909 -0.95757890 0.21022311
21.80932426 -9.11766338 0.61304879 0.92109734 -0.94549334 0.21079084
23.33340454 -9.32441807 -0.22139746 0.98546553 -0.96693361 -0.07612536
23.34124565 -9.15794468 -0.22121790 0.98579669 -0.94967049 -0.07606362
21.60889244 -9.35064220 2.88034463 0.91263229 -0.96965301 0.99037844
21.66054535 -9.31345558 1.26661885 0.91481382 -0.96579683 0.43551454
23.58349800 -8.43947124 -0.91987586 0.99602801 -0.87516546 -0.31629035
21.68364143 -9.22168732 2.88263416 0.91578925 -0.95628053 0.99116564
21.71863556 -9.17717552 1.26661885 0.91726720 -0.95166469 0.43551454
23.67754555 -8.30571651 -0.92124879 1.00000000 -0.86129522 -0.31676242
21.66616058 -9.17708492 -0.32518908 0.91505092 -0.95165533 -0.11181310
21.91153526 -9.19710541 2.90832734 0.92541414 -0.95373142 1.00000000
21.74000549 -9.04770184 -0.32533240 0.91816974 -0.93823838 -0.11186238
21.63299751 -9.28870296 2.05042052 0.91365033 -0.96323001 0.70501709
21.72358894 -9.25811100 0.45221788 0.91747642 -0.96005762 0.15549071
23.30647659 -9.52979755 -0.33832574 0.98432821 -0.98823130 -0.11633001
21.76473808 -9.11447144 0.45176822 0.91921431 -0.94516236 0.15533610
22.86682129 -9.18228912 -0.33404240 0.96575981 -0.95219499 -0.11485722
22.86640549 -9.01564407 -0.33354878 0.96574223 -0.93491405 -0.11468749
23.00464058 -8.90362263 -0.33424941 0.97158045 -0.92329752 -0.11492840
