20.97403336 3.70354891 -0.45393020 0.59951621 0.26455039 -0.15510604
21.07242012 3.82351995 -0.45568112 0.60232848 0.27312011 -0.15570430
21.33487320 4.01004744 -0.46001393 0.60983032 0.28644407 -0.15718481
20.95152473 4.21091700 -0.45499855 0.59887284 0.30079249 -0.15547109
20.18856812 4.18898535 -0.44384012 0.57706469 0.29922587 -0.15165830
21.46979141 4.59707165 -0.46369383 0.61368680 0.32837611 -0.15844221
20.91079712 4.58002186 -0.45553276 0.59770864 0.32715824 -0.15565363
20.00201035 4.51198339 -0.44214854 0.57173216 0.32229814 -0.15108028
21.51374626 4.99686289 -0.46562284 0.61494321 0.35693386 -0.15910135
20.69623947 3.98329449 -0.57537889 0.59157580 0.28453305 -0.19660453
19.95878029 3.97228312 -0.56031162 0.57049650 0.28374648 -0.19145611
21.29942513 5.37202454 -0.46384221 0.60881710 0.38373226 -0.15849292
20.65465546 4.38052511 -0.57616752 0.59038717 0.31290787 -0.19687401
21.86183739 5.81028080 0.27718988 0.62489295 0.41503757 0.09471461
21.15188789 5.44083691 -0.46197259 0.60459995 0.38864762 -0.15785408
20.59078598 4.46852064 -0.57525438 0.58856153 0.31919351 -0.19656199
21.78397560 5.99503231 1.83973587 0.62266737 0.42823467 0.62862998
21.34152412 5.63303804 -0.46541509 0.61002046 0.40237686 -0.15903036
20.81018066 4.65298271 -0.58052582 0.59483266 0.33236995 -0.19836321
20.63698006 5.72728968 0.25510195 0.58988196 0.40910938 0.08716726
21.15656090 3.92703867 -0.67054772 0.60473353 0.28051460 -0.22912332
20.69282913 4.76354265 -0.57865798 0.59147835 0.34026742 -0.19772498
21.08827972 4.05155087 -0.66945893 0.60278177 0.28940871 -0.22875129
21.47271919 3.62033415 -0.08787395 0.61377048 0.25860623 -0.03002616
21.77836609 5.96144772 1.06510341 0.62250704 0.42583567 0.36394134
21.43087959 5.94582844 -0.46790794 0.61257458 0.42471996 -0.15988216
20.48660469 5.96373272 0.25363430 0.58558369 0.42599890 0.08666577
21.29593277 5.18433142 -0.59285361 0.60871726 0.37032503 -0.20257556
20.83855438 5.38584566 0.13607417 0.59564370 0.38471952 0.04649597
20.96716690 4.30209637 -0.66772664 0.59931993 0.30730557 -0.22815937
19.66137695 5.72024965 -0.44173306 0.56199557 0.40860653 -0.15093832
21.32502747 5.33350229 -0.59418190 0.60954893 0.38098055 -0.20302944
20.67078781 5.62061071 0.13477612 0.59084833 0.40148914 0.04605243
21.14639282 3.80396533 -0.80866724 0.60444289 0.27172327 -0.27631819
21.82228470 3.34751153 -0.21125600 0.62376237 0.23911807 -0.07218528
21.87318802 5.99060917 1.73141313 0.62521738 0.42791873 0.59161657
21.15093994 5.53788042 -0.59173292 0.60457283 0.39557961 -0.20219263
21.41325569 5.93021822 0.14493158 0.61207080 0.42360491 0.04952251
20.07811737 4.48172235 -0.64713740 0.57390755 0.32013655 -0.22112411
21.15182495 3.90790868 -0.80941617 0.60459816 0.27914813 -0.27657408
20.75206757 5.88836002 0.13668503 0.59317160 0.42061490 0.04670470
21.22897148 4.06016254 -0.81266129 0.60680330 0.29002386 -0.27768293
21.48852539 3.57297397 -0.21027842 0.61422229 0.25522321 -0.07185125
21.25323105 5.85083151 -0.59546858 0.60749674 0.41793418 -0.20346910
20.53793335 5.96746492 0.13434342 0.58705086 0.42626551 0.04590458
20.02619934 3.96186543 -0.77521735 0.57242358 0.28300235 -0.26488850
22.83327293 5.74288321 0.07347220 0.65266019 0.41022328 0.02510514
21.52870750 3.71887159 -0.21049123 0.61537087 0.26564491 -0.07192396
21.57409477 6.08488798 -0.60318905 0.61666816 0.43465322 -0.20610715
21.29442024 5.49694347 0.05954275 0.60867405 0.39265540 0.02034551
19.75416756 5.70756769 -0.56471139 0.56464785 0.40770063 -0.19295950
20.35828781 4.29368401 -0.78744900 0.58191592 0.30670467 -0.26906800
20.75487709 4.51328325 -0.80099124 0.59325188 0.32239100 -0.27369532
20.75864983 5.63734198 0.05521672 0.59335971 0.40268430 0.01886732
21.84151077 5.99383068 1.60221148 0.62431192 0.42814884 0.54746890
19.64999580 5.91236782 -0.56383973 0.56167024 0.42232981 -0.19266166
29.19196510 9.22393131 0.25178033 0.83441538 0.65888005 0.08603227
20.12637901 4.47665310 -0.78158283 0.57528704 0.31977445 -0.26706356
21.71707916 3.43868732 -0.31291229 0.62075520 0.24563089 -0.10692081
26.93222046 9.32582188 1.38063419 0.76982343 0.66615826 0.47175688
21.27372551 6.54516602 -0.59990990 0.60808253 0.46753159 -0.20498668
28.56619263 9.22442055 0.24419554 0.81652844 0.65891498 0.08344058
20.92618561 4.79187489 -0.80810559 0.59814852 0.34229124 -0.27612627
21.00646973 4.27745867 -0.20912795 0.60044336 0.30554566 -0.07145814
21.70096588 3.57604098 -0.31296006 0.62029463 0.25544229 -0.10693713
26.91639328 9.51019001 1.38308179 0.76937103 0.67932796 0.47259319
28.01187325 9.24055004 0.23755249 0.80068392 0.66006714 0.08117069
20.86063194 4.91504383 -0.80698228 0.59627473 0.35108939 -0.27574244
21.12406158 3.61797547 -0.30848563 0.60380459 0.25843772 -0.10540824
26.95378494 9.71440411 1.38861561 0.77043980 0.69391531 0.47448409
19.10853004 6.14499903 -0.55454201 0.54619312 0.43894705 -0.18948466
26.91576958 10.19458103 0.39023474 0.76935321 0.72821510 0.13334157
27.50399399 9.26537514 0.23152030 0.78616685 0.66184044 0.07910950
20.85071564 5.05117416 -0.80766875 0.59599131 0.36081338 -0.27597699
21.39683914 5.50547266 -0.08714420 0.61160159 0.39326465 -0.02977680
20.77322960 4.50236797 -0.20852280 0.59377646 0.32161129 -0.07125136
21.23089409 3.77360606 -0.30953658 0.60685825 0.26955467 -0.10576734
26.90533447 9.88839817 1.38936055 0.76905495 0.70634401 0.47473863
28.45094681 9.23519325 1.28791082 0.81323433 0.65968454 0.44007367
20.89193726 6.86160803 -0.59434789 0.59716958 0.49013555 -0.20308617
26.83046722 9.22707558 0.22324830 0.76691496 0.65910465 0.07628300
20.99432564 5.54314041 -0.08801623 0.60009623 0.39595532 -0.03007478
26.94924545 10.09727001 1.39542639 0.77031004 0.72126400 0.47681129
28.00923538 9.28703308 1.26867402 0.80060852 0.66338754 0.43350056
26.31707954 9.23620033 0.21711430 0.75224042 0.65975648 0.07418704
20.87218857 5.65150118 -0.08822276 0.59660512 0.40369570 -0.03014535
28.08446121 9.45901012 1.27467370 0.80275875 0.67567211 0.43555063
21.79225540 5.93885517 1.45718420 0.62290406 0.42422184 0.49791369
20.68648148 7.04718113 -0.59152538 0.59129691 0.50339133 -0.20212172
21.15388489 5.83459425 -0.08748842 0.60465705 0.41677433 -0.02989442
22.23595619 5.22476721 -0.21379635 0.63558668 0.37321341 -0.07305331
26.98706627 9.27939987 1.22239161 0.77139115 0.66284227 0.41768605
19.31192589 5.16441822 -0.76198715 0.55200696 0.36890259 -0.26036778
21.75176620 5.25500393 -0.21225351 0.62174672 0.37537327 -0.07252613
34.95030975 13.79500103 1.86409330 0.99901038 0.98539883 0.63695282
26.93577194 9.45142078 1.22277248 0.76992494 0.67513001 0.41781619
21.62580681 5.85532188 0.68218052 0.61814630 0.41825494 0.23309821
19.60114288 5.37359762 -0.77240902 0.56027389 0.38384461 -0.26392889
20.21004677 4.21877575 -0.30222782 0.57767862 0.30135384 -0.10326997
21.87849998 6.01434374 2.25781393 0.62536925 0.42961413 0.77148545
34.82588959 13.99940872 1.86196494 0.99545395 1.00000000 0.63622552
26.94546509 9.64533710 1.22629607 0.77020204 0.68898177 0.41902018
20.94971275 4.50993776 -0.30846971 0.59882104 0.32215202 -0.10540280
26.93125725 9.83154202 1.22867680 0.76979589 0.70228267 0.41983366
19.70693970 5.66960382 -0.77808803 0.56329793 0.40498880 -0.26586938
20.40897942 6.18566084 -0.08890662 0.58336484 0.44185159 -0.03037902
20.70028877 4.59274006 -0.30667040 0.59169155 0.32806671 -0.10478798
26.95322609 10.03185940 1.23296225 0.77042383 0.71659166 0.42129800
28.07017899 9.33354759 1.13466334 0.80235052 0.66671014 0.38770968
26.95051956 10.17566586 1.23524785 0.77034646 0.72686398 0.42207897
28.05995178 9.47725391 1.13621068 0.80205822 0.67697531 0.38823840
21.42671967 6.41836929 -0.83618855 0.61245567 0.45847431 -0.28572211
22.16993523 5.17367697 -0.31910643 0.63369954 0.36956397 -0.10903732
21.83526611 6.04022264 2.92657995 0.62413347 0.43146271 1.00000000
26.95546150 9.29250050 1.08867264 0.77048773 0.66377807 0.37199485
19.27337837 5.90765190 -0.76722926 0.55090511 0.42199296 -0.26215899
28.67793083 9.22698212 -0.06871207 0.81972235 0.65909797 -0.02347862
34.97859955 13.70481014 1.65283787 0.99981898 0.97895634 0.56476772
26.92481041 9.47164822 1.08996212 0.76961166 0.67657489 0.37243545
19.18245125 6.01194715 -0.76548189 0.54830611 0.42944294 -0.26156193
28.15378952 9.25429630 -0.06983654 0.80474043 0.66104907 -0.02386285
34.97345734 13.95685005 1.65702808 0.99967200 0.99695998 0.56619948
26.90237236 9.65415859 1.09168136 0.76897025 0.68961185 0.37302291
28.06271362 9.32540512 1.95052314 0.80213714 0.66612852 0.66648549
28.09888077 9.43227768 -0.06982736 0.80317092 0.67376256 -0.02385972
21.11442947 5.34984207 -0.31127220 0.60352921 0.38214773 -0.10636040
26.92560005 9.85396194 1.09554970 0.76963419 0.70388412 0.37434471
28.47826004 9.21297932 0.95770591 0.81401503 0.65809774 0.32724407
28.00545692 9.50218296 1.95066404 0.80050051 0.67875600 0.66653365
20.97738457 6.86306143 -0.82695240 0.59961200 0.49023938 -0.28256613
28.10529709 9.63128853 -0.06966673 0.80335432 0.68797821 -0.02380483
20.48614693 6.15760899 -0.20897500 0.58557057 0.43984780 -0.07140587
21.64377975 5.62835932 -0.31590587 0.61866003 0.40204266 -0.10794370
26.91930389 10.04393959 1.09812868 0.76945424 0.71745455 0.37522593
28.06295967 9.27407265 0.94395161 0.80214417 0.66246176 0.32254428
26.95147324 9.33457661 1.87640250 0.77037376 0.66678363 0.64115882
19.97607994 6.67568731 -0.79543710 0.57099098 0.47685495 -0.27179751
28.08577156 9.82218456 -0.06956575 0.80279624 0.70161426 -0.02377032
21.59574699 5.72467279 -0.31573069 0.61728710 0.40892246 -0.10788384
26.91838074 10.18839741 1.10027778 0.76942784 0.72777343 0.37596026
28.09664726 9.43223858 0.94695121 0.80310708 0.67375976 0.32356924
28.10326958 9.97713184 -0.06940971 0.80329639 0.71268237 -0.02371700
21.90503311 6.03060961 2.77451992 0.62612766 0.43077603 0.94804174
26.96454430 9.24192429 0.90546876 0.77074736 0.66016531 0.30939484
20.87226868 5.48431301 0.40140498 0.59660739 0.39175320 0.13715838
21.68267250 6.02371216 1.20262718 0.61977178 0.43028334 0.41093263
20.30393600 7.03392792 -0.80872965 0.58036232 0.50244462 -0.27633950
28.09833717 10.17458153 -0.06926742 0.80315542 0.72678649 -0.02366839
21.54137611 6.00094318 -0.31588992 0.61573297 0.42865691 -0.10793825
34.96322250 13.74470711 1.47826135 0.99937946 0.98180628 0.50511563
26.97387886 9.43487167 0.90810257 0.77101421 0.67394787 0.31029481
21.75268936 5.86108017 0.42508769 0.62177306 0.41866627 0.14525066
28.23830223 9.22679615 -0.23662627 0.80715615 0.65908468 -0.08085419
21.00309181 5.99394035 -0.31174991 0.60034680 0.42815667 -0.10652363
34.93366241 13.98717022 1.48092616 0.99853450 0.99912578 0.50602621
26.92159653 9.60684776 0.90839523 0.76951975 0.68623239 0.31039482
21.54772377 5.95148230 0.42074087 0.61591440 0.42512384 0.14376538
28.07661247 9.33697701 1.79348540 0.80253446 0.66695511 0.61282641
20.38889313 7.35140610 -0.81453347 0.58279073 0.52512264 -0.27832264
28.12287140 9.38500690 -0.23642676 0.80385667 0.67038596 -0.08078602
19.56327820 5.71762848 -0.30012596 0.55919152 0.40841928 -0.10255177
26.92645645 9.79968739 0.91095585 0.76965868 0.70000726 0.31126976
28.62691498 9.25318336 0.81785357 0.81826413 0.66096956 0.27945712
28.06084633 9.52799034 1.79648209 0.80208379 0.68059951 0.61385036
20.32165527 7.47179842 -0.81384701 0.58086878 0.53372240 -0.27808809
28.07470512 9.56540012 -0.23646666 0.80247992 0.68327171 -0.08079966
26.86060333 9.96728897 0.91080952 0.76777637 0.71197927 0.31121975
28.09946060 9.27774143 0.80216771 0.80318749 0.66272378 0.27409732
26.93525314 9.33413506 1.72286880 0.76991010 0.66675210 0.58869702
28.11603355 9.77715015 -0.23682576 0.80366123 0.69839734 -0.08092237
20.31056786 6.21320581 -0.30695701 0.58055186 0.44381917 -0.10488591
26.93395042 10.18738174 0.91615027 0.76987290 0.72770083 0.31304467
34.93867111 13.77931690 2.51460075 0.99867767 0.98427850 0.85922843
28.09174538 9.47138977 0.80388236 0.80296701 0.67655641 0.27468321
28.11678505 9.92621231 -0.23699202 0.80368268 0.70904511 -0.08097917
34.94746399 13.97339535 2.52023745 0.99892902 0.99814183 0.86115450
26.96718407 9.23315811 0.76762080 0.77082282 0.65953916 0.26229277
28.12158585 10.12711906 -0.23723143 0.80381995 0.72339618 -0.08106098
34.94808960 13.65310097 1.23549926 0.99894691 0.97526270 0.42216489
26.94071007 9.41364670 0.76870042 0.77006608 0.67243171 0.26266170
28.34733391 9.20165348 -0.37514022 0.81027263 0.65728873 -0.12818383
34.93962860 13.90340996 1.23857200 0.99870509 0.99314266 0.42321482
28.07139397 9.28566837 1.62344968 0.80238527 0.66329002 0.55472589
28.09908485 9.31677055 -0.37354791 0.80317676 0.66551173 -0.12763974
26.94612885 9.79729652 0.77295524 0.77022099 0.69983643 0.26411554
28.63864136 9.22616577 0.61399978 0.81859934 0.65903968 0.20980114
28.08817291 9.48736572 1.62820745 0.80286485 0.67769760 0.55635160
28.11767578 9.51937866 -0.37420076 0.80370820 0.67998433 -0.12786281
26.85218430 9.95457363 0.77187568 0.76753569 0.71107101 0.26374665
28.05202103 9.23252201 0.60010993 0.80183154 0.65949368 0.20505503
26.93870735 9.28892040 1.55957699 0.77000886 0.66352236 0.53290087
20.62497520 7.13314056 -0.31160659 0.58953881 0.50953156 -0.10647465
26.94053268 10.18043709 0.77701962 0.77006102 0.72720480 0.26550433
28.06549263 9.43275070 0.60200852 0.80221659 0.67379636 0.20570377
34.95362854 13.80603790 2.31529236 0.99910522 0.98618722 0.79112560
26.98357582 9.21166229 0.57462853 0.77129138 0.65800369 0.19634815
34.96747208 13.66157055 1.05472851 0.99950093 0.97586769 0.36039627
26.94593811 9.38824368 0.57517815 0.77021551 0.67061716 0.19653594
26.88302231 9.79253387 1.56647563 0.76841718 0.69949627 0.53525811
34.98493195 13.92245388 1.05828476 1.00000000 0.99450302 0.36161143
27.01752853 10.03409481 1.57896471 0.77226186 0.71675134 0.53952557
26.91232491 9.75739288 0.57747644 0.76925474 0.69698608 0.19732127
26.89925766 9.94428539 0.57877553 0.76888126 0.71033609 0.19776516
27.03461647 10.18769646 0.58407164 0.77275032 0.72772336 0.19957481
34.91609955 13.71527386 2.09684515 0.99803251 0.97970378 0.71648312
34.95126343 13.91949368 2.10326815 0.99903762 0.99429154 0.71867782
