19.79724121 -15.68605518 0.32558528 0.95033330 -0.97899890 0.14668342
19.92790604 -15.65768147 2.08045530 0.95660567 -0.97722799 0.93729150
18.09997940 -14.53276920 -0.48233083 0.86885911 -0.90701991 -0.21730079
20.09205627 -15.58339405 2.08778143 0.96448541 -0.97259158 0.94059211
19.77958870 -15.67571640 -0.51239336 0.94948596 -0.97835362 -0.23084463
20.40299034 -15.75222397 0.33508822 0.97941130 -0.98312861 0.15096472
20.00873947 -15.76536465 1.21930385 0.96048594 -0.98394871 0.54932356
20.04499626 -15.64144421 1.21674979 0.96222639 -0.97621459 0.54817289
20.68155289 -16.02254677 -0.52610397 0.99278325 -1.00000000 -0.23702157
17.72851753 -14.85528660 -0.61800730 0.85102773 -0.92714888 -0.27842608
20.10221291 -15.17076111 0.32422772 0.96497297 -0.94683832 0.14607182
17.92465591 -14.82909107 -0.62078828 0.86044300 -0.92551398 -0.27967897
19.71011925 -15.64251423 0.18239737 0.94615120 -0.97628140 0.08217408
19.90898514 -15.68871498 1.95145214 0.95569742 -0.97916490 0.87917268
20.43912888 -15.22768307 -0.51610291 0.98114604 -0.95039093 -0.23251587
17.97892380 -14.49713230 -0.61730164 0.86304808 -0.90479577 -0.27810815
20.02131653 -15.57434082 1.95293105 0.96108967 -0.97202653 0.87983900
18.24787712 -14.52600670 -0.62203354 0.87595868 -0.90659785 -0.28023997
20.45530891 -15.81979275 0.19125476 0.98192275 -0.98734570 0.08616453
20.50578880 -14.88047695 -0.51384747 0.98434597 -0.92872107 -0.23149975
18.37177849 -14.43703938 -0.62290519 0.88190639 -0.90104520 -0.28063267
19.92883110 -15.61467171 1.06887841 0.95665008 -0.97454369 0.48155355
18.39229965 -14.31342125 -0.62165993 0.88289148 -0.89332998 -0.28007165
20.21667480 -15.28245735 0.18468806 0.97046751 -0.95380950 0.08320609
17.83616829 -14.95066071 -0.71400291 0.85619533 -0.93310142 -0.32167423
20.14025307 -15.57723808 1.07573509 0.96679902 -0.97220737 0.48464265
20.83189201 -16.00610352 -0.68321586 1.00000000 -0.99897373 -0.30780399
20.26103592 -15.11682129 0.18387359 0.97259700 -0.94347179 0.08283915
17.94979286 -14.85485268 -0.71464628 0.86164969 -0.92712182 -0.32196409
19.21239662 -14.56861115 -0.63838756 0.92225885 -0.90925688 -0.28760782
17.98854446 -14.69754982 -0.71291405 0.86350989 -0.91730422 -0.32118368
19.79200363 -15.70876884 0.08894538 0.95008188 -0.98041648 0.04007188
19.91159821 -15.66831303 1.80877674 0.95582283 -0.97789156 0.81489426
18.11012459 -14.60805893 -0.71385443 0.86934614 -0.91171890 -0.32160735
20.06007767 -15.58200073 1.81368029 0.96295035 -0.97250462 0.81710339
17.71919060 -15.21758842 -0.86707985 0.85057998 -0.94976091 -0.39063880
20.46272659 -15.82549667 0.09433047 0.98227882 -0.98770171 0.04249798
18.39135551 -14.45709133 -0.71697247 0.88284612 -0.90229672 -0.32301208
17.86320877 -15.14737034 -0.86907685 0.85749334 -0.94537842 -0.39153850
20.01467705 -15.61140633 0.95405304 0.96077096 -0.97433990 0.42982218
20.58304787 -14.80956745 -0.66424686 0.98805463 -0.92429549 -0.29925802
18.49447441 -14.35104561 -0.71736842 0.88779616 -0.89567816 -0.32319048
17.82937050 -14.92692852 -0.86383474 0.85586900 -0.93162024 -0.38917682
20.12441444 -15.54498100 0.95603019 0.96603870 -0.97019416 0.43071291
17.88106155 -14.82741547 -0.86308581 0.85835034 -0.92540938 -0.38883939
20.28883743 -15.13864517 0.08935824 0.97393155 -0.94483387 0.04025788
18.00633049 -14.74139500 -0.86439639 0.86436367 -0.92004067 -0.38942984
19.65976143 -15.63638306 -0.08020002 0.94373381 -0.97589874 -0.03613190
19.95515823 -15.76621437 1.65812719 0.95791388 -0.98400176 0.74702328
18.03490067 -14.57639217 -0.86183769 0.86573511 -0.90974253 -0.38827708
19.95006371 -15.55946159 1.64882684 0.95766932 -0.97109789 0.74283326
20.60548019 -15.22271252 -0.77205855 0.98913151 -0.95008069 -0.34782958
18.22762680 -14.54391861 -0.86589414 0.87498665 -0.90771580 -0.39010462
20.53717232 -15.91793156 -0.07821728 0.98585248 -0.99347073 -0.03523863
18.40495872 -14.49721146 -0.86932647 0.88349915 -0.90480071 -0.39165094
20.02996635 -15.67517662 0.79309303 0.96150488 -0.97831994 0.35730609
20.54831505 -14.78528118 -0.76453555 0.98638737 -0.92277974 -0.34444031
18.51618576 -14.39725399 -0.87013775 0.88883841 -0.89856213 -0.39201647
20.30411720 -15.73626518 0.80238450 0.97466505 -0.98213255 0.36149210
18.68354225 -14.38676071 -0.87406939 0.89687210 -0.89790726 -0.39378774
20.27448082 -15.16025829 -0.07975023 0.97324240 -0.94618279 -0.03592926
20.14875793 -15.41387558 0.79067874 0.96720731 -0.96201158 0.35621840
20.38863373 -15.04683781 -0.07969516 0.97872216 -0.93910402 -0.03590444
19.62644386 -15.67459106 -0.22136420 0.94213450 -0.97828335 -0.09972951
20.02672768 -15.82270908 1.52808690 0.96134943 -0.98752773 0.68843722
18.83568573 -14.13042927 -0.87300849 0.90417546 -0.88190907 -0.39330980
20.12889862 -15.69901848 1.52834749 0.96625400 -0.97980791 0.68855464
20.59386826 -15.25037193 -0.93791133 0.98857409 -0.95180696 -0.42254996
20.58625031 -16.02063370 -0.22458287 0.98820835 -0.99988061 -0.10117958
20.66587257 -15.87514782 -0.22449641 0.99203050 -0.99080050 -0.10114064
19.87197495 -15.56753635 0.66404361 0.95392078 -0.97160184 0.29916644
20.82276917 -15.01848030 -0.93940914 0.99956208 -0.93733418 -0.42322475
20.32282829 -15.76626873 0.67922133 0.97556323 -0.98400515 0.30600435
20.54049301 -14.66781521 -0.92586690 0.98601186 -0.91544843 -0.41712368
20.46631050 -15.36745071 -0.22294694 0.98245090 -0.95911413 -0.10044257
20.14357948 -15.42579842 0.66810793 0.96695870 -0.96275574 0.30099753
20.32611847 -15.06369400 -0.22196937 0.97572118 -0.94015604 -0.10000215
19.62651253 -15.72894192 -0.33810282 0.94213778 -0.98167551 -0.15232286
20.25765610 -15.31217384 0.66880649 0.97243476 -0.95566416 0.30131224
20.10215378 -15.72257996 1.38235104 0.96497011 -0.98127848 0.62277997
20.21002007 -15.60329342 1.38306463 0.97014809 -0.97383356 0.62310147
20.60647964 -15.88671303 -0.34501350 0.98917943 -0.99152231 -0.15543628
19.83409691 -15.64769077 2.21038866 0.95210254 -0.97660446 0.99582934
19.83877754 -15.56440353 0.49223867 0.95232719 -0.97140634 0.22176449
19.98602676 -15.61541748 2.21964598 0.95939565 -0.97459024 1.00000000
20.33161163 -15.79738140 0.50552899 0.97598487 -0.98594695 0.22775207
20.39521408 -15.36880589 -0.34117600 0.97903800 -0.95919871 -0.15370740
20.48977280 -15.23916245 -0.34116009 0.98357713 -0.95110738 -0.15370023
20.15731049 -15.25917244 0.49388748 0.96761787 -0.95235622 0.22250733
20.31281281 -14.90990639 -0.33846906 0.97508246 -0.93055785 -0.15248786
