-7.66305923 -12.82642937 -0.35958794 -0.95212197 -0.91830230 -0.13853009
-7.59143019 -12.88984489 -0.35985503 -0.94322217 -0.92284250 -0.13863298
-7.49143410 -12.85803413 -0.35869762 -0.93079782 -0.92056507 -0.13818710
-7.69231462 -12.70689487 0.05119076 -0.95575690 -0.90974432 0.01972107
-7.34695387 -12.98250771 -0.35923180 -0.91284639 -0.92947668 -0.13839288
-6.94461489 -12.45160770 -0.34943849 -0.86285651 -0.89146715 -0.13462004
-6.84991264 -12.46517849 -0.34893399 -0.85108989 -0.89243871 -0.13442568
-6.67175484 -12.32317448 -0.34581792 -0.82895410 -0.88227201 -0.13322523
-7.55042791 -12.61828899 -0.00586823 -0.93812770 -0.90340060 -0.00226072
-6.99779463 -13.69037914 -0.36602777 -0.86946398 -0.98015642 -0.14101101
-6.75573063 -12.49671173 0.04294422 -0.83938795 -0.89469635 0.01654412
-7.53283262 -12.77064228 -0.00477326 -0.93594152 -0.91430825 -0.00183888
-6.88653326 -13.68402672 -0.36519682 -0.85563993 -0.97970158 -0.14069089
-7.00134897 -12.71080494 -0.43910912 -0.86990559 -0.91002423 -0.16916536
-6.89780760 -13.92426872 -0.36846125 -0.85704076 -0.99690163 -0.14194851
-6.83624792 -12.59824848 -0.43541494 -0.84939206 -0.90196580 -0.16774219
-8.04840088 -12.54048347 -0.60309988 -1.00000000 -0.89783013 -0.23234227
-6.74268055 -12.56694126 -0.43392065 -0.83776647 -0.89972436 -0.16716653
-6.54086637 -12.37764072 -0.42848316 -0.81269145 -0.88617152 -0.16507176
-7.79255581 -12.84252739 -0.10337327 -0.96821171 -0.91945487 -0.03982422
-6.40002012 -12.29797077 -0.42566064 -0.79519153 -0.88046759 -0.16398439
-8.02003288 -12.98354912 -0.61433309 -0.99647534 -0.92955124 -0.23666984
-7.67363548 -12.82778263 -0.10354309 -0.95343602 -0.91839921 -0.03988964
-7.85388613 -12.89550591 -0.60927814 -0.97583187 -0.92324781 -0.23472244
-6.76619053 -12.47840881 -0.01044556 -0.84068757 -0.89338595 -0.00402412
-7.51244259 -12.73975563 -0.10390567 -0.93340808 -0.91209698 -0.04002932
-6.14380407 -12.17762756 -0.42101178 -0.76335710 -0.87185162 -0.16219342
-7.56925869 -13.02167797 -0.10328148 -0.94046742 -0.93228108 -0.03978885
-6.11389399 -13.49266148 -0.35768861 -0.75964081 -0.96600091 -0.13779838
-6.13199139 -12.29763889 -0.42312866 -0.76188940 -0.88044381 -0.16300894
-6.85357904 -12.54625607 -0.49177790 -0.85154545 -0.89824343 -0.18945584
-6.71390724 -11.30675697 -0.54843175 -0.83419144 -0.80950207 -0.21128155
-5.62897491 -12.62971878 -0.34305799 -0.69939047 -0.90421891 -0.13216197
-5.55677557 -12.90686321 0.11996912 -0.69041985 -0.92406094 0.04621772
-6.73965073 -12.52387714 -0.48994663 -0.83739007 -0.89664125 -0.18875036
-6.72373152 -11.48661041 -0.55342424 -0.83541209 -0.82237858 -0.21320489
-7.86054277 -12.67622375 -0.18744186 -0.97665894 -0.90754843 -0.07221137
-5.46631956 -12.47422314 -0.33997163 -0.67918080 -0.89308625 -0.13097297
-5.86792707 -12.14881897 -0.41794020 -0.72907984 -0.86978912 -0.16101010
-5.42897892 -12.83095837 0.11776766 -0.67454129 -0.91862655 0.04536961
-6.50580597 -12.27250576 -0.48173073 -0.80833524 -0.87864441 -0.18558520
-6.67947245 -11.57706928 -0.55517161 -0.82991302 -0.82885498 -0.21387807
-6.94924021 -12.44732666 -0.10513111 -0.86343116 -0.89116061 -0.04050142
-5.34605074 -12.41091824 -0.33839875 -0.66423762 -0.88855398 -0.13036703
-5.79836702 -12.19988537 -0.41827226 -0.72043717 -0.87344521 -0.16113803
-5.67870140 -13.66296959 0.13361816 -0.70556891 -0.97819400 0.05147596
-6.89312267 -12.53101730 -0.10502555 -0.85645866 -0.89715242 -0.04046075
-7.69239044 -12.76028442 -0.18738866 -0.95576632 -0.91356671 -0.07219087
-5.74369097 -12.28313828 -0.41935146 -0.71364373 -0.87940562 -0.16155379
-6.99738503 -13.61494541 -0.51682150 -0.86941308 -0.97475576 -0.19910382
-7.05571032 -12.58880520 -0.58843434 -0.87665993 -0.90128970 -0.22669242
-6.69864655 -12.36147976 -0.10558090 -0.83229536 -0.88501447 -0.04067470
-7.62021923 -12.82213020 -0.18744186 -0.94679916 -0.91799450 -0.07221137
-4.88620472 -13.29334927 2.43400311 -0.60710257 -0.95173120 0.93769181
-6.20292234 -13.48080921 -0.44591638 -0.77070248 -0.96515232 -0.17178784
-6.27063179 -12.38759422 -0.48158225 -0.77911526 -0.88688409 -0.18552801
-6.97841120 -12.63638592 -0.58855915 -0.86705559 -0.90469623 -0.22674051
-6.62367868 -12.40861320 -0.10556713 -0.82298070 -0.88838893 -0.04066940
-7.50813532 -12.76989937 -0.18710271 -0.93287295 -0.91425508 -0.07208071
-5.63395977 -13.59342766 0.64602751 -0.70000982 -0.97321522 0.24888000
-4.75733852 -13.13273239 2.40001154 -0.59109116 -0.94023192 0.92459667
-5.75017357 -12.65664673 -0.42644927 -0.71444923 -0.90614682 -0.16428819
-6.18721247 -12.36690331 -0.48019645 -0.76875055 -0.88540274 -0.18499413
-7.40474129 -12.77699089 -0.18694974 -0.92002642 -0.91476279 -0.07202178
-5.49665403 -13.50085449 0.63868463 -0.68294984 -0.96658748 0.24605119
-4.71807289 -13.28496933 2.42267251 -0.58621246 -0.95113128 0.93332672
-5.48396349 -12.27654934 -0.41698551 -0.68137306 -0.87893391 -0.16064231
-5.51695204 -12.83222961 0.03991539 -0.68547183 -0.91871756 0.01537728
-6.04597712 -12.27629566 -0.47663292 -0.75120229 -0.87891573 -0.18362129
-6.35286999 -11.81169319 -0.55660701 -0.78933322 -0.84565276 -0.21443105
-7.32827377 -12.83021545 -0.18697634 -0.91052544 -0.91857338 -0.07203203
-7.85308886 -12.64822197 -0.25638488 -0.97573280 -0.90554363 -0.09877145
-5.26098919 -13.15660858 0.61697531 -0.65366888 -0.94194132 0.23768774
-4.86554241 -12.29142284 -0.33403626 -0.60453528 -0.87999874 -0.12868638
-4.66353464 -13.39812946 2.43812323 -0.57943618 -0.95923293 0.93927908
-6.23817492 -11.77547932 -0.55392349 -0.77508253 -0.84306002 -0.21339723
-7.14574003 -12.69460869 -0.18628474 -0.88784593 -0.90886468 -0.07176559
-7.71590185 -12.60358047 -0.25550911 -0.95868754 -0.90234756 -0.09843405
-5.13531590 -13.07966042 0.61069661 -0.63805419 -0.93643230 0.23526889
-5.03236341 -13.36353111 1.11182141 -0.62526250 -0.95675588 0.42832559
-4.78966045 -12.32548141 -0.33409563 -0.59510708 -0.88243717 -0.12870926
-5.10264397 -13.64740944 0.12947208 -0.63399476 -0.97707999 0.04987870
-5.66226530 -13.63705635 0.05007086 -0.70352674 -0.97633880 0.01928964
-6.44554949 -13.51791000 -0.50860560 -0.80084848 -0.96780854 -0.19593866
-6.33377647 -12.13851547 -0.56534392 -0.78696084 -0.86905146 -0.21779691
-6.91004896 -12.45745277 -0.18521406 -0.85856175 -0.89188558 -0.07135312
-7.69560242 -12.74932671 -0.25641674 -0.95616537 -0.91278219 -0.09878372
-4.93179274 -13.35000896 1.10763502 -0.61276680 -0.95578778 0.42671281
-4.65179491 -12.19641685 -0.33157310 -0.57797754 -0.87319684 -0.12773746
-4.92946625 -11.62167263 -0.39992586 -0.61247772 -0.83204830 -0.15407014
-4.88853025 -13.32794952 0.12261087 -0.60739148 -0.95420843 0.04723544
-5.73053646 -12.21056938 -0.47178259 -0.71200931 -0.87421012 -0.18175271
-5.69664383 -11.09074116 -0.52715105 -0.70779824 -0.79403651 -0.20308323
-6.77328730 -12.39348507 -0.18480840 -0.84156930 -0.88730586 -0.07119684
-7.61431932 -12.79571056 -0.25640079 -0.94606614 -0.91610301 -0.09877758
-5.11623001 -13.53005409 0.63272524 -0.63568282 -0.96867800 0.24375536
-4.84240770 -13.36573887 1.10623956 -0.60166085 -0.95691395 0.42617521
-4.64207745 -12.40530968 -0.33442208 -0.57677019 -0.88815242 -0.12883502
-4.92893457 -11.82579422 -0.40382758 -0.61241168 -0.84666228 -0.15557326
-4.79592943 -13.33392715 0.12213389 -0.59588599 -0.95463639 0.04705168
-6.17994833 -13.39075279 -0.50296336 -0.76784796 -0.95870477 -0.19376501
-5.61508083 -11.10314369 -0.52633977 -0.69766414 -0.79492450 -0.20277070
-4.98756075 -13.30192089 1.59496319 -0.61969584 -0.95234489 0.61445439
-6.65601301 -12.31609249 -0.18439610 -0.82699817 -0.88176501 -0.07103800
-7.58342886 -12.88138962 -0.25686258 -0.94222802 -0.92223716 -0.09895547
-5.05658388 -13.56524754 0.63336372 -0.62827188 -0.97119766 0.24400133
-5.66308880 -13.63199806 0.56567526 -0.70362908 -0.97597665 0.21792457
-4.81649733 -13.06157017 -0.34445280 -0.59844154 -0.93513709 -0.13269933
-4.64456892 -13.10557175 0.11725399 -0.57707971 -0.93828738 0.04517172
-5.70671368 -12.51678181 -0.47841468 -0.70904940 -0.89613324 -0.18430771
-5.99219179 -11.98528671 -0.55623257 -0.74451953 -0.85808110 -0.21428680
-4.83152533 -13.13538837 1.56927967 -0.60030872 -0.94042212 0.60455990
-6.60755253 -12.41244030 -0.18460225 -0.82097709 -0.88866293 -0.07111742
-7.48020887 -12.89075756 -0.25651225 -0.92940313 -0.92290789 -0.09882051
-4.95212317 -13.54420376 0.63038403 -0.61529279 -0.96969104 0.24285340
-5.43948793 -13.33086395 0.54834318 -0.67584705 -0.95441705 0.21124743
-5.25009584 -13.42038059 1.04976904 -0.65231538 -0.96082598 0.40442014
-4.45527363 -12.31636429 -0.33222601 -0.55356008 -0.88178444 -0.12798899
-4.84296799 -11.98859119 -0.40627655 -0.60173047 -0.85831767 -0.15651673
-4.62028074 -13.30269814 0.12051949 -0.57406193 -0.95240057 0.04642974
-5.49017286 -12.24386215 -0.47005031 -0.68214458 -0.87659371 -0.18108536
-5.83265448 -11.85243702 -0.55030394 -0.72469729 -0.84856975 -0.21200281
-5.49776745 -12.74127865 -0.01329966 -0.68308818 -0.91220599 -0.00512365
-4.78713989 -13.27198887 1.58309066 -0.59479392 -0.95020193 0.60988057
-6.55073357 -12.49448204 -0.18475521 -0.81391740 -0.89453667 -0.07117634
-7.32939959 -12.81607246 -0.25539765 -0.91066533 -0.91756082 -0.09839112
-4.73466682 -13.20450592 0.60941958 -0.58827424 -0.94537055 0.23477691
-5.18485117 -12.94036579 0.52653515 -0.64420885 -0.92645955 0.20284596
-4.38711691 -12.37051487 -0.33264148 -0.54509175 -0.88566130 -0.12814905
-4.86229372 -12.25654602 -0.41158953 -0.60413164 -0.87750179 -0.15856354
-4.86708593 -13.26022625 2.35352945 -0.60472709 -0.94935977 0.90668958
-5.21139240 -13.69160271 0.04859463 -0.64750654 -0.98024398 0.01872092
-5.41233110 -12.27628517 -0.47000083 -0.67247283 -0.87891501 -0.18106630
-5.72048140 -11.81154537 -0.54762042 -0.71076000 -0.84564215 -0.21096899
-5.78174639 -13.63779163 -0.00489891 -0.71837205 -0.97639143 -0.00188729
-4.71815729 -13.34300327 1.58842111 -0.58622295 -0.95528620 0.61193407
-7.17096806 -12.72433758 -0.25413969 -0.89098048 -0.91099310 -0.09790649
-4.65622425 -13.24718952 0.61016452 -0.57852787 -0.94842643 0.23506391
-5.04153681 -13.38089657 1.04056644 -0.62640232 -0.95799911 0.40087485
-4.35309839 -12.52446175 -0.33462980 -0.54086500 -0.89668310 -0.12891504
-4.74074793 -12.17326450 -0.40905756 -0.58902979 -0.87153929 -0.15758809
-4.76825237 -13.24789047 2.34586287 -0.59244716 -0.94847661 0.90373605
-5.09085321 -13.63232517 0.04734746 -0.63252980 -0.97600007 0.01824046
-5.76522350 -12.09610176 -0.55623257 -0.71631914 -0.86601484 -0.21428680
-5.68674612 -13.65168285 -0.00511431 -0.70656842 -0.97738594 -0.00197027
-6.83974934 -12.31839466 -0.25003150 -0.84982711 -0.88192981 -0.09632383
-4.58908987 -13.32341480 0.61282498 -0.57018656 -0.95388377 0.23608884
-4.93932724 -13.36372471 1.03629386 -0.61370295 -0.95676970 0.39922884
-4.70072556 -12.29801083 -0.41117445 -0.58405709 -0.88047045 -0.15840362
-4.69677925 -13.31104565 2.35186267 -0.58356678 -0.95299822 0.90604746
-5.65845490 -12.06697559 -0.55398589 -0.70305330 -0.86392957 -0.21342127
-6.73334503 -12.30853176 -0.24955381 -0.83660656 -0.88122368 -0.09613980
-5.13261175 -13.54176521 0.55234289 -0.63771820 -0.96951646 0.21278831
-4.84571600 -13.36827469 1.03399324 -0.60207188 -0.95709550 0.39834255
-5.39517164 -13.33748817 0.96734518 -0.67034084 -0.95489132 0.37266660
-4.67412758 -12.46202564 -0.41416299 -0.58075231 -0.89221299 -0.15955496
-4.77459240 -13.29453278 0.04192612 -0.59323490 -0.95181596 0.01615190
-4.88770294 -11.67481995 -0.45119336 -0.60728872 -0.83585334 -0.17382078
-5.76566410 -12.49772835 -0.56759053 -0.71637386 -0.89476913 -0.21866241
-4.97588682 -13.36071110 1.52082753 -0.61824542 -0.95655400 0.58589387
-6.65714025 -12.30672932 -0.24925128 -0.82713825 -0.88109463 -0.09602325
-5.05680943 -13.53400517 0.55072397 -0.62829989 -0.96896088 0.21216463
-5.32857800 -13.35349846 0.96657902 -0.66206670 -0.95603758 0.37237144
-4.65851688 -12.60012913 -0.41673648 -0.57881272 -0.90210044 -0.16054638
-4.65897751 -13.16802216 0.03991539 -0.57886994 -0.94275850 0.01537728
-5.71751595 -12.54839230 -0.56840181 -0.71039152 -0.89839637 -0.21897496
-5.60399008 -12.77685738 -0.10582875 -0.69628614 -0.91475326 -0.04077018
-4.82614994 -13.21267033 1.49862778 -0.59964085 -0.94595504 0.57734150
-5.34446383 -13.07546806 0.46973208 -0.66404045 -0.93613213 0.18096276
-5.22645140 -13.34027195 0.96274805 -0.64937764 -0.95509064 0.37089556
-4.15180922 -12.92069530 -0.33925939 -0.51585519 -0.92505121 -0.13069858
-4.51970911 -12.46569633 -0.41312531 -0.56156611 -0.89247578 -0.15915519
-4.02743578 -13.10330677 0.11365828 -0.50040197 -0.93812525 0.04378648
-4.83616638 -11.91880417 -0.45629117 -0.60088539 -0.85332131 -0.17578469
-5.36382866 -11.97334290 -0.54749560 -0.66644651 -0.85722595 -0.21092092
-5.59430981 -12.97516918 -0.10542026 -0.69508338 -0.92895126 -0.04061281
-4.75379848 -13.27264118 1.50232768 -0.59065133 -0.95024866 0.57876688
-6.50383139 -12.39295006 -0.24928312 -0.80808991 -0.88726759 -0.09603552
-4.76764059 -13.26764584 0.53405845 -0.59237117 -0.94989103 0.20574430
-5.24143553 -13.05683899 0.46732506 -0.65123940 -0.93479836 0.18003547
-4.07651424 -12.96561241 -0.33955616 -0.50649989 -0.92826706 -0.13081291
-4.39555693 -12.36580181 -0.41030279 -0.54614043 -0.88532388 -0.15806782
-3.94617152 -13.13218498 0.11373166 -0.49030504 -0.94019276 0.04381475
-4.83047581 -12.12365818 -0.46094355 -0.60017830 -0.86798775 -0.17757700
-5.28687525 -12.00315189 -0.54737079 -0.65688521 -0.85936016 -0.21087283
-4.65419292 -13.21259212 0.52977300 -0.57827550 -0.94594944 0.20409334
-5.01491880 -13.28915882 0.95324725 -0.62309504 -0.95143121 0.36723542
-4.32173872 -12.40449905 -0.41055185 -0.53696865 -0.88809443 -0.15816377
-4.73606920 -12.10719109 -0.45970622 -0.58844846 -0.86680877 -0.17710033
-5.36838627 -12.39727783 -0.55966491 -0.66701281 -0.88757741 -0.21560909
-5.16475677 -13.78073025 -0.00576052 -0.64171219 -0.98662508 -0.00221922
-4.57566690 -13.25478649 0.53043962 -0.56851876 -0.94897032 0.20435014
-4.94511461 -13.35782719 0.95631200 -0.61442202 -0.95634753 0.36841610
-4.32353163 -12.66404343 -0.41565728 -0.53719139 -0.90667635 -0.16013062
-4.68559885 -12.20394516 -0.46148798 -0.58217764 -0.87373585 -0.17778675
-5.04025698 -13.70961666 -0.00674779 -0.62624329 -0.98153371 -0.00259957
-6.93211937 -13.83198166 -0.26103446 -0.86130393 -0.99029440 -0.10056268
-4.89365911 -13.36756229 1.93953526 -0.60802877 -0.95704448 0.74719965
-4.48329639 -13.25679302 0.52910638 -0.55704188 -0.94911402 0.20383652
-5.15480137 -13.57758522 0.48683891 -0.64047521 -0.97208095 0.18755311
-4.83261728 -13.30986881 0.94987601 -0.60044438 -0.95291394 0.36593667
-4.65726471 -12.36231899 -0.46490303 -0.57865715 -0.88507456 -0.17910239
-4.95365477 -11.84816456 -0.53882110 -0.61548311 -0.84826392 -0.20757909
-4.77699232 -13.24784565 -0.01145078 -0.59353310 -0.94847339 -0.00441137
-4.78579521 -13.26568508 1.92017186 -0.59462684 -0.94975060 0.73974001
-5.07261896 -13.55304432 0.48460382 -0.63026422 -0.97032398 0.18669206
-5.40540600 -12.97948360 0.37673220 -0.67161244 -0.92926013 0.14513487
-4.77720213 -13.35315800 0.95156163 -0.59355915 -0.95601320 0.36658603
-5.35915184 -13.40149403 0.88126969 -0.66586542 -0.95947379 0.33950630
-4.62668324 -12.45914459 -0.46688274 -0.57485747 -0.89200675 -0.17986506
-4.77607822 -13.10717583 2.22378683 -0.59341955 -0.93840224 0.85670668
-4.90006304 -11.87691689 -0.53900832 -0.60882443 -0.85032243 -0.20765121
-4.68117046 -13.17593479 -0.01234829 -0.58162737 -0.94332498 -0.00475714
-5.63205194 -12.71617794 -0.18409020 -0.69977278 -0.91040891 -0.07092015
-4.87558985 -13.17583275 1.44133377 -0.60578370 -0.94331771 0.55526918
-4.72666645 -13.36456108 1.93086505 -0.58728021 -0.95682961 0.74385953
-5.31083679 -12.98176193 0.37548846 -0.65986234 -0.92942327 0.14465572
-5.31581926 -13.53883839 0.88916087 -0.66048139 -0.96930689 0.34254634
-4.16569233 -12.92708206 -0.41980806 -0.51758015 -0.92550850 -0.16172969
-4.56329918 -12.52932167 -0.46797159 -0.56698209 -0.89703101 -0.18028454
-4.73596907 -13.25597668 2.24423647 -0.58843601 -0.94905555 0.86458480
-4.87960863 -12.04077721 -0.54350162 -0.60628301 -0.86205393 -0.20938224
-4.62055969 -13.26933479 -0.01173798 -0.57409662 -0.95001191 -0.00452202
-5.84646416 -13.43021774 -0.18655074 -0.72641313 -0.96153027 -0.07186807
-4.81634331 -13.27162933 1.44915712 -0.59842241 -0.95017618 0.55828309
-4.79403830 -13.31476116 0.47084960 -0.59565103 -0.95326418 0.18139328
-5.49389505 -13.67100811 0.40138757 -0.68260705 -0.97876954 0.15463327
-5.14712238 -13.35614586 0.87281489 -0.63952112 -0.95622712 0.33624911
-4.10855484 -13.02924442 -0.42146835 -0.51048088 -0.93282276 -0.16236931
-3.93340945 -13.11687565 0.03642843 -0.48871937 -0.93909669 0.01403393
-4.41351461 -12.35804749 -0.46272531 -0.54837161 -0.88476872 -0.17826343
-4.67208242 -13.34140110 2.25382233 -0.58049822 -0.95517147 0.86827773
-4.83799314 -12.15658379 -0.54637229 -0.60111237 -0.87034506 -0.21048816
-4.74414110 -13.33347797 1.45295703 -0.58945137 -0.95460421 0.55974698
-4.13504028 -13.24818325 0.52358299 -0.51377165 -0.94849759 0.20170866
-4.64868498 -13.16929913 0.46285495 -0.57759112 -0.94284993 0.17831337
-5.36519241 -13.59748459 0.39714420 -0.66661596 -0.97350568 0.15299852
-5.01564264 -13.26326466 0.86337370 -0.62318498 -0.94957733 0.33261192
-3.48342967 -12.97801304 -0.33727103 -0.43281016 -0.92915487 -0.12993257
-4.02009487 -13.03379345 -0.42101178 -0.49948990 -0.93314844 -0.16219342
-3.82208991 -13.04349804 0.03513036 -0.47488812 -0.93384326 0.01353386
-4.35879946 -12.45161915 -0.46445757 -0.54157335 -0.89146793 -0.17893077
-5.46049166 -13.96754551 -0.60609543 -0.67845672 -1.00000000 -0.23349631
-5.11736917 -13.66076279 -0.10436923 -0.63582432 -0.97803605 -0.04020791
-4.59837389 -13.29271221 0.46715313 -0.57134008 -0.95168561 0.17996924
-5.00744295 -13.49641800 0.87859237 -0.62216622 -0.96626985 0.33847487
-3.40181828 -12.99964428 -0.33727103 -0.42267010 -0.93070358 -0.12993257
-4.50134516 -13.12589741 -0.48138428 -0.55928439 -0.93974257 -0.18545173
-4.71934748 -12.30595684 -0.54936785 -0.58637083 -0.88103932 -0.21164218
-5.03143549 -13.69264698 -0.10436923 -0.62514722 -0.98031878 -0.04020791
-4.90268993 -13.30027866 1.85907817 -0.60915083 -0.95222735 0.71620387
-4.51130199 -13.24232483 0.46388653 -0.56052154 -0.94807816 0.17871079
-4.87638330 -13.33633900 0.86478281 -0.60588229 -0.95480907 0.33315477
-5.32352638 -13.02775860 0.78061968 -0.66143900 -0.93271637 0.30073121
-4.70815706 -12.45139599 -0.55348665 -0.58498043 -0.89145195 -0.21322894
-4.83287334 -13.34781361 -0.10526881 -0.60047621 -0.95563060 -0.04055447
-6.09520531 -13.51498413 -0.25589126 -0.75731879 -0.96759909 -0.09858128
-5.03906775 -13.34531021 1.36798847 -0.62609553 -0.95545137 0.52701312
-4.81497002 -13.31965160 1.85740304 -0.59825176 -0.95361435 0.71555853
-4.42486095 -13.26092720 0.46345669 -0.54978138 -0.94940996 0.17854519
-5.09425783 -13.59462452 0.39348614 -0.63295281 -0.97330087 0.15158926
-4.76072025 -13.27849579 0.85815984 -0.59151131 -0.95066780 0.33060330
-5.45100260 -13.02464104 0.31063628 -0.67727774 -0.93249321 0.11967162
-3.02441192 -12.09302521 -0.32284814 -0.37577799 -0.86579460 -0.12437620
-4.66683054 -12.58000946 -0.55679423 -0.57984567 -0.90065998 -0.21450317
-4.67770576 -13.17823219 -0.10575531 -0.58119690 -0.94348949 -0.04074189
-5.62306166 -12.68330479 -0.24831180 -0.69865578 -0.90805537 -0.09566132
-4.87813473 -13.16979313 1.34467161 -0.60609984 -0.94288528 0.51803041
-4.73251390 -13.35337353 1.85796142 -0.58800673 -0.95602864 0.71577364
-5.02535295 -13.67136383 0.39524201 -0.62439150 -0.97879499 0.15226570
-4.71904087 -13.42666245 0.86703742 -0.58633274 -0.96127570 0.33402336
-5.40238810 -13.14002991 0.31343052 -0.67123747 -0.94075441 0.12074810
-5.33580923 -13.54322720 0.81214958 -0.66296512 -0.96962112 0.31287798
-4.96243715 -13.63420391 -0.59086823 -0.61657429 -0.97613454 -0.22763008
-4.61922884 -13.27721882 -0.10558549 -0.57393128 -0.95057636 -0.04067647
-5.38050365 -12.34644890 -0.24507940 -0.66851836 -0.88393831 -0.09441604
-4.82665396 -13.28612995 1.35433447 -0.59970349 -0.95121437 0.52175295
-4.75701094 -13.19901943 0.37563479 -0.59105045 -0.94497770 0.14471209
-5.51289415 -13.65406609 0.32987842 -0.68496764 -0.97755659 0.12708460
-5.09567738 -13.17420673 0.78400719 -0.63312918 -0.94320130 0.30203623
-2.95686769 -12.49021912 -0.32833835 -0.36738575 -0.89423150 -0.12649129
-4.11331701 -12.98231411 -0.47499964 -0.51107258 -0.92946279 -0.18299207
-4.50433397 -12.62636948 -0.55641979 -0.55965579 -0.90397912 -0.21435893
-5.30993509 -12.39654636 -0.24522270 -0.65975034 -0.88752502 -0.09447125
-4.76787233 -13.38548374 1.36210680 -0.59239995 -0.95832753 0.52474725
-4.11711836 -13.15881729 0.45520416 -0.51154488 -0.94209945 0.17536592
-4.64724302 -13.15330696 0.37270835 -0.57741195 -0.94170499 0.14358468
-5.04878473 -13.30117416 0.79065192 -0.62730283 -0.95229143 0.30459610
-5.49818039 -13.04101181 0.70508617 -0.68313950 -0.93366522 0.27163216
-2.88456655 -12.53584480 -0.32875383 -0.35840243 -0.89749807 -0.12665135
-3.45205450 -12.82116413 -0.41349888 -0.42891183 -0.91792536 -0.15929911
-4.03520060 -13.01936626 -0.47529662 -0.50136673 -0.93211555 -0.18310648
-4.62173128 -13.21455956 -0.57495451 -0.57424217 -0.94609034 -0.22149937
-4.80380249 -13.21162605 2.11295271 -0.59686422 -0.94588029 0.81400818
-3.85563207 -13.09081936 -0.01536395 -0.47905567 -0.93723118 -0.00591891
-5.19568920 -13.72507763 -0.18664384 -0.64555550 -0.98264062 -0.07190394
-4.60128307 -13.28795719 0.37680537 -0.57170153 -0.95134521 0.14516304
-5.31631708 -13.65889168 0.32771924 -0.66054326 -0.97790205 0.12625277
-5.04698277 -13.55344296 0.80602598 -0.62707895 -0.97035253 0.31051889
-2.77802658 -12.42877293 -0.32685450 -0.34516504 -0.88983226 -0.12591964
-3.26265359 -12.43081760 -0.40465775 -0.40537912 -0.88997865 -0.15589309
-4.74669504 -13.31413937 2.12472820 -0.58976871 -0.95321971 0.81854469
-3.73149633 -12.96865559 -0.01672817 -0.46363202 -0.92848492 -0.00644447
-5.05571556 -13.54693794 -0.18592563 -0.62816399 -0.96988678 -0.07162724
-4.92479134 -13.31904984 1.78246975 -0.61189687 -0.95357126 0.68669069
-4.53861427 -13.30949306 0.37680537 -0.56391501 -0.95288706 0.14516304
-5.27401638 -13.74167728 0.32968789 -0.65528750 -0.98382908 0.12701119
-5.47193193 -12.86802769 0.21154359 -0.67987818 -0.92128050 0.08149648
-4.99264812 -13.60331917 0.80785006 -0.62032795 -0.97392339 0.31122163
-5.59322357 -13.68247414 0.74255341 -0.69494843 -0.97959048 0.28606629
-2.74994731 -12.58243847 -0.32899123 -0.34167624 -0.90083390 -0.12674281
-3.19551206 -12.41314793 -0.40395212 -0.39703688 -0.88871360 -0.15562125
-4.39142036 -13.01468086 -0.56671685 -0.54562646 -0.93178010 -0.21832584
-4.69968891 -13.38110638 2.13197446 -0.58392829 -0.95801413 0.82133627
-5.05825758 -13.35472775 1.29921222 -0.62847984 -0.95612562 0.50051731
-4.83091402 -13.32176685 1.77844691 -0.60023278 -0.95376575 0.68514091
-5.12229109 -13.60047531 0.32378191 -0.63643587 -0.97371978 0.12473593
-5.41263056 -12.95377827 0.21294257 -0.67251009 -0.92741978 0.08203544
-4.77849579 -13.27557278 0.78296489 -0.59371990 -0.95045853 0.30163470
-5.24740839 -13.07295609 0.70116103 -0.65198147 -0.93595231 0.27012002
-2.59551144 -12.24134445 -0.32356039 -0.32248783 -0.87641340 -0.12465059
-2.96672153 -11.83584499 -0.39116773 -0.36861005 -0.84738189 -0.15069610
-4.71951818 -13.14609623 -0.18428969 -0.58639205 -0.94118869 -0.07099701
-4.96734333 -13.36758232 1.29720879 -0.61718386 -0.95704591 0.49974549
-4.75637341 -13.37801456 1.78220153 -0.59097123 -0.95779282 0.68658739
-4.30736017 -13.17180157 0.36934292 -0.53518212 -0.94302911 0.14228816
-5.04432774 -13.65302753 0.32448044 -0.62674904 -0.97748226 0.12500504
-5.59932566 -13.63820648 0.23052973 -0.69570661 -0.97642112 0.08881083
-4.70557165 -13.33546257 0.78504950 -0.58465922 -0.95474631 0.30243778
-5.20851374 -13.21519279 0.70817870 -0.64714891 -0.94613564 0.27282354
-2.50856352 -12.20842266 -0.32281849 -0.31168473 -0.87405640 -0.12436478
-3.00205374 -12.30086327 -0.40071452 -0.37300003 -0.88067466 -0.15437397
-4.20404387 -12.99659538 -0.56434542 -0.52234524 -0.93048525 -0.21741225
-4.66062927 -13.24344063 -0.18452910 -0.57907522 -0.94815803 -0.07108924
-4.85271120 -13.31435204 1.28819323 -0.60294104 -0.95323491 0.49627227
-4.22941113 -13.21382618 0.36992821 -0.52549708 -0.94603783 0.14251365
-5.09428740 -13.16763783 0.70306414 -0.63295645 -0.94273096 0.27085319
-2.42484093 -12.18862820 -0.32228431 -0.30128232 -0.87263924 -0.12415899
-2.94377112 -12.39921761 -0.40241632 -0.36575851 -0.88771629 -0.15502958
-3.54598522 -12.77549076 -0.46609086 -0.44058257 -0.91465539 -0.17955999
-4.08472204 -12.90464878 -0.56047618 -0.50751972 -0.92390239 -0.21592164
-4.70028782 -12.17191982 -0.24173552 -0.58400267 -0.87144303 -0.09312782
-4.78830194 -13.39894962 1.29400325 -0.59493828 -0.95929164 0.49851057
-4.11869907 -13.15244293 0.36656278 -0.51174128 -0.94164312 0.14121713
-4.65707397 -13.10661316 0.30396822 -0.57863343 -0.93836194 0.11710277
-5.14447212 -13.54822254 0.72530657 -0.63919181 -0.96997875 0.27942201
-2.36544394 -12.29398441 -0.32364944 -0.29390234 -0.88018215 -0.12468490
-2.87667346 -12.46421242 -0.40341252 -0.35742176 -0.89236957 -0.15541337
-3.46460557 -12.79365730 -0.46599185 -0.43047130 -0.91595602 -0.17952186
-4.07782650 -13.16864491 -0.56827700 -0.50666296 -0.94280308 -0.21892688
-5.25492382 -13.85905838 -0.25585940 -0.65291524 -0.99223292 -0.09856901
-4.61718559 -13.25838375 0.30809608 -0.57367736 -0.94922787 0.11869302
-5.06344271 -13.59149837 0.72602022 -0.62912405 -0.97307706 0.27969694
-2.28344250 -12.28303719 -0.32326362 -0.28371382 -0.87939841 -0.12453626
-2.82076859 -12.58151340 -0.40552941 -0.35047567 -0.90076768 -0.15622889
-3.29330683 -12.46900463 -0.45713255 -0.40918773 -0.89271265 -0.17610884
-3.93970323 -13.01233006 -0.56234843 -0.48950136 -0.93161178 -0.21664292
-5.07499933 -13.57846928 -0.25326392 -0.63055998 -0.97214425 -0.09756911
-4.94171810 -13.35868740 1.68752635 -0.61400002 -0.95640910 0.65011406
-5.28938484 -13.79992676 0.23142907 -0.65719700 -0.98799944 0.08915730
-4.98414087 -13.57399845 0.72340345 -0.61927098 -0.97182417 0.27868885
-2.25448322 -12.45506763 -0.32569712 -0.28011566 -0.89171487 -0.12547377
-3.16523409 -12.21524334 -0.45025298 -0.39327490 -0.87454474 -0.17345850
-3.90527678 -13.12076092 -0.56528151 -0.48522395 -0.93937486 -0.21777287
-3.67478085 -13.02119732 -0.10679717 -0.45658523 -0.93224663 -0.04114326
-4.80853510 -13.11837769 -0.24909204 -0.59745222 -0.93920422 -0.09596191
-5.06857634 -13.36385632 1.19040620 -0.62976193 -0.95677912 0.45860013
-4.80063152 -13.23291016 1.66615784 -0.59647024 -0.94740415 0.64188188
-5.11992359 -13.61404896 0.22558333 -0.63614172 -0.97469157 0.08690525
-4.77993107 -13.27649307 0.70258832 -0.59389824 -0.95052439 0.27066988
-2.14245701 -12.27390194 -0.32275912 -0.26619661 -0.87874436 -0.12434191
-2.59006953 -12.18163204 -0.39639771 -0.32181171 -0.87213832 -0.15271093
-2.96686506 -11.75004864 -0.43787965 -0.36862791 -0.84123933 -0.16869172
-3.83846998 -13.19876194 -0.56702888 -0.47692332 -0.94495928 -0.21844605
-3.59930229 -13.06715870 -0.10674209 -0.44720712 -0.93553722 -0.04112205
-4.72669458 -13.15021229 -0.24910797 -0.58728367 -0.94148338 -0.09596804
-4.91130877 -13.19957256 1.17096555 -0.61022168 -0.94501734 0.45111069
-4.72606993 -13.28709698 1.66946483 -0.58720607 -0.95128357 0.64315593
-5.03775692 -13.65532398 0.22583315 -0.62593263 -0.97764665 0.08700149
-4.68240738 -13.26674938 0.70009053 -0.58178109 -0.94982684 0.26970762
-2.52771568 -12.26618671 -0.39785048 -0.31406432 -0.87819201 -0.15327062
-2.90245986 -11.80730629 -0.43886954 -0.36062565 -0.84533864 -0.16907306
-4.63997221 -13.16833973 -0.24901243 -0.57650858 -0.94278121 -0.09593123
-4.85912037 -13.31430912 1.17929733 -0.60373735 -0.95323181 0.45432049
-4.24680948 -13.18644428 0.30219007 -0.52765882 -0.94407743 0.11641774
-4.79138947 -13.24510574 0.21409173 -0.59532189 -0.94827724 0.08247814
-4.61206532 -13.33362389 0.70246941 -0.57304120 -0.95461470 0.27062407
-2.02374625 -12.52299404 -0.32611260 -0.25144699 -0.89657801 -0.12563382
-2.42219567 -12.14068604 -0.39486194 -0.30095366 -0.86920685 -0.15211928
-2.95613885 -12.36416340 -0.45257917 -0.36729518 -0.88520658 -0.17435466
-4.80298853 -13.42141151 1.18688834 -0.59676307 -0.96089977 0.45724490
-4.15609884 -13.18807125 0.30136451 -0.51638818 -0.94419390 0.11609970
-4.66311502 -13.14876080 0.21074417 -0.57938403 -0.94137949 0.08118851
-2.35350847 -12.19492054 -0.39569208 -0.29241940 -0.87308973 -0.15243909
-2.90536976 -12.49938488 -0.45554876 -0.36098722 -0.89488769 -0.17549868
-3.44731450 -12.74796200 -0.55017912 -0.42832291 -0.91268450 -0.21195473
-4.63685703 -13.27246284 0.21344221 -0.57612151 -0.95023590 0.08222792
-2.30160832 -12.23534298 -0.39631468 -0.28597090 -0.87598377 -0.15267895
-2.83630657 -12.46808052 -0.45441043 -0.35240623 -0.89264649 -0.17506015
-3.32634926 -12.53616428 -0.54281515 -0.41329318 -0.89752090 -0.20911779
-2.19007683 -12.06075001 -0.39232996 -0.27211329 -0.86348385 -0.15114385
-2.75619936 -12.47784328 -0.45421246 -0.34245303 -0.89334548 -0.17498387
-3.09695101 -11.97838306 -0.52415556 -0.38479084 -0.85758680 -0.20192923
-2.11146903 -12.05852032 -0.39199790 -0.26234642 -0.86332422 -0.15101592
-2.63782239 -12.30717087 -0.44946110 -0.32774490 -0.88112622 -0.17315343
-3.05012918 -12.10999107 -0.52777511 -0.37897331 -0.86700922 -0.20332365
-3.63126755 -12.99580956 -0.18271361 -0.45117876 -0.93042898 -0.07038983
-4.89206886 -13.25704193 2.59573889 -0.60783118 -0.94913185 1.00000000
-2.11456895 -12.53477478 -0.40175220 -0.26273155 -0.89742142 -0.15477374
-2.56326771 -12.33720970 -0.44980755 -0.31848162 -0.88327688 -0.17328690
-2.95433235 -12.04934692 -0.52521646 -0.36707073 -0.86266744 -0.20233794
-3.55163407 -13.02609062 -0.18274021 -0.44128445 -0.93259698 -0.07040007
-4.78314924 -13.21729660 2.58183360 -0.59429806 -0.94628626 0.99464303
-2.03059530 -12.51624203 -0.40108809 -0.25229797 -0.89609462 -0.15451789
-2.45713925 -12.20993805 -0.44619453 -0.30529535 -0.87416488 -0.17189500
-2.83466697 -11.88496208 -0.51935023 -0.35220250 -0.85089839 -0.20007800
-4.69934845 -13.24523735 2.58146763 -0.58388597 -0.94828665 0.99450207
-4.12126112 -13.10653400 0.20544803 -0.51205963 -0.93835628 0.07914819
-2.01690817 -12.94157791 -0.40976319 -0.25059739 -0.92654634 -0.15785994
-2.36218572 -12.13090420 -0.44381887 -0.29349753 -0.86850649 -0.17097978
-2.90819788 -12.53713131 -0.53969479 -0.36133859 -0.89759016 -0.20791566
-4.06776237 -13.15253925 0.20614752 -0.50541252 -0.94164997 0.07941767
-1.99360847 -13.19802380 -0.41495165 -0.24770243 -0.94490647 -0.15985878
-2.30943036 -12.16547966 -0.44441277 -0.28694275 -0.87098193 -0.17120858
-2.86156297 -12.60526180 -0.54144216 -0.35554430 -0.90246791 -0.20858884
-2.19400001 -11.96532536 -0.43901801 -0.27260074 -0.85665196 -0.16913027
-2.80094028 -12.70690632 -0.54412568 -0.34801203 -0.90974510 -0.20962265
-2.12947011 -12.03992558 -0.44055229 -0.26458302 -0.86199296 -0.16972135
-2.69872808 -12.62068272 -0.54081810 -0.33531234 -0.90357196 -0.20834842
-2.08138251 -12.21670532 -0.44466025 -0.25860819 -0.87464941 -0.17130391
-2.55110717 -12.31060791 -0.53039622 -0.31697068 -0.88137233 -0.20433342
-3.53633499 -12.95595932 -0.24477686 -0.43938357 -0.92757595 -0.09429950
-2.01642847 -12.30256462 -0.44649151 -0.25053778 -0.88079643 -0.17200941
-2.46181250 -12.26761436 -0.52852404 -0.30587599 -0.87829423 -0.20361218
-1.97817600 -12.56588745 -0.45277715 -0.24578497 -0.89964896 -0.17443094
-2.43808579 -12.55552578 -0.53719854 -0.30292797 -0.89890712 -0.20695400
-2.77003884 -12.43685341 -0.18021317 -0.34417257 -0.89041078 -0.06942654
-2.00131154 -13.12071800 -0.46643731 -0.24865952 -0.93937176 -0.17969346
-2.69393873 -12.46378994 -0.18024641 -0.33471727 -0.89233929 -0.06943934
-1.91196811 -13.08554173 -0.46524948 -0.23755875 -0.93685335 -0.17923586
-2.22084188 -12.15301514 -0.52359390 -0.27593580 -0.87008953 -0.20171286
-1.83709884 -13.15077209 -0.46658579 -0.22825637 -0.94152349 -0.17975067
-2.14513946 -12.17066479 -0.52371871 -0.26652989 -0.87135315 -0.20176093
-2.06761336 -12.17799282 -0.52353150 -0.25689742 -0.87187779 -0.20168881
-2.38685751 -12.45699406 -0.18002030 -0.29656294 -0.89185274 -0.06935224
-1.95926297 -12.87774754 -0.54456252 -0.24343506 -0.92197639 -0.20979095
-2.62591243 -12.14531612 -0.23678340 -0.32626513 -0.86953831 -0.09122004
-1.87365007 -12.85816002 -0.54356402 -0.23279780 -0.92057407 -0.20940627
-2.54830933 -12.15570545 -0.23673563 -0.31662306 -0.87028217 -0.09120163
-1.79059219 -12.85384369 -0.54306477 -0.22247800 -0.92026502 -0.20921394
-2.45824051 -12.10486126 -0.23619424 -0.30543217 -0.86664200 -0.09099306
-2.37474585 -12.08279419 -0.23589170 -0.29505810 -0.86506212 -0.09087651
-1.67007935 -13.19654655 -0.55317461 -0.20750450 -0.94480067 -0.21310873
-2.38916063 -12.46300125 -0.23888527 -0.29684910 -0.89228284 -0.09202977
-2.25901246 -12.20057297 -0.23664010 -0.28067842 -0.87349439 -0.09116483
