2.15988374 22.58530998 -0.47455552 0.26705822 0.81219310 -0.20024633
1.87724864 22.19916534 -0.46847180 0.23211189 0.79830694 -0.19767921
2.21398973 22.66181564 -0.61053592 0.27374816 0.81494433 -0.25762546
2.09148097 22.50476837 -0.60704923 0.25860059 0.80929673 -0.25615418
1.94864440 22.50152969 -0.60671717 0.24093960 0.80918026 -0.25601408
0.90464234 21.53548622 -0.45772883 0.11185426 0.77444029 -0.19314604
0.76778519 21.49677658 -0.45707592 0.09493259 0.77304822 -0.19287054
2.25101566 22.99554062 -0.70984542 0.27832621 0.82694548 -0.29953068
1.22741354 21.69924736 -0.58903491 0.15176320 0.78032929 -0.24855275
2.10828352 22.63358688 -0.70059019 0.26067814 0.81392920 -0.29562530
1.08113170 21.51282501 -0.58500868 0.13367623 0.77362537 -0.24685381
1.97304881 22.72806168 -0.70261943 0.24395707 0.81732661 -0.29648158
0.94737738 21.55115509 -0.58567280 0.11713821 0.77500373 -0.24713406
0.81256682 21.57266617 -0.58600485 0.10046960 0.77577728 -0.24727418
0.67229158 21.43145370 -0.58297479 0.08312531 0.77069914 -0.24599558
1.49168491 21.97521400 -0.68311906 0.18443897 0.79025340 -0.28825307
2.03609776 22.40946579 -0.08620790 0.25175273 0.80586958 -0.03637681
0.53845388 21.46723747 -0.58363891 0.06657698 0.77198595 -0.24627583
2.22949791 22.55531502 -0.84548718 0.27566564 0.81111443 -0.35676691
2.12148261 22.54766083 -0.84492552 0.26231012 0.81083918 -0.35652992
1.08770096 21.51245117 -0.67109215 0.13448848 0.77361190 -0.28317812
1.97641635 22.52271271 -0.84373981 0.24437346 0.80994207 -0.35602957
0.95199448 21.50687599 -0.67079520 0.11770909 0.77341139 -0.28305283
1.83305955 22.51276970 -0.84305328 0.22664814 0.80958450 -0.35573989
0.81972992 21.59035683 -0.67272544 0.10135528 0.77641350 -0.28386733
2.22973466 22.42697144 -0.21278553 0.27569494 0.80649906 -0.08978827
0.67932904 21.44120026 -0.66891450 0.08399545 0.77104962 -0.28225923
2.07556224 22.29714775 -0.21230672 0.25663233 0.80183047 -0.08958624
-1.30061066 26.36187935 -0.52954650 -0.16081364 0.94800276 -0.22345066
0.54420656 21.42905426 -0.66851854 0.06728827 0.77061284 -0.28209215
1.32393920 21.21064568 -0.80136567 0.16369809 0.76275861 -0.33814913
-1.35233891 25.03358841 -0.50990051 -0.16720957 0.90023595 -0.21516071
-0.35593766 22.64893913 -0.60808694 -0.04400981 0.81448126 -0.25659207
0.44333717 21.43737793 -0.66866702 0.05481630 0.77091217 -0.28215480
1.22888768 21.30046463 -0.80398679 0.15194547 0.76598865 -0.33925515
-1.76078248 24.85666847 2.04330087 -0.21771146 0.89387369 0.86220366
-1.51057816 25.04056549 -0.51013792 -0.18677501 0.90048683 -0.21526089
-1.81852901 24.89203835 0.32008162 -0.22485152 0.89514565 0.13506359
1.08604264 21.13608360 -0.79861981 0.13428344 0.76007730 -0.33699048
-1.90701294 24.71798706 2.03213692 -0.23579209 0.88888657 0.85749286
-1.69964170 25.50145912 -0.51714158 -0.21015173 0.91706109 -0.21821621
-1.96897888 24.80636978 0.31872407 -0.24345385 0.89206493 0.13449074
0.96646160 21.43004608 -0.80760634 0.11949788 0.77064854 -0.34078249
-2.07399750 24.84449196 2.04434729 -0.25643885 0.89343584 0.86264521
-2.12755990 24.82538414 0.31931111 -0.26306155 0.89274871 0.13473846
0.83346200 21.47764206 -0.80891687 0.10305317 0.77236015 -0.34133548
-2.23167658 24.84882736 2.04591727 -0.27593502 0.89359176 0.86330771
-2.02395082 25.52792168 -0.51788354 -0.25025085 0.91801274 -0.21852928
-2.32343507 25.24160385 0.32723635 -0.28728050 0.90771639 0.13808264
0.69809729 21.47046661 -0.80854243 0.08631605 0.77210212 -0.34117749
2.10895157 22.29610252 -0.31616062 0.26076072 0.80179286 -0.13340905
-2.03946614 24.84064293 1.19003868 -0.25216922 0.89329743 0.50215596
-2.40526056 25.01477623 2.06179070 -0.29739776 0.89955944 0.87000573
-1.18389809 25.14933968 -0.66051114 -0.14638275 0.90439850 -0.27871329
0.57024044 21.73420715 -0.81665534 0.07050722 0.78158647 -0.34460086
2.00331831 22.29981804 -0.31611285 0.24769974 0.80192649 -0.13338889
-2.15964150 24.86656761 1.19195426 -0.26702827 0.89422971 0.50296426
-2.23498487 24.74137306 -0.50651735 -0.27634409 0.88972753 -0.21373314
-1.30199075 25.13549423 -0.66034514 -0.16098429 0.90390062 -0.27864325
-1.64783955 24.98273468 0.18079387 -0.20374666 0.89840722 0.07628888
-0.35203415 22.70484543 -0.69999629 -0.04352716 0.81649172 -0.29537469
0.45780566 21.29098320 -0.80273867 0.05660525 0.76564765 -0.33872849
-2.39776850 24.80247498 -0.50764507 -0.29647142 0.89192486 -0.21420901
-1.45337594 25.01302719 -0.65797919 -0.17970227 0.89949656 -0.27764490
-1.80121362 24.92201805 0.18015756 -0.22271056 0.89622378 0.07602037
-0.49405015 22.67420006 -0.69930339 -0.06108669 0.81538969 -0.29508230
0.32644665 21.44334602 -0.80741912 0.04036340 0.77112681 -0.34070349
-1.89102781 24.96518898 1.92581654 -0.23381561 0.89777625 0.81262922
-1.65797174 25.74973297 -0.67350304 -0.20499946 0.92598933 -0.28419542
-1.95233941 24.84042549 0.17926672 -0.24139647 0.89328957 0.07564448
-0.63083094 22.47479057 -0.69445300 -0.07799891 0.80821872 -0.29303560
-2.03687382 24.81772041 1.91464198 -0.25184870 0.89247310 0.80791396
-2.78525877 25.46013260 -0.51794291 -0.34438255 0.91557497 -0.21855433
-2.10670090 24.80774117 0.17901221 -0.26048246 0.89211422 0.07553708
-2.19798374 24.86400223 1.91957188 -0.27176911 0.89413744 0.80999422
-2.99449039 25.86521912 -0.52426404 -0.37025294 0.93014234 -0.22122164
-2.30269432 25.23816490 0.18468806 -0.28471601 0.90759277 0.07793210
-1.95342255 24.86933136 1.05116534 -0.24153039 0.89432907 0.44355613
-2.32905531 25.00421143 1.93206108 -0.28797540 0.89917952 0.81526423
-2.42576909 25.27083206 0.18524802 -0.29993355 0.90876752 0.07816838
-1.14410830 25.16281700 -0.76141751 -0.14146295 0.90488315 -0.32129237
-2.11131477 24.87647438 1.05211771 -0.26105294 0.89458597 0.44395798
-3.21587276 25.33878136 -0.51690418 -0.39762568 0.91121101 -0.21811603
-2.18365884 24.78123093 -0.65428501 -0.26999789 0.89116091 -0.27608609
-1.32139766 25.52051353 -0.77047479 -0.16338384 0.91774631 -0.32511422
-1.64306128 24.93026161 0.08639643 -0.20315586 0.89652020 0.03645637
-2.29041362 25.11539841 1.06421208 -0.28319755 0.90317792 0.44906139
-3.36145973 25.21699142 -0.51539069 -0.41562676 0.90683132 -0.21747740
-2.33820152 24.75507736 -0.65403599 -0.28910628 0.89022040 -0.27598101
-1.45140111 24.99675751 -0.75770551 -0.17945810 0.89891148 -0.31972602
-0.47084925 22.57036972 -0.84267884 -0.05821802 0.81165582 -0.35558188
-1.79879522 24.90747833 0.08628874 -0.22241154 0.89570087 0.03641092
-1.90494728 24.92539597 1.78272617 -0.23553668 0.89634526 0.75224996
-3.54181862 25.35181808 -0.51773512 -0.43792719 0.91167986 -0.21846665
-0.61197102 22.54098701 -0.84186757 -0.07566699 0.81059921 -0.35523957
-1.95335841 24.87176132 0.08607333 -0.24152246 0.89441645 0.03632003
-2.05620551 24.84934425 1.77782261 -0.25423896 0.89361030 0.75018084
-1.83597851 25.96372223 -0.78220469 -0.22700906 0.93368459 -0.33006385
-2.10754395 24.83508492 0.08585793 -0.26058668 0.89309752 0.03622913
-2.21533203 24.86969757 1.78042758 -0.27391413 0.89434224 0.75128007
-2.94789577 25.98027229 -0.68064237 -0.36449176 0.93427974 -0.28720799
-0.99747097 25.16624641 -0.92418188 -0.12333202 0.90500647 -0.38997340
-2.30331016 25.25350952 0.08975314 -0.28479216 0.90814453 0.03787278
-1.96679723 24.85184288 0.93453920 -0.24318410 0.89370018 0.39434385
-2.36087656 25.15875435 1.80356658 -0.29190993 0.90473706 0.76104391
-3.06026173 25.88069725 -0.67885756 -0.37838522 0.93069893 -0.28645486
-1.11753106 25.19521904 -0.92524278 -0.13817681 0.90604836 -0.39042106
-2.42517805 25.27223587 0.09002240 -0.29986048 0.90881801 0.03798640
-1.46274519 24.96495056 -0.08045704 -0.18086073 0.89776766 -0.03395014
-2.12445211 24.85691261 0.93531293 -0.26267728 0.89388251 0.39467034
-2.18711615 24.83477211 -0.75503284 -0.27042538 0.89308631 -0.31859824
-1.62047005 24.96923828 -0.08042491 -0.20036256 0.89792186 -0.03393659
-2.33382630 24.72301102 -0.75260770 -0.28856531 0.88906723 -0.31757492
-1.43023694 25.11132622 -0.92312098 -0.17684124 0.90303147 -0.38952574
-2.61842203 25.98091698 -0.78428340 -0.32375407 0.93430293 -0.33094099
-1.70174325 26.92340660 -0.98009819 -0.21041158 0.96819592 -0.41356820
-2.00749874 24.84619713 1.62247598 -0.24821663 0.89349717 0.68462980
-2.76552248 25.81486511 -0.78057140 -0.34194225 0.92833155 -0.32937464
-1.76802611 25.41644478 -0.93329328 -0.21860710 0.91400391 -0.39381811
-2.07608390 24.75687027 -0.08083340 -0.25669682 0.89028484 -0.03410895
-2.16562986 24.85694313 1.62416697 -0.26776871 0.89388359 0.68534338
-3.78953028 25.22202492 -0.66731840 -0.46855542 0.90701234 -0.28158572
-2.92993641 25.81684303 -0.78106636 -0.36227119 0.92840266 -0.32958350
-2.23390818 24.76923561 -0.08077373 -0.27621096 0.89072955 -0.03408377
-1.92862844 24.86809540 0.77509534 -0.23846473 0.89428467 0.32706395
-2.29902220 25.02527618 1.63684916 -0.28426197 0.89993703 0.69069481
-3.06739974 25.93577003 -0.78438240 -0.37926778 0.93267941 -0.33098277
-2.38827348 25.15866280 -0.07985120 -0.29529741 0.90473378 -0.03369450
-1.41290128 24.97960091 -0.22103834 -0.17469779 0.89829451 -0.09327068
-2.08417845 24.84751892 0.77480268 -0.25769767 0.89354467 0.32694045
-2.21840000 25.51554298 -0.93747449 -0.27429345 0.91756755 -0.39558244
-2.56249475 25.30434799 -0.07947944 -0.31683895 0.90997279 -0.03353763
-2.26552606 25.11661530 0.78519160 -0.28012034 0.90322167 0.33132422
-2.29952073 24.64517212 -0.91063964 -0.28432360 0.88626808 -0.38425905
-2.72738242 25.34343147 -0.07935093 -0.33722645 0.91137826 -0.03348340
-2.47752118 24.86497879 -0.91800362 -0.30633241 0.89417255 -0.38736638
-2.00692081 24.84943771 1.48939121 -0.24814516 0.89361370 0.62847257
-2.02833581 24.79269409 -0.22055954 -0.25079301 0.89157313 -0.09306864
-1.74278164 24.70416260 2.35483265 -0.21548575 0.88838941 0.99365950
-2.16685867 24.88007545 1.49225748 -0.26792064 0.89471543 0.62968206
-2.14218616 24.74899101 -0.22044648 -0.26487002 0.89000154 -0.09302094
-1.86582220 24.78297997 2.36364794 -0.23069906 0.89122379 0.99737924
-1.91395581 24.84824371 0.65381920 -0.23665054 0.89357072 0.27588952
-2.30433488 25.08818436 1.50658929 -0.28491884 0.90219927 0.63572955
-3.93631220 25.38528442 -0.77379084 -0.48670423 0.91288334 -0.32651350
-2.33832693 25.16913795 -0.22189622 -0.28912178 0.90511048 -0.09363268
-1.37116623 24.98594284 -0.33708373 -0.16953747 0.89852256 -0.14223790
-2.02395248 24.80051613 2.36665320 -0.25025105 0.89185441 0.99864739
-2.07121682 24.84967041 0.65426373 -0.25609502 0.89362204 0.27607709
-4.09605408 25.36202431 -0.77384031 -0.50645548 0.91204685 -0.32653436
-3.21768856 26.06361389 -0.95775664 -0.39785022 0.93727684 -0.40414080
-2.18044162 24.79523849 2.36745453 -0.26960009 0.89166462 0.99898553
-2.25469685 25.13877678 0.66391659 -0.27878135 0.90401864 0.28015026
-2.68425727 25.41818237 -0.22283389 -0.33189425 0.91406637 -0.09402834
-2.33845139 24.80482101 2.36985874 -0.28913718 0.89200920 1.00000000
-2.83561826 25.32728195 -0.22258782 -0.35060924 0.91079748 -0.09392451
-2.48923659 24.74014473 2.36485004 -0.30778098 0.88968337 0.99788648
-1.97306752 24.84333801 1.34666789 -0.24395938 0.89339435 0.56824815
-4.73923254 26.19308281 -0.79680520 -0.58598107 0.94193268 -0.33622476
-2.99682665 25.32683945 -0.22264768 -0.37054181 0.91078156 -0.09394977
-1.69939053 24.67328453 2.16095400 -0.21012068 0.88727903 0.91184926
-2.13030529 24.84437561 1.34750056 -0.26340100 0.89343166 0.56859952
-2.09906793 24.73062325 -0.33545956 -0.25953868 0.88934100 -0.14155255
-1.82026732 24.72855949 2.16687870 -0.22506645 0.88926679 0.91434932
-1.89624584 24.84345627 0.48474413 -0.23446079 0.89339858 0.20454559
-2.25876975 24.96132278 1.35511291 -0.27928495 0.89763719 0.57181168
-2.25927329 24.77072525 -0.33588949 -0.27934721 0.89078307 -0.14173397
-1.98031569 24.77618980 2.17243314 -0.24485558 0.89097959 0.91669309
-2.04969454 24.79916763 0.48394471 -0.25343391 0.89180589 0.20420825
-2.13950872 24.80492592 2.17632127 -0.26453897 0.89201301 0.91833377
-2.23742604 25.14828110 0.49303809 -0.27664593 0.90436041 0.20804535
-6.51207018 26.77205658 -0.70982230 -0.80518311 0.96275324 -0.29952094
-4.23312616 25.38115692 -0.94121891 -0.52340370 0.91273493 -0.39716247
-2.30187035 24.86238480 2.18298674 -0.28461412 0.89407927 0.92114633
-2.84323144 25.79729843 -0.34448802 -0.35155058 0.92769980 -0.14536226
-2.47320437 25.00201988 2.19742823 -0.30579868 0.89910072 0.92724019
-7.13439989 27.80780792 -0.73381376 -0.88213092 1.00000000 -0.30964452
-4.70734119 26.19571877 -0.96880263 -0.58203793 0.94202745 -0.40880185
-7.29831743 27.72181892 -0.73294210 -0.90239847 0.99690771 -0.30927670
-4.86928892 26.15186691 -0.96836579 -0.60206187 0.94045049 -0.40861753
-3.05896425 25.20256424 -0.33998176 -0.37822479 0.90631253 -0.14346077
-6.06861353 22.60307884 -0.62369382 -0.75035203 0.81283212 -0.26317763
-6.16257668 26.78430367 -0.81823581 -0.76197010 0.96319366 -0.34526777
-6.22373581 22.61271095 -0.62473154 -0.76953208 0.81317848 -0.26361552
-6.31916142 22.40761185 -0.62116188 -0.78133094 0.80580288 -0.26210925
-6.47969484 26.62705612 -0.81625611 -0.80118006 0.95753884 -0.34443238
-6.49688721 22.49620819 -0.62394291 -0.80330580 0.80898893 -0.26328275
-6.64319229 22.47220612 -0.62431645 -0.82139570 0.80812579 -0.26344037
-6.79233885 22.45682335 -0.62489754 -0.83983684 0.80757260 -0.26368555
-7.29809093 27.70255661 -0.84704095 -0.90237045 0.99621505 -0.35742256
-6.86232710 22.30795288 -0.62236559 -0.84849054 0.80221903 -0.26261717
-7.44207048 27.71805382 -0.84832776 -0.92017275 0.99677235 -0.35796553
-6.10984755 26.70695686 -0.99320358 -0.75545043 0.96041214 -0.41909823
-6.21546745 22.59609795 -0.71801186 -0.76850975 0.81258106 -0.30297664
-6.32032394 22.42577171 -0.71464628 -0.78147471 0.80645591 -0.30155650
-5.53639936 22.86200523 -0.87225962 -0.68454659 0.82214338 -0.36806396
-6.46777725 22.40866280 -0.71524024 -0.79970652 0.80584067 -0.30180711
-6.46591759 25.99720192 -0.97423202 -0.79947656 0.93488860 -0.41109288
-6.64140081 22.47876549 -0.71811086 -0.82117414 0.80836165 -0.30301842
-6.73628807 22.41084862 -0.71717048 -0.83290648 0.80591929 -0.30262160
-6.73228645 25.85100937 -0.97186053 -0.83241171 0.92963135 -0.41009218
-6.91821146 22.50182343 -0.72063500 -0.85540032 0.80919081 -0.30408353
-6.07194233 22.71942711 -0.87207240 -0.75076365 0.81701612 -0.36798498
-6.23826885 22.76760674 -0.87488067 -0.77132905 0.81874871 -0.36916998
-7.52479792 23.41981888 -0.74681693 -0.93040156 0.84220296 -0.31513143
-6.96946144 24.83014107 -0.94302869 -0.86173713 0.89291978 -0.39792612
-7.77557087 23.68733597 -0.75503284 -0.96140832 0.85182321 -0.31859824
-6.45998383 22.46450806 -0.86764151 -0.79874289 0.80784893 -0.36611527
-6.59368706 22.39853859 -0.86683023 -0.81527460 0.80547661 -0.36577296
-6.72432661 22.45149994 -0.86957610 -0.83142751 0.80738115 -0.36693162
-7.06845999 23.07412910 -0.89129364 -0.87397778 0.82977158 -0.37609568
-7.14476871 22.80982590 -0.88411683 -0.88341296 0.82026696 -0.37306732
-7.31773186 22.85779762 -0.88717479 -0.90479892 0.82199210 -0.37435767
-7.54488420 23.06793594 -0.89559966 -0.93288511 0.82954890 -0.37791267
-8.08768845 24.21491241 -0.93491584 -1.00000000 0.87079543 -0.39450276
