10.89613533 -8.05017567 -0.33890325 0.59543091 -0.72670382 -0.12268391
10.75459957 -7.86794853 -0.33560914 0.58769655 -0.71025389 -0.12149143
10.76324368 -7.77101755 -0.33486721 0.58816892 -0.70150375 -0.12122285
10.74990082 -7.65923691 -0.33373952 0.58743978 -0.69141310 -0.12081462
10.75523186 -7.56170368 -0.33296791 0.58773106 -0.68260860 -0.12053530
10.62534714 -8.07202435 -0.41486862 0.58063340 -0.72867614 -0.15018359
10.82391453 -7.50876284 -0.33335370 0.59148431 -0.67782950 -0.12067496
10.65667915 -7.99068069 -0.41437054 0.58234555 -0.72133315 -0.15000327
10.86080074 -8.03799152 -0.41835529 0.59350002 -0.72560394 -0.15144576
10.92405224 -7.40160704 -0.33368015 0.59695643 -0.66815639 -0.12079313
11.00327873 -8.06370640 -0.42105329 0.60128587 -0.72792530 -0.15242246
10.90543461 -7.28958321 -0.33252275 0.59593910 -0.65804380 -0.12037415
11.78042507 -8.52163601 -0.43969023 0.64375389 -0.76926339 -0.15916908
14.17611980 -11.07765675 -0.58324152 0.77466917 -1.00000000 -0.21113503
10.78507614 -7.69665289 -0.41291776 0.58936197 -0.69479072 -0.14947736
10.65177059 -8.22282600 -0.47099069 0.58207732 -0.74228930 -0.17049992
12.30675602 -8.00148964 -0.35570028 0.67251575 -0.72230887 -0.12876448
11.89637756 -8.37985229 -0.43993929 0.65009022 -0.75646436 -0.15925923
10.64590836 -8.11219883 -0.46920893 0.58175701 -0.73230278 -0.16985492
11.84381294 -8.23175621 -0.43728280 0.64721775 -0.74309546 -0.15829758
10.77025509 -8.10031986 -0.47148561 0.58855206 -0.73123044 -0.17067909
10.83379555 -8.04200363 -0.47188157 0.59202427 -0.72596616 -0.17082243
13.72072506 -8.58476925 -0.37804684 0.74978364 -0.77496254 -0.13685399
12.75174522 -8.65810394 -0.45782909 0.69683266 -0.78158259 -0.16573539
11.15865040 -8.20120525 -0.48069137 0.60977632 -0.74033755 -0.17401160
13.78291035 -8.50362968 -0.37819523 0.75318182 -0.76763797 -0.13690771
10.84230232 -7.25877714 -0.40872550 0.59248912 -0.65526289 -0.14795975
11.18403721 -8.11218643 -0.47989950 0.61116362 -0.73230165 -0.17372493
12.37116051 -8.17355156 -0.44566733 0.67603523 -0.73784119 -0.16133280
13.59306526 -9.72454548 -0.55161530 0.74280751 -0.87785220 -0.19968626
12.45239830 -8.11535263 -0.44641447 0.68047458 -0.73258746 -0.16160327
10.78612614 -8.21402168 -0.56116265 0.58941936 -0.74149454 -0.20314242
10.69706249 -8.04018021 -0.55567092 0.58455235 -0.72580153 -0.20115440
13.72103024 -8.70070076 -0.47513780 0.74980032 -0.78542793 -0.17200120
13.75580215 -9.45417500 -0.55107087 0.75170046 -0.85344541 -0.19948918
10.73935032 -7.96684313 -0.55535889 0.58686322 -0.71918124 -0.20104145
13.68572140 -8.58802223 -0.47326997 0.74787080 -0.77525622 -0.17132503
13.47819138 -8.19453144 0.06289882 0.73653013 -0.73973507 0.02276955
10.92643738 -8.02643394 -0.56116265 0.59708679 -0.72456062 -0.20314242
13.67994499 -8.46496296 -0.47181720 0.74755514 -0.76414746 -0.17079912
13.46942329 -8.07362080 0.06200799 0.73605096 -0.72882026 0.02244706
11.00454807 -7.39148712 -0.46604136 0.60135525 -0.66724283 -0.16870825
11.79793739 -8.55490208 -0.59286523 0.64471084 -0.77226639 -0.21461885
10.68007851 -7.51280355 -0.10788033 0.58362424 -0.67819428 -0.03905298
12.53065014 -8.29949570 -0.50994194 0.68475074 -0.74921042 -0.18460038
13.68501663 -9.79652882 -0.66332227 0.74783230 -0.88435030 -0.24012449
12.45187664 -8.13547897 -0.50608146 0.68044603 -0.73440433 -0.18320288
13.65983868 -9.64911747 -0.66001475 0.74645644 -0.87104321 -0.23892716
10.83133507 -7.41764545 -0.10771969 0.59188986 -0.66960418 -0.03899482
13.81851006 -9.63180351 -0.66375911 0.75512719 -0.86948025 -0.24028262
13.45947838 -8.40587330 0.00457886 0.73550749 -0.75881332 0.00165756
13.66947269 -8.68574047 -0.53879654 0.74698287 -0.78407741 -0.19504583
13.59212780 -8.37032604 0.00542253 0.74275631 -0.75560439 0.00196297
10.84591198 -7.89245176 -0.18244761 0.59268641 -0.71246582 -0.06604654
14.36836052 -7.60541725 -0.37911519 0.78517437 -0.68655467 -0.13724074
16.57743454 -8.50408363 0.20399143 0.90589154 -0.76767892 0.07384546
12.50080490 -7.86282587 -0.50345832 0.68311977 -0.70979142 -0.18225330
12.73150921 -8.66560268 -0.61870158 0.69572687 -0.78225952 -0.22397168
13.53912544 -8.25010395 0.00445321 0.73985994 -0.74475175 0.00161207
10.72615528 -7.70308018 -0.18175599 0.58614218 -0.69537091 -0.06579617
14.03612995 -7.31763792 -0.37276438 0.76701927 -0.66057634 -0.13494173
16.50195503 -8.33498764 0.20134968 0.90176690 -0.75241435 0.07288913
12.51935196 -7.76519918 -0.50256741 0.68413329 -0.70097852 -0.18193078
12.77907276 -8.58097172 -0.61845195 0.69832605 -0.77461976 -0.22388130
13.57182312 -8.15356827 0.00425576 0.74164671 -0.73603725 0.00154060
10.77924347 -7.63899612 -0.18177594 0.58904320 -0.68958592 -0.06580339
16.30764961 -8.15388870 1.45789909 0.89114887 -0.73606622 0.52776349
14.09785271 -7.23750162 -0.37303147 0.77039218 -0.65334231 -0.13503842
12.40980148 -8.21954918 -0.60260063 0.67814678 -0.74199349 -0.21814309
13.72955418 -8.13118267 0.00536868 0.75026608 -0.73401648 0.00194348
10.74170780 -7.51165056 -0.18143013 0.58699203 -0.67809021 -0.06567821
16.36034775 -8.05214214 1.45807362 0.89402860 -0.72688133 0.52782667
13.89302349 -7.02280426 -0.36887673 0.75919902 -0.63396120 -0.13353439
14.50061131 -8.02484894 -0.48190355 0.79240131 -0.72441757 -0.17445041
12.56152153 -8.20715427 -0.60634506 0.68643773 -0.74087459 -0.21949857
13.87716484 -8.10109806 0.00637389 0.75833243 -0.73130071 0.00230737
13.43037224 -8.50676250 -0.10136300 0.73391700 -0.76792073 -0.03669368
14.67139626 -7.29969549 -0.38104418 0.80173403 -0.65895665 -0.13793904
14.39635944 -7.84915733 -0.47825089 0.78670436 -0.70855755 -0.17312814
12.71525097 -8.19425964 -0.61015189 0.69483840 -0.73971057 -0.22087666
16.40950394 -8.14044571 2.09676003 0.89671481 -0.73485267 0.75903291
14.56062698 -7.13104248 -0.37846231 0.79568094 -0.64373201 -0.13700441
14.44187164 -7.75665140 -0.47816786 0.78919142 -0.70020688 -0.17309809
13.54525757 -8.61065388 -0.63898373 0.74019504 -0.77729923 -0.23131387
10.80363941 -7.86610365 -0.24425139 0.59037638 -0.71008730 -0.08841968
14.22662926 -6.88510513 -0.37240827 0.77742928 -0.62153083 -0.13481282
13.73350048 -7.29182720 -0.46065161 0.75048172 -0.65824634 -0.16675715
16.47959137 -8.45842648 0.09789573 0.90054482 -0.76355737 0.03543852
10.73766136 -7.71503544 -0.24312083 0.58677095 -0.69645011 -0.08801041
14.35090542 -6.83416891 -0.37374371 0.78422052 -0.61693275 -0.13529626
13.80737686 -7.22025585 -0.46131575 0.75451881 -0.65178549 -0.16699757
16.94307899 -7.80275249 0.20439503 0.92587256 -0.70436853 0.07399156
16.55560303 -8.36646652 0.09822661 0.90469855 -0.75525600 0.03555830
10.77777576 -7.64162064 -0.24304122 0.58896303 -0.68982285 -0.08798159
16.37706757 -8.20504284 1.37185740 0.89494228 -0.74068397 0.49661615
14.39175034 -6.74301910 -0.37371403 0.78645253 -0.60870445 -0.13528551
14.01057911 -7.21503973 -0.46500993 0.76562303 -0.65131462 -0.16833487
18.02144241 -8.16116333 0.22512542 0.98480088 -0.73672289 0.08149602
13.73842049 -8.13795376 -0.10120235 0.75075060 -0.73462772 -0.03663553
16.37826920 -8.07723999 1.36725616 0.89500797 -0.72914696 0.49495050
14.30117512 -6.59152508 -0.37154764 0.78150290 -0.59502882 -0.13450126
14.32653713 -7.26466656 -0.47131911 0.78288889 -0.65579450 -0.17061882
17.17320251 -7.64847422 0.20707346 0.93844795 -0.69044155 0.07496116
14.49746990 -8.03961468 -0.54824978 0.79222965 -0.72575051 -0.19846793
13.74268341 -8.02418518 -0.10132628 0.75098354 -0.72435760 -0.03668039
14.43343067 -6.54270363 -0.37303147 0.78873020 -0.59062165 -0.13503842
14.38799095 -7.18256569 -0.47169265 0.78624707 -0.64838314 -0.17075405
12.11246490 -6.62171459 -0.47960252 0.66189855 -0.59775406 -0.17361744
13.78243637 -7.93168068 -0.10135382 0.75315589 -0.71600705 -0.03669036
16.42586708 -8.11651802 1.99396062 0.89760900 -0.73269266 0.72181922
16.41436958 -8.13455868 0.73528254 0.89698070 -0.73432124 0.26617432
14.34084129 -6.39262342 -0.37086508 0.78367054 -0.57707363 -0.13425417
14.79512215 -7.27061176 -0.48007721 0.80849516 -0.65633118 -0.17378928
14.52159691 -7.81615019 -0.54612154 0.79354811 -0.70557791 -0.19769751
16.63046646 -8.64798832 0.03039143 0.90878952 -0.78066945 0.01100178
17.09325790 -9.70009136 -0.09274359 0.93407929 -0.87564468 -0.03357343
13.99170971 -6.15870810 -0.36472201 0.76459187 -0.55595767 -0.13203037
14.17128277 -6.88032436 -0.46488541 0.77440482 -0.62109923 -0.16828980
14.00369167 -7.45337439 -0.53058064 0.76524663 -0.67282951 -0.19207165
11.45752144 -6.63862610 -0.55130243 0.62610847 -0.59928071 -0.19957300
16.53043938 -8.49744511 0.02897335 0.90332347 -0.76707965 0.01048843
17.40546417 -9.76947975 -0.09204137 0.95114011 -0.88190854 -0.03331923
14.16418648 -6.12846804 -0.36688840 0.77401704 -0.55322784 -0.13281462
14.35848141 -6.86029482 -0.46820602 0.78463447 -0.61929113 -0.16949187
14.03252602 -7.35597992 -0.53008574 0.76682234 -0.66403753 -0.19189250
11.59960175 -6.62415600 -0.55492198 0.63387257 -0.59797448 -0.20088328
16.46924019 -8.33573914 0.02782453 0.89997917 -0.75248218 0.01007256
17.45950699 -9.65604687 -0.09205973 0.95409334 -0.87166870 -0.03332588
16.34407997 -8.18691158 1.26646638 0.89313966 -0.73904723 0.45846432
14.22768593 -6.68805647 -0.46422127 0.77748704 -0.60374290 -0.16804938
16.87541580 -7.64790344 0.09794664 0.92217505 -0.69038999 0.03545695
11.54351902 -6.49609232 -0.55142725 0.63080788 -0.58641392 -0.19961818
17.16703033 -9.35345459 -0.09298225 0.93811065 -0.84435320 -0.03365983
16.38558769 -8.13106155 2.53199863 0.89540786 -0.73400557 0.91659045
16.34867096 -8.06118107 1.26248217 0.89339054 -0.72769731 0.45702201
14.02093220 -6.48322964 -0.45853472 0.76618874 -0.58525282 -0.16599083
16.89392471 -7.52866507 0.09753940 0.92318648 -0.67962617 0.03530953
14.51266003 -7.37606573 -0.54087526 0.79305977 -0.66585070 -0.19579834
11.94568539 -6.62465763 -0.56434542 0.65278471 -0.59801978 -0.20429459
17.28358078 -9.27667999 -0.09283080 0.94447964 -0.83742261 -0.03360501
15.93196869 -6.53710604 -0.39341938 0.87061936 -0.59011632 -0.14241891
14.08503914 -6.40579844 -0.45907432 0.76969194 -0.57826293 -0.16618617
11.64877701 -6.36397886 -0.55230093 0.63655984 -0.57448781 -0.19993445
17.30264854 -9.14729691 -0.09293177 0.94552165 -0.82574296 -0.03364156
13.68566322 -8.61946392 -0.26662350 0.74786764 -0.77809453 -0.09651844
16.38768959 -8.12136364 0.64888096 0.89552271 -0.73313010 0.23489669
15.92076778 -6.41600609 -0.39258844 0.87000728 -0.57918441 -0.14211810
14.15054893 -6.32863617 -0.45965543 0.77327180 -0.57129735 -0.16639653
15.55540943 -7.66014624 -0.56710672 0.85004193 -0.69149518 -0.20529419
11.69556904 -6.29446220 -0.55255055 0.63911682 -0.56821245 -0.20002483
16.56193352 -8.62194633 -0.09499712 0.90504450 -0.77831858 -0.03438922
17.13710976 -9.81654167 -0.20351523 0.93647557 -0.88615686 -0.07367308
13.71425819 -8.54745579 -0.26651204 0.74943024 -0.77159423 -0.09647809
14.01020145 -6.18654013 -0.45579523 0.76560235 -0.55847013 -0.16499913
16.44911385 -6.29810619 0.18531573 0.89887935 -0.56854135 0.06708480
15.14325809 -6.43479729 0.07155260 0.82751948 -0.58088070 0.02590224
14.01552963 -6.82225513 -0.52375054 0.76589352 -0.61585724 -0.18959914
14.42469406 -7.68112183 -0.64809507 0.78825277 -0.69338870 -0.23461220
16.72857094 -8.60891819 -0.09467126 0.91415054 -0.77714252 -0.03427126
17.10086250 -9.65371609 -0.20314284 0.93449485 -0.87145829 -0.07353827
13.74045086 -8.44433022 -0.26625729 0.75086159 -0.76228487 -0.09638587
15.03795338 -5.87017012 -0.37742364 0.82176495 -0.52991080 -0.13662840
14.04512978 -6.09679222 -0.45571220 0.76751107 -0.55036843 -0.16496907
16.54454422 -6.21566343 0.18641646 0.90409422 -0.56109911 0.06748328
15.10961056 -6.30861044 0.07053450 0.82568073 -0.56948960 0.02553369
13.13611507 -6.29388332 -0.49845949 0.71783698 -0.56816018 -0.18044370
14.68497086 -7.70201826 -0.65558386 0.80247587 -0.69527507 -0.23732316
15.41336536 -7.11587143 0.01452334 0.84227973 -0.64236253 0.00525749
16.65929985 -8.44113255 -0.09498794 0.91036516 -0.76199621 -0.03438590
17.21539307 -9.57616138 -0.20334898 0.94075346 -0.86445731 -0.07361289
16.58444214 -8.63321590 0.54646635 0.90627450 -0.77933592 0.19782232
16.18244743 -6.19844627 -0.39502192 0.88430709 -0.55954492 -0.14299902
15.76321411 -6.72784090 -0.49365023 0.86139762 -0.60733432 -0.17870274
15.18408680 -6.22801304 0.07101810 0.82975060 -0.56221396 0.02570875
13.16092396 -6.20442247 -0.49806353 0.71919268 -0.56008440 -0.18030037
15.31565762 -6.95456219 0.01312322 0.83694041 -0.62780082 0.00475064
16.92600632 -9.27688408 -0.20202561 0.92493963 -0.83744103 -0.07313383
16.56369781 -8.49046993 0.54339361 0.90514088 -0.76644999 0.19670999
16.43600464 -8.13171387 1.15703785 0.89816296 -0.73406446 0.41885090
15.55452156 -6.52319145 -0.48800519 0.84999341 -0.58886021 -0.17665923
13.93108940 -6.45958805 -0.51800936 0.76127923 -0.58311862 -0.18752082
15.51959610 -7.89384890 -0.68148261 0.84808487 -0.71259195 -0.24669859
15.44492626 -6.89641523 0.01396688 0.84400445 -0.62255180 0.00505605
16.98748207 -9.17224884 -0.20203891 0.92829901 -0.82799542 -0.07313865
16.62206841 -8.38893795 0.54361308 0.90833062 -0.75728452 0.19678943
15.49507046 -5.71394777 -0.38294351 0.84674460 -0.51580834 -0.13862661
15.96662426 -6.57888508 -0.49634823 0.87251318 -0.59388781 -0.17967942
13.98414326 -6.37771988 -0.51835579 0.76417840 -0.57572824 -0.18764623
14.53456402 -7.27672720 -0.64534920 0.79425669 -0.65688324 -0.23361818
17.03240967 -9.05877209 -0.20199236 0.93075413 -0.81775165 -0.07312179
16.43544388 -8.21488762 1.80197787 0.89813232 -0.74157268 0.65232098
16.39537239 -8.14529991 0.53219992 0.89594257 -0.73529088 0.19265784
15.67741680 -5.66934347 -0.38525829 0.85670912 -0.51178181 -0.13946456
15.91871834 -6.44232321 -0.49435586 0.86989528 -0.58156008 -0.17895818
14.13528728 -6.33949280 -0.52137488 0.77243781 -0.57227743 -0.18873914
13.16611099 -6.48627424 -0.59611034 0.71947616 -0.58552766 -0.21579358
14.35323620 -6.82156849 -0.10137676 0.78434789 -0.61579525 -0.03669867
16.30821991 -8.05524540 1.78244209 0.89118004 -0.72716147 0.64524895
15.24034882 -5.43085337 -0.37795782 0.83282506 -0.49025291 -0.13682178
16.50637245 -6.32196140 0.08710396 0.90200830 -0.57069480 0.03153187
14.13207912 -6.25828266 -0.52048403 0.77226251 -0.56494641 -0.18841664
13.85571861 -6.74618673 -0.61901361 0.75716048 -0.60899043 -0.22408463
15.08130169 -6.42455387 0.00928185 0.82413375 -0.57995605 0.00336005
16.58012390 -8.58643150 -0.19993082 0.90603852 -0.77511263 -0.07237551
16.51769066 -7.23799467 0.63787758 0.90262675 -0.65338677 0.23091345
16.10711288 -5.62474632 -0.39104524 0.88019031 -0.50775599 -0.14155945
14.05373001 -6.11844254 -0.51731646 0.76798105 -0.55232280 -0.18726999
12.96819019 -6.21205854 -0.58681178 0.70866054 -0.56077367 -0.21242748
16.41276169 -8.11774063 2.76240993 0.89689285 -0.73280305 1.00000000
15.09552956 -6.31889009 0.00903054 0.82491130 -0.57041758 0.00326908
15.75567627 -7.27888250 -0.09801713 0.86098570 -0.65707779 -0.03548247
16.63909531 -8.48480606 -0.19995077 0.90926105 -0.76593870 -0.07238273
16.67116928 -7.18058300 0.64294946 0.91101378 -0.64820415 0.23274948
16.59452820 -5.67762613 -0.39813799 0.90682566 -0.51252955 -0.14412704
15.12294960 -5.81702232 -0.47422463 0.82640970 -0.52511305 -0.17167062
16.39507675 -6.04395771 0.08453327 0.89592642 -0.54559892 0.03060128
15.64970684 -6.69417429 -0.55923730 0.85519487 -0.60429513 -0.20244545
12.94733334 -6.10224581 -0.58475238 0.70752078 -0.55086070 -0.21168198
15.14233589 -6.22695112 0.00910234 0.82746905 -0.56211805 0.00329507
14.40890026 -6.54518318 -0.10152822 0.78738970 -0.59084547 -0.03675349
16.44707298 -8.25742435 -0.19903970 0.89876783 -0.74541253 -0.07205292
16.59723663 -8.53023529 0.45492044 0.90697366 -0.77003968 0.16468245
16.42451859 -8.13872147 1.05852580 0.89753532 -0.73469704 0.38318926
15.88440514 -5.32437754 -0.38647503 0.86802024 -0.48064113 -0.13990502
15.12180328 -5.70771885 -0.47339448 0.82634705 -0.51524603 -0.17137010
16.57748222 -5.99334812 0.08649310 0.90589416 -0.54103029 0.03131074
15.59556580 -6.55554008 -0.55666363 0.85223627 -0.59178042 -0.20151377
13.30983448 -6.17175293 -0.59592313 0.72733009 -0.55713522 -0.21572581
15.36773777 -6.86599493 -0.09921962 0.83978641 -0.61980569 -0.03591778
16.53450775 -8.36724281 0.45079261 0.90354580 -0.75532603 0.16318816
16.00688362 -5.25367069 -0.38786983 0.87471318 -0.47425830 -0.14040995
15.41976452 -5.71013212 -0.47920555 0.84262943 -0.51546389 -0.17347373
16.96582031 -7.00454617 -0.59224933 0.92711532 -0.63231295 -0.21439590
13.80639362 -6.29767895 -0.61164963 0.75446504 -0.56850278 -0.22141886
14.94571686 -6.56443596 -0.10038540 0.81672460 -0.59258342 -0.03633979
15.22872639 -7.40942764 -0.19415849 0.83218998 -0.66886234 -0.07028591
16.91411781 -9.02169514 -0.29047647 0.92428994 -0.81440467 -0.10515328
16.46028519 -8.23585415 1.71452844 0.89948982 -0.74346536 0.62066400
16.48649979 -8.21338272 0.44723630 0.90092230 -0.74143684 0.16190077
15.93672466 -5.12008715 -0.38626730 0.87087929 -0.46219948 -0.13982983
15.50793934 -5.63231230 -0.48036778 0.84744787 -0.50843894 -0.17389446
15.90285873 -6.45046520 -0.56270182 0.86902863 -0.58229512 -0.20369960
13.83839893 -6.20752478 -0.61140001 0.75621402 -0.56036443 -0.22132848
16.45591354 -6.40552187 0.02064440 0.89925092 -0.57823801 0.00747333
15.24175644 -6.58091116 -0.09974743 0.83290201 -0.59407067 -0.03610884
14.92440319 -7.17508221 -0.19290827 0.81555986 -0.64770758 -0.06983332
16.34007072 -8.07987022 1.69669771 0.89292055 -0.72938442 0.61420923
16.45345879 -7.35220003 0.52173787 0.89911675 -0.66369635 0.18887055
15.83287144 -5.00470448 -0.38427895 0.86520410 -0.45178369 -0.13911004
15.74695396 -5.63556433 -0.48505813 0.86050904 -0.50873256 -0.17559238
16.37369728 -7.25632191 -0.69702184 0.89475811 -0.65504122 -0.25232384
16.55876541 -6.35577011 0.02134446 0.90487134 -0.57374680 0.00772675
16.77314758 -7.15070391 -0.09600226 0.91658652 -0.64550692 -0.03475308
14.39032364 -6.80820560 -0.19078022 0.78637457 -0.61458898 -0.06906296
16.71148682 -7.34216881 0.53022456 0.91321701 -0.66279078 0.19194275
15.92707539 -4.92454243 -0.38525829 0.87035197 -0.44454730 -0.13946456
16.30825233 -5.72182894 -0.49663877 0.89118183 -0.51651978 -0.17978461
16.62444878 -6.53033018 -0.58002448 0.90846068 -0.58950466 -0.20997046
16.09658051 -7.01240921 -0.68603832 0.87961477 -0.63302279 -0.24834776
16.35683441 -6.16094732 0.01902887 0.89383662 -0.55615979 0.00688850
14.71764374 -6.16265965 -0.10122989 0.80426133 -0.55631435 -0.03664550
15.75724316 -7.33204222 -0.19563483 0.86107135 -0.66187662 -0.07082035
13.94775105 -7.12854195 -0.26256308 0.76218969 -0.64350629 -0.09504855
16.71694183 -7.21954489 0.52861500 0.91351509 -0.65172130 0.19136009
16.06876755 -4.85780287 -0.38697952 0.87809491 -0.43852261 -0.14008765
16.08115005 -5.52857161 -0.49086922 0.87877154 -0.49907410 -0.17769600
15.27659893 -5.89216471 -0.54320145 0.83480603 -0.53189629 -0.19664042
16.41399002 -6.06496334 0.01920838 0.89695996 -0.54749513 0.00695348
14.79119873 -6.08456612 -0.10114269 0.80828077 -0.54926473 -0.03661393
14.92962360 -6.83439112 -0.19244276 0.81584519 -0.61695278 -0.06966481
14.62606239 -7.36071730 -0.26821584 0.79925674 -0.66446519 -0.09709487
16.67654991 -8.57419968 0.33070660 0.91130781 -0.77400845 0.11971670
16.37630463 -8.13001633 0.95118046 0.89490062 -0.73391122 0.34432995
15.63822460 -5.26602602 -0.48040929 0.85456741 -0.47537366 -0.17390949
15.36570168 -5.81581593 -0.54458725 0.83967513 -0.52500415 -0.19714208
15.55358124 -6.54370260 -0.66469520 0.84994197 -0.59071183 -0.24062149
14.85913754 -6.68968821 -0.19203046 0.81199336 -0.60389018 -0.06951556
14.69530487 -7.28024483 -0.26842284 0.80304056 -0.65720081 -0.09716981
16.55180931 -8.37875366 0.32571024 0.90449125 -0.75636518 0.11790800
16.00129128 -5.27703238 -0.48763162 0.87440759 -0.47636721 -0.17652398
15.53530025 -6.42134047 -0.66269821 0.84894300 -0.57966596 -0.23989858
16.20802879 -6.43244457 -0.09782895 0.88570499 -0.58066833 -0.03541435
15.06556129 -6.66884947 -0.19262896 0.82327360 -0.60200906 -0.06973222
14.30959034 -6.97686434 -0.26460126 0.78196281 -0.62981409 -0.09578639
16.32610893 -8.19092846 1.55977726 0.89215761 -0.73940986 0.56464368
16.47356796 -8.20934772 0.32206291 0.90021563 -0.74107260 0.11658766
15.75071621 -5.08451462 -0.48144698 0.86071467 -0.45898828 -0.17428513
15.87549877 -5.78114796 -0.55611920 0.86753350 -0.52187461 -0.20131668
16.30586815 -6.35305548 -0.09768667 0.89105153 -0.57350177 -0.03536284
15.19216728 -6.63931036 -0.19297478 0.83019215 -0.59934247 -0.06985740
14.80507565 -7.13301992 -0.26869354 0.80903912 -0.64391053 -0.09726780
16.34847832 -8.10592270 1.55811083 0.89337999 -0.73173624 0.56404042
16.70407104 -7.48691273 0.44361651 0.91281176 -0.67585707 0.16059040
15.81641102 -5.02360296 -0.48236015 0.86430460 -0.45348966 -0.17461571
15.71241093 -5.63829803 -0.55112040 0.85862142 -0.50897932 -0.19950710
15.41206551 -6.17260456 -0.65620792 0.84220874 -0.55721211 -0.23754907
16.53156662 -6.35168791 -0.09720475 0.90338504 -0.57337826 -0.03518839
16.65665054 -7.15294981 -0.19812198 0.91022038 -0.64570963 -0.07172070
14.48477268 -6.86634636 -0.26547703 0.79153579 -0.61983746 -0.09610341
16.43486023 -8.02055073 1.56181383 0.89810044 -0.72402954 0.56538093
16.68855858 -7.35447216 0.44145730 0.91196406 -0.66390145 0.15980875
15.92019749 -4.94676208 -0.48393744 0.86997610 -0.44655311 -0.17518669
15.83998585 -5.57186079 -0.55354553 0.86559290 -0.50298190 -0.20038500
15.50261021 -6.09619379 -0.65795529 0.84715664 -0.55031437 -0.23818162
14.72503471 -6.21676826 -0.19099303 0.80466521 -0.56119883 -0.06914000
14.53668690 -6.77943897 -0.26555666 0.79437274 -0.61199212 -0.09613224
17.88691711 -7.74720573 0.48133868 0.97744960 -0.69935417 0.17424592
16.11543846 -4.89682961 -0.48750710 0.88064528 -0.44204563 -0.17647891
15.89926529 -5.48066664 -0.55418897 0.86883229 -0.49474964 -0.20061794
15.53874302 -5.99794626 -0.65789288 0.84913117 -0.54144537 -0.23815903
16.37757683 -6.05715322 -0.09777387 0.89497012 -0.54679012 -0.03539441
14.72498989 -6.10808325 -0.19085337 0.80466276 -0.55138767 -0.06908945
14.63349819 -6.71305513 -0.26603433 0.79966307 -0.60599959 -0.09630516
18.29957962 -7.78930998 0.49391273 1.00000000 -0.70315504 0.17879777
16.01297951 -5.40743208 -0.55626768 0.87504631 -0.48813862 -0.20137043
15.55183125 -5.89096022 -0.65708160 0.84984636 -0.53178757 -0.23786534
16.26120567 -5.89803076 -0.09815022 0.88861090 -0.53242582 -0.03553065
14.80755234 -6.03349924 -0.19101298 0.80917448 -0.54465485 -0.06914722
14.75555420 -6.65726805 -0.26673496 0.80633295 -0.60096353 -0.09655879
17.77986908 -8.20885277 0.35149142 0.97159988 -0.74102789 0.12724087
15.65923691 -5.17911434 -0.54617107 0.85571569 -0.46752796 -0.19771543
15.59041119 -5.79382801 -0.65714401 0.85195458 -0.52301925 -0.23788793
16.35068321 -5.81456804 -0.09802172 0.89350051 -0.52489150 -0.03548413
15.86695290 -6.34770536 -0.19467056 0.86706650 -0.57301879 -0.07047128
14.66736698 -6.50668049 -0.26560441 0.80151385 -0.58736974 -0.09614953
16.77207947 -7.61475754 0.32241264 0.91652811 -0.68739784 0.11671426
16.13294792 -5.22296476 -0.55765349 0.88160211 -0.47148642 -0.20187210
15.82550240 -5.76856518 -0.66375911 0.86480141 -0.52073878 -0.24028262
15.51811409 -6.79798889 -0.27273801 0.84800386 -0.61366671 -0.09873191
16.95730400 -7.60287428 0.32650965 0.92664993 -0.68632513 0.11819740
15.89438057 -5.06345177 -0.55082339 0.86856532 -0.45708689 -0.19939959
15.66445732 -5.62612391 -0.65751845 0.85600096 -0.50788033 -0.23802349
15.88364410 -6.83994913 -0.27554050 0.86797863 -0.61745453 -0.09974642
17.89527512 -7.88991785 0.35084191 0.97790635 -0.71223706 0.12700574
15.98125839 -4.98067045 -0.55225873 0.87331289 -0.44961408 -0.19991918
15.82200623 -5.57089329 -0.66157490 0.86461037 -0.50289458 -0.23949194
16.09395981 -6.11795092 -0.19509616 0.87947154 -0.55227846 -0.07062535
16.13468552 -4.91731596 -0.55542630 0.88169706 -0.44389495 -0.20106585
15.80758572 -5.45435858 -0.65995234 0.86382234 -0.49237475 -0.23890457
16.13582993 -6.01810265 -0.19510947 0.88175958 -0.54326493 -0.07063016
18.08309937 -7.70290947 0.35329011 0.98817021 -0.69535547 0.12789199
16.02149963 -4.77320194 -0.55171430 0.87551188 -0.43088552 -0.19972210
16.01569748 -5.41403484 -0.66569376 0.87519485 -0.48873466 -0.24098298
16.15453339 -5.90975142 -0.19504297 0.88278168 -0.53348386 -0.07060609
15.71735668 -6.41952181 -0.27302465 0.85889167 -0.57950181 -0.09883568
18.13851547 -7.59223413 0.35348997 0.99119848 -0.68536460 0.12796435
15.79899788 -5.23006725 -0.65745604 0.86335307 -0.47212759 -0.23800090
16.24219704 -5.82630634 -0.19522251 0.88757217 -0.52595115 -0.07067109
15.97445011 -6.40801334 -0.27488765 0.87294084 -0.57846290 -0.09951009
15.76501560 -5.10904503 -0.65527183 0.86149603 -0.46120268 -0.23721020
15.95242310 -6.31200027 -0.27444181 0.87173712 -0.56979561 -0.09934869
15.65374756 -4.99141312 -0.65084094 0.85541570 -0.45058385 -0.23560621
15.59514332 -4.86486912 -0.64790785 0.85221320 -0.43916050 -0.23454443
16.02300835 -6.10818434 -0.27437812 0.87559432 -0.55139679 -0.09932563
15.86622620 -4.84058189 -0.65577108 0.86702681 -0.43696803 -0.23739094
16.06481552 -6.00879478 -0.27440995 0.87787896 -0.54242474 -0.09933716
15.98824501 -4.76833200 -0.65876663 0.87369466 -0.43044591 -0.23847534
16.15480232 -5.92708874 -0.27485582 0.88279635 -0.53504896 -0.09949856
15.79402828 -5.48639631 -0.27097055 0.86308146 -0.49526685 -0.09809209
15.94741631 -5.42779255 -0.27197370 0.87146354 -0.48997658 -0.09845523
15.98499775 -5.32875490 -0.27200556 0.87351722 -0.48103628 -0.09846676
