29.69498825 15.51352024 -0.63504720 0.93389070 0.70634544 -0.21678998
29.87949562 15.84990120 -0.63979548 0.93969339 0.72166121 -0.21841094
29.04534912 15.64148426 -0.62742025 0.91345996 0.71217179 -0.21418633
29.52360344 16.13961029 -0.63718390 0.92850077 0.73485196 -0.21751940
29.10696411 16.14995766 -0.63184214 0.91539770 0.73532307 -0.21569584
28.93872452 16.29519653 -0.63071442 0.91010666 0.74193591 -0.21531087
29.11699295 16.57698441 -0.63507688 0.91571307 0.75476599 -0.21680011
29.53337669 15.33084393 -0.82861733 0.92880815 0.69802803 -0.28287020
28.88762856 16.68750572 -0.63294017 0.90849972 0.75979817 -0.21607070
27.81742287 14.66396046 -0.79063779 0.87484235 0.66766417 -0.26990491
29.24270058 17.13894272 -0.64086384 0.91966653 0.78035253 -0.21877564
27.90109444 14.93269253 -0.79478854 0.87747377 0.67989981 -0.27132186
25.78376961 15.32742596 -0.58299422 0.81088507 0.69787240 -0.19902034
27.61162376 15.00186920 -0.79018122 0.86837006 0.68304950 -0.26974905
25.91805267 15.62869167 -0.58700061 0.81510824 0.71158934 -0.20038801
27.62366676 15.23389530 -0.79271317 0.86874884 0.69361389 -0.27061337
28.87905312 17.60308838 -0.63976580 0.90823001 0.80148554 -0.21840081
27.54283714 15.35903549 -0.79250562 0.86620677 0.69931161 -0.27054253
28.83079338 17.82313728 -0.64086384 0.90671229 0.81150454 -0.21877564
26.27070236 14.86779690 -0.76448792 0.82619888 0.67694509 -0.26097795
28.93672752 18.14109039 -0.64469212 0.91004384 0.82598126 -0.22008254
28.94874763 16.62195206 -0.83081722 0.91042185 0.75681341 -0.28362119
28.96894264 18.41596985 -0.64727402 0.91105700 0.83849680 -0.22096393
28.66917229 16.70195770 -0.82662493 0.90162939 0.76045614 -0.28219005
31.08230782 20.03666306 -0.68665498 0.97752112 0.91228849 -0.23440765
26.09256744 15.42332935 -0.76706141 0.82059664 0.70223898 -0.26185650
30.91061974 20.20199776 -0.68585372 0.97212166 0.91981637 -0.23413412
25.88877678 15.52328682 -0.76448792 0.81418753 0.70679015 -0.26097795
23.20311928 15.31517792 -0.55043888 0.72972506 0.69731474 -0.18790671
27.16511345 16.46188545 -0.79723752 0.85432756 0.74952543 -0.27215788
29.45097733 15.01167488 -1.16987669 0.92621672 0.68349594 -0.39936802
28.88464165 17.75138664 -0.84165072 0.90840578 0.80823767 -0.28731951
29.45374680 15.24690723 -1.17330909 0.92630380 0.69420630 -0.40053976
28.68765831 17.87969208 -0.83957535 0.90221077 0.81407952 -0.28661102
29.38391685 15.44560432 -1.17424512 0.92410773 0.70325321 -0.40085930
29.99450302 16.31333160 -0.05949143 0.94331032 0.74276167 -0.02030895
22.97786140 15.79629707 -0.55165565 0.72264087 0.71922058 -0.18832210
29.13104439 15.54719067 -1.16875339 0.91615498 0.70787853 -0.39898455
22.74532127 15.84766102 -0.54925179 0.71532762 0.72155923 -0.18750148
24.74034882 15.85776615 -0.74788487 0.77807009 0.72201931 -0.25531009
26.14833641 15.46485138 -0.88990211 0.82235050 0.70412952 -0.30379137
29.77123451 16.12942123 -1.19496417 0.93628860 0.73438805 -0.40793228
22.63060570 15.97986794 -0.54898471 0.71171987 0.72757870 -0.18741030
23.88875580 15.52528572 -0.72928941 0.75128800 0.70688117 -0.24896203
26.03179932 15.61751270 -0.88935769 0.81868547 0.71108031 -0.30360553
29.30484390 16.11601639 -1.18198359 0.92162091 0.73377770 -0.40350103
22.71452332 16.20024681 -0.55189306 0.71435905 0.73761278 -0.18840314
23.32703781 15.31756115 -0.71716917 0.73362225 0.69742328 -0.24482447
26.80579185 19.64046288 0.47187215 0.84302711 0.89424914 0.16108590
29.19711685 16.23646545 -1.18086028 0.91823292 0.73926187 -0.40311757
22.65926361 16.37665176 -0.55275369 0.71262115 0.74564469 -0.18869694
23.36189461 15.55126286 -0.72044826 0.73471850 0.70806390 -0.24594387
26.15065575 19.41363335 0.45972744 0.82242346 0.88392138 0.15694000
26.31854248 14.85518646 -1.08138418 0.82770342 0.67637092 -0.36915880
22.57365799 16.53170967 -0.55308008 0.70992887 0.75270462 -0.18880837
23.65011215 15.95806026 -0.73011959 0.74378276 0.72658581 -0.24924543
27.83332634 15.94017220 -1.13923502 0.87534249 0.72577137 -0.38890770
29.69141388 16.08718300 -0.25013268 0.93377829 0.73246491 -0.08538934
26.77413940 19.87241554 -0.63267303 0.84203166 0.90481013 -0.21597950
26.24390984 15.25094795 -1.08550298 0.82535625 0.69439030 -0.37056485
29.92786026 16.45963669 -0.25141618 0.94121444 0.74942303 -0.08582749
22.97748756 15.92852211 -0.71824837 0.72262907 0.72524089 -0.24519289
25.54752922 19.72330284 0.45433387 0.80345547 0.89802092 0.15509875
24.36140060 15.62133884 -0.85426694 0.76615238 0.71125454 -0.29162636
26.06315613 15.36585045 -1.08244503 0.81967163 0.69962192 -0.36952093
29.54257393 17.98359489 -0.05847711 0.92909735 0.81881034 -0.01996269
29.04349136 16.21115494 -0.24844356 0.91340148 0.73810947 -0.08481271
22.60521507 15.88195992 -0.71135807 0.71092135 0.72312087 -0.24284069
25.32549095 19.80699348 0.45205903 0.79647249 0.90183145 0.15432218
23.79697990 15.47080421 -0.84050781 0.74840164 0.70440054 -0.28692934
25.30875015 15.13677311 -1.05854332 0.79594600 0.68919182 -0.36136147
28.90583611 16.31339645 -0.24821080 0.90907234 0.74276459 -0.08473326
22.51534843 17.31889534 -0.55940127 0.70809507 0.78854591 -0.19096626
22.67533112 16.09119225 -0.71505225 0.71312642 0.73264742 -0.24410179
25.93770981 20.48425484 0.46856996 0.81572640 0.93266779 0.15995862
26.89473343 19.65670013 0.28611547 0.84582430 0.89498842 0.09767301
23.49664497 15.43332672 -0.83377671 0.73895633 0.70269418 -0.28463149
25.21146774 15.24037457 -1.05760717 0.79288650 0.69390887 -0.36104187
28.98146439 16.59717560 -0.24889576 0.91145080 0.75568533 -0.08496708
29.84774017 15.61007595 -0.40603125 0.93869466 0.71074176 -0.13860939
25.34472275 19.75334549 -0.61471862 0.79707730 0.89938879 -0.20985028
22.72808266 16.34413910 -0.71899551 0.71478546 0.74416435 -0.24544793
25.55097580 20.44054794 0.46251595 0.80356383 0.93067777 0.15789193
23.52063942 15.66163635 -0.83738971 0.73971093 0.71308935 -0.28586489
26.08702469 15.99339008 -1.09317899 0.82042229 0.72819442 -0.37318525
29.95579910 15.90692234 -0.40789428 0.94209307 0.72425747 -0.13924539
24.01059532 18.95600128 -0.59183788 0.75511974 0.86308491 -0.20203935
22.64596176 16.50191307 -0.71953511 0.71220279 0.75134796 -0.24563214
25.41427612 20.59438515 0.46233249 0.79926473 0.93768209 0.15782930
23.53937531 15.88861465 -0.84090376 0.74030012 0.72342390 -0.28706449
24.34202576 15.13633251 -1.03276944 0.76554304 0.68917173 -0.35256287
29.70029640 16.01140213 -0.40649304 0.93405765 0.72901452 -0.13876703
23.93004036 19.13773918 -0.59257984 0.75258636 0.87135965 -0.20229264
23.38795090 16.00116730 -0.83936948 0.73553795 0.72854853 -0.28654075
24.19907379 15.25915718 -1.03102195 0.76104730 0.69476408 -0.35196632
31.79706955 20.67875099 -0.05080318 1.00000000 0.94152337 -0.01734299
29.26060867 17.49805069 -0.25121000 0.92022973 0.79670304 -0.08575711
29.11648369 15.93396664 -0.40211415 0.91569710 0.72548878 -0.13727219
26.18227577 20.04718971 2.58034611 0.82341790 0.91276777 0.88086867
23.81087685 19.28897858 -0.59260947 0.74883872 0.87824571 -0.20230275
25.60603142 19.72159386 0.27349114 0.80529535 0.89794308 0.09336336
24.24088669 15.49910545 -1.03613937 0.76236230 0.70568913 -0.35371330
29.39111137 17.82794762 -0.25214767 0.92433399 0.81172359 -0.08607721
26.14719009 20.28210258 2.58987713 0.82231444 0.92346358 0.88412231
23.49143791 19.27570152 -0.58881086 0.73879254 0.87764120 -0.20100600
25.30966949 19.74810600 0.27071685 0.79597491 0.89915019 0.09241628
23.42537880 16.46296310 -0.84664500 0.73671502 0.74957448 -0.28902444
24.16819763 15.66740131 -1.03707540 0.76007628 0.71335185 -0.35403284
28.94998932 16.25901794 -0.40220970 0.91046095 0.74028867 -0.13730481
26.26587486 19.96567345 1.43475783 0.82604700 0.90905625 0.48979214
23.78050232 19.70156288 -0.59614104 0.74788344 0.89703107 -0.20350835
22.61471176 17.30891418 -0.72904038 0.71122003 0.78809148 -0.24887702
25.18646622 19.84366035 0.27023324 0.79210025 0.90350091 0.09225119
23.15362167 16.43531036 -0.84075528 0.72816843 0.74831545 -0.28701383
23.33789062 15.28657913 -1.00886762 0.73396355 0.69601262 -0.34440336
29.19500732 18.15109253 -0.25215432 0.91816658 0.82643664 -0.08607948
28.87159348 16.45444298 -0.40243262 0.90799540 0.74918658 -0.13738091
23.08516121 19.37073898 -0.58507162 0.72601539 0.88196832 -0.19972952
22.47072792 17.42373276 -0.72812718 0.70669180 0.79331928 -0.24856527
23.44086075 16.86211967 -0.85268319 0.73720193 0.76774848 -0.29108572
23.67290688 15.71900368 -1.02503097 0.74449962 0.71570134 -0.34992114
31.72032928 20.00074768 -0.26253518 0.99758655 0.91065323 -0.08962326
28.90792465 16.71653175 -0.40372238 0.90913802 0.76111972 -0.13782120
22.46499634 19.09159088 -0.57536733 0.70651156 0.86925846 -0.19641669
21.74877930 17.08452988 -0.71198070 0.68398690 0.77787507 -0.24305324
25.38635635 20.52291107 0.27761441 0.79838669 0.93442786 0.09477095
22.67719650 16.52927017 -0.83253938 0.71318513 0.75259352 -0.28420910
23.23188972 15.63773441 -1.01217520 0.73062992 0.71200109 -0.34553251
31.46433258 20.11663055 -0.26202312 0.98953563 0.91592950 -0.08944845
22.57787132 19.43342781 -0.57993752 0.71006137 0.88482261 -0.19797684
21.52202225 17.12630653 -0.70882612 0.67685550 0.77977717 -0.24197635
25.26464653 20.68834305 0.27774167 0.79455894 0.94196010 0.09481439
22.43626022 16.57036400 -0.82833242 0.70560777 0.75446457 -0.28277296
23.24552155 15.85992527 -1.01641881 0.73105860 0.72211760 -0.34698117
31.61077118 20.49140358 -0.26310709 0.99414104 0.93299329 -0.08981849
29.20962524 17.38398552 -0.40848345 0.91862631 0.79150957 -0.13944651
22.29864311 19.43813515 -0.57685113 0.70127982 0.88503695 -0.19692323
21.42489433 17.26997185 -0.70911670 0.67380089 0.78631842 -0.24207555
25.36055183 21.03421021 0.28148317 0.79757512 0.95770776 0.09609165
23.65865326 16.36003876 -1.03588974 0.74405140 0.74488825 -0.35362807
26.98489571 20.79853249 0.16794476 0.84865981 0.94697714 0.05733234
29.34817314 17.71689224 -0.41079229 0.92298359 0.80666709 -0.14023469
22.11464310 19.52355003 -0.57563442 0.69549310 0.88892597 -0.19650787
21.46629333 17.52680397 -0.71314293 0.67510289 0.79801220 -0.24345000
23.43746948 16.42584610 -1.03139639 0.73709530 0.74788451 -0.35209414
25.41989899 19.84677887 0.15160996 0.79944158 0.90364289 0.05175603
29.22166252 17.82897949 -0.41039422 0.91900492 0.81177056 -0.14009881
22.06864548 19.66882515 -0.57655436 0.69404650 0.89554048 -0.19682191
22.85473061 18.83881569 -0.75269973 0.71876848 0.85774934 -0.25695375
23.53284264 16.65841675 -1.03801155 0.74009472 0.75847369 -0.35435241
25.12830162 19.81021118 0.14934821 0.79027098 0.90197796 0.05098392
26.93924522 19.64558220 -0.06133188 0.84722418 0.89448220 -0.02093724
29.16860771 18.04902840 -0.41095152 0.91733634 0.82178956 -0.14028905
23.43624306 19.56592941 -0.77162725 0.73705667 0.89085555 -0.26341516
21.22172928 16.45901489 -0.80269492 0.66741151 0.74939477 -0.27402091
23.41145897 16.79430771 -1.03738749 0.73627722 0.76466095 -0.35413936
22.35953712 18.90778923 -0.74572647 0.70319492 0.86088979 -0.25457326
21.38657761 16.80345917 -0.81115830 0.67259586 0.76507765 -0.27691013
22.70527458 16.50542641 -1.01423466 0.71406817 0.75150788 -0.34623554
25.36846733 20.52218819 0.15502052 0.79782408 0.93439490 0.05292031
31.44273949 20.00485802 -0.43456566 0.98885649 0.91084039 -0.14835036
22.09441376 18.92313766 -0.74174172 0.69485694 0.86158860 -0.25321296
21.18520737 16.86147881 -0.80813920 0.66626287 0.76771933 -0.27587947
22.61239433 16.65605164 -1.01467144 0.71114713 0.75836599 -0.34638464
25.26839828 20.70527840 0.15536158 0.79467696 0.94273120 0.05303674
31.27607727 20.17602539 -0.43418351 0.98361510 0.91863382 -0.14821990
26.22934151 20.03053856 2.19289470 0.82489806 0.91200966 0.74860197
22.22597313 19.27890968 -0.74863201 0.69899440 0.87778723 -0.25556514
21.50974083 17.34218788 -0.82184881 0.67646927 0.78960645 -0.28055960
25.10704422 20.83807182 0.15500256 0.78960246 0.94877744 0.05291418
26.70199776 20.51972008 -0.06056541 0.83976287 0.93428254 -0.02067559
23.84017944 15.59786224 -0.36467868 0.74976027 0.71018565 -0.12449262
22.21112633 19.51180077 -0.75157905 0.69852746 0.88839102 -0.25657117
26.25834656 20.44278526 -0.06147875 0.82581025 0.93077964 -0.02098738
25.98813057 19.71438789 1.05610788 0.81731212 0.89761502 0.36053008
22.11144829 19.60962296 -0.75137150 0.69539267 0.89284497 -0.25650033
22.53743362 17.20909691 -1.02315879 0.70878965 0.78354669 -0.34928203
25.20843697 19.81784248 -0.06426010 0.79279119 0.90232539 -0.02193687
26.88343620 19.53829575 -0.24835046 0.84546900 0.88959736 -0.08478093
26.22523689 20.15474510 1.07278860 0.82476896 0.91766489 0.36622447
24.45732498 21.96307755 -0.82023275 0.76916915 1.00000000 -0.28000793
22.41304016 17.33814430 -1.02253473 0.70487756 0.78942233 -0.34906900
24.90497780 19.83391571 -0.06478331 0.78324759 0.90305722 -0.02211548
26.80843353 19.74243164 -0.24854995 0.84311020 0.89889187 -0.08484903
26.17066383 20.37556076 1.07615399 0.82305270 0.92771882 0.36737332
22.24546242 18.81859016 -0.85916680 0.69960731 0.85682845 -0.29329908
21.85340500 17.12629700 -1.00468647 0.68727732 0.77977675 -0.34297603
25.62088013 20.66756821 -0.06230489 0.80576229 0.94101423 -0.02126941
23.58926582 21.72584724 -0.80358815 0.74186915 0.98919868 -0.27432585
22.19506645 19.01657677 -0.86139399 0.69802237 0.86584300 -0.29405940
21.24093819 16.86341286 -0.98459148 0.66801560 0.76780736 -0.33611608
25.17131615 20.56765175 -0.06325036 0.79162377 0.93646491 -0.02159217
22.57316780 15.75128174 -0.35700369 0.70991349 0.71717095 -0.12187255
26.79865456 19.86355400 0.92181182 0.84280264 0.90440667 0.31468460
22.07665253 19.15696716 -0.86144346 0.69429833 0.87223512 -0.29407626
21.61308861 17.38078117 -1.00375032 0.67971951 0.79136366 -0.34265643
25.08629417 20.76235390 -0.06311727 0.78894991 0.94532990 -0.02154673
26.44266701 20.25274086 -0.24859650 0.83160704 0.92212671 -0.08486492
22.18699455 19.49871826 -0.86906546 0.69776851 0.88779533 -0.29667825
21.46778679 17.48722458 -1.00231493 0.67514986 0.79621011 -0.34216642
24.86793709 20.84638405 -0.06337888 0.78208268 0.94915587 -0.02163604
26.58570862 20.56202888 -0.24960068 0.83610564 0.93620890 -0.08520772
27.05063820 19.31611824 -0.40249631 0.85072738 0.87948138 -0.13740265
21.72418022 19.27372169 -0.85679114 0.68321329 0.87755102 -0.29248807
23.38418961 19.22985077 -1.08306909 0.73541963 0.87555355 -0.36973399
21.97034836 20.05336571 0.12913616 0.69095510 0.91304898 0.04408401
22.35607147 18.92341805 -0.07063056 0.70308590 0.86160141 -0.02411159
25.27896690 19.80529785 -0.24462637 0.79500932 0.90175420 -0.08350962
22.70451164 16.43297386 -0.36100039 0.71404415 0.74820906 -0.12323693
25.85572433 19.86531258 0.89793378 0.81314802 0.90448678 0.30653319
22.20580482 21.44139481 -0.77864206 0.69836009 0.97624731 -0.26580983
24.57230759 20.46554947 -1.13623953 0.77278531 0.93181610 -0.38788509
22.24736786 19.07261658 -0.07059843 0.69966722 0.86839455 -0.02410062
24.90663528 19.76713753 -0.24357566 0.78329968 0.90001673 -0.08315093
22.59597206 16.57176208 -0.36095265 0.71063066 0.75452822 -0.12322063
26.15610695 20.35915565 0.91508025 0.82259488 0.92697191 0.31238660
27.04947662 19.48214531 0.69514054 0.85069084 0.88704079 0.23730442
21.78028107 19.81855392 -0.86683828 0.68497765 0.90235776 -0.29591793
24.08090973 20.31428528 -1.12144923 0.75733107 0.92492890 -0.38283604
22.53357697 19.56446075 -0.06936381 0.70866835 0.89078867 -0.02367915
24.78817558 19.92825508 -0.24360226 0.77957422 0.90735257 -0.08316001
26.02610207 20.52185822 0.91501671 0.81850630 0.93437988 0.31236491
26.87967682 19.61756325 0.69369161 0.84535074 0.89320648 0.23680979
23.36275673 21.53055954 -0.92434949 0.73474562 0.98030704 -0.31555089
22.56594276 19.28181458 -1.06453431 0.70968622 0.87791950 -0.36340666
22.46731377 19.75580406 -0.06918940 0.70658439 0.89950073 -0.02361961
24.23002052 19.73098564 -0.24174687 0.76202053 0.89837074 -0.08252662
24.10052299 20.85448074 -1.13286960 0.75794792 0.94952452 -0.38673469
21.94221306 19.54039001 -0.07041943 0.69007027 0.88969272 -0.02403952
23.32683754 19.23966789 -0.23838855 0.73361593 0.87600052 -0.08138017
26.72171211 20.37802315 -0.40541026 0.84038287 0.92783093 -0.13839740
26.23826408 20.24219322 1.83623981 0.82517868 0.92164648 0.62684852
22.95530128 21.69463158 -0.91974664 0.72193134 0.98777741 -0.31397960
21.52160645 18.86344337 -1.03133404 0.67684245 0.85887069 -0.35207286
22.34212112 20.14899635 -0.06880387 0.70264715 0.91740316 -0.02348800
23.14221573 19.27124786 -0.23798290 0.72780973 0.87743843 -0.08124169
22.72992516 21.68517303 -0.91553968 0.71484339 0.98734677 -0.31254342
22.01520729 19.47954750 -1.05561018 0.69236594 0.88692248 -0.36036018
22.15813637 20.17333221 -0.06907925 0.69686097 0.91851115 -0.02358201
22.66160774 19.11301041 -0.23642011 0.71269482 0.87023371 -0.08070819
25.34439087 19.77328491 -0.39378631 0.79706687 0.90029663 -0.13442926
26.09853935 19.89505005 2.91265655 0.82078445 0.90584069 0.99431157
25.64008141 19.65591431 0.66945928 0.80636621 0.89495265 0.22853744
22.23252869 21.47863579 -0.90311688 0.69920057 0.97794288 -0.30830258
21.27118492 19.06161499 -1.02958667 0.66896683 0.86789364 -0.35147637
21.92354012 20.21326447 -0.06941430 0.68948305 0.92032933 -0.02369639
22.40732765 19.14061546 -0.23583490 0.70469791 0.87149060 -0.08050841
25.04540062 19.79459763 -0.39201882 0.78766382 0.90126705 -0.13382588
26.02978897 20.10242271 2.91932178 0.81862223 0.91528261 0.99658692
25.52081299 19.82030296 0.66960919 0.80261523 0.90243739 0.22858863
22.08713913 21.60810852 -0.90277040 0.69462812 0.98383790 -0.30818430
22.15826416 20.10769463 -1.07202315 0.69686496 0.91552263 -0.36596316
22.16720581 19.17756844 -0.23530954 0.69714618 0.87317312 -0.08032907
24.77214050 19.83292198 -0.39050612 0.77906990 0.90301198 -0.13330948
25.98770523 20.33178520 2.92931986 0.81729877 0.92572570 1.00000000
26.00576210 20.45955086 0.68899506 0.81786662 0.93154299 0.23520650
21.84149551 20.07215881 -1.06397271 0.68690276 0.91390467 -0.36321494
22.57394791 19.77945709 -0.23764373 0.70993799 0.90057766 -0.08112591
23.92280769 19.40161324 -0.38308591 0.75235885 0.88337409 -0.13077641
25.69992828 20.48184586 0.68334913 0.80824834 0.93255812 0.23327911
21.58253098 21.65156746 -0.89465350 0.67875850 0.98581666 -0.30541340
23.06502342 21.46371651 -1.12151158 0.72538203 0.97726363 -0.38285732
22.04108238 19.55822945 -0.23582825 0.69317967 0.89050496 -0.08050615
21.99631119 19.70461464 -0.23604105 0.69177163 0.89717001 -0.08057879
23.20130539 19.24376297 -0.37784716 0.72966802 0.87618703 -0.12898801
22.49575233 21.40072060 -1.10722041 0.70747876 0.97439533 -0.37797865
21.76104546 19.74156952 -0.23554230 0.68437266 0.89885259 -0.08040853
22.79035759 19.14622116 -0.37483767 0.71674395 0.87174582 -0.12796065
22.12891388 21.31850052 -1.09717298 0.69594193 0.97065181 -0.37454870
21.63804817 19.87926102 -0.23554894 0.68050450 0.90512186 -0.08041079
22.57816696 19.21133995 -0.37388229 0.71007067 0.87471074 -0.12763451
21.92007446 21.38458061 -1.09392786 0.68937403 0.97366047 -0.37344089
22.35544777 19.26541710 -0.37281543 0.70306629 0.87717295 -0.12727031
22.20983696 19.38447571 -0.37256065 0.69848692 0.88259381 -0.12718333
21.99614143 19.44290733 -0.37158933 0.69176632 0.88525420 -0.12685174
21.86459732 19.57273102 -0.37149382 0.68762934 0.89116526 -0.12681913
21.83703232 19.98465347 -0.37353197 0.68676239 0.90992045 -0.12751491
