12.80355358 23.49811554 -0.53497732 0.95929778 0.99338478 -0.50405121
12.09779930 23.14492035 -0.52542138 0.90641958 0.97845340 -0.49504769
11.90279102 23.12442207 -0.52381885 0.89180875 0.97758687 -0.49353778
13.03123665 23.09170532 -0.68827981 0.97635680 0.97620374 -0.64849156
11.03696156 21.77473640 -0.50013685 0.82693702 0.92052877 -0.47122481
12.57936287 22.62288284 -0.67520487 0.94250041 0.95638424 -0.63617241
11.02673912 22.45728683 0.32118237 0.82617110 0.94938362 0.30261537
10.90884399 21.86155510 -0.50043362 0.81733793 0.92419904 -0.47150442
12.57936382 22.96090126 -0.68134803 0.94250053 0.97067398 -0.64196044
10.79334927 22.33520126 0.31729311 0.80868453 0.94422245 0.29895094
10.78007030 21.94762230 -0.50073040 0.80768961 0.92783755 -0.47178403
12.35971451 22.90053177 -0.67806894 0.92604345 0.96812189 -0.63887095
10.71452332 22.53265190 0.31993487 0.80277854 0.95256972 0.30144000
10.70364475 22.14280510 -0.50283742 0.80196351 0.93608892 -0.47376925
12.28044319 23.09951210 -0.68093294 0.92010409 0.97653377 -0.64156938
10.57865715 22.61221123 0.32019171 0.79259890 0.95593309 0.30168197
10.74715996 22.50350189 -0.50794184 0.80522382 0.95133740 -0.47857860
12.06896877 22.96250916 -0.67636710 0.90425950 0.97074199 -0.63726747
10.49040318 22.70176125 0.32099891 0.78598654 0.95971882 0.30244252
10.74733448 22.87295723 -0.51289785 0.80523694 0.96695614 -0.48324811
11.21011066 21.66043091 -0.64415711 0.83991015 0.91569650 -0.60691947
10.35912132 22.79272079 0.32151258 0.77615029 0.96356416 0.30292648
13.34679794 23.65459633 -0.81021792 1.00000000 1.00000000 -0.76338059
11.05742550 21.69838333 -0.64340997 0.82847029 0.91730094 -0.60621554
11.01008892 22.37929344 0.17957215 0.82492363 0.94608647 0.16919139
12.59732437 22.65586090 -0.77958155 0.94384617 0.95777839 -0.73451525
10.96129036 21.84782410 -0.64527786 0.82126743 0.92361856 -0.60797548
10.80116653 22.30768967 0.17758688 0.80927026 0.94305938 0.16732089
12.34153461 22.52756119 -0.77374130 0.92468131 0.95235449 -0.72901267
11.19985676 22.67611694 -0.66287708 0.83914185 0.95863467 -0.62455732
9.70369720 22.46423149 0.31112903 0.72704309 0.94967723 0.29314321
10.71593761 22.49061394 0.17921582 0.80288452 0.95079255 0.16885567
12.18836880 22.58353806 -0.77314740 0.91320544 0.95472091 -0.72845310
10.64472866 21.89934921 -0.64332700 0.79754925 0.92579681 -0.60613739
9.50542831 22.39034081 0.30845058 0.71218795 0.94655347 0.29061958
10.58716869 22.58465195 0.17959760 0.79323661 0.95476800 0.16921537
12.28051472 23.10121536 -0.78552073 0.92010945 0.97660577 -0.74011111
10.14581680 23.38167572 -0.51610291 0.76016861 0.98846227 -0.48626789
10.75733662 22.39790344 -0.65366238 0.80598634 0.94687319 -0.61587530
9.46304893 22.58617401 0.31145924 0.70901269 0.95483238 0.29345432
10.50166893 22.67964172 0.18023391 0.78683060 0.95878369 0.16981490
11.39504528 21.67863846 -0.74414432 0.85376620 0.91646624 -0.70112664
12.85671329 22.39341354 -0.94402719 0.96328074 0.94668341 -0.88945460
10.82327271 22.71269989 1.06135511 0.81092656 0.96018124 1.00000000
10.65747547 22.55179596 -0.65565479 0.79850429 0.95337903 -0.61775249
9.28980732 22.56934357 0.30995491 0.69603264 0.95412087 0.29203695
10.37307835 22.77610588 0.18066661 0.77719605 0.96286172 0.17022258
11.17051601 21.57927704 -0.73939294 0.83694351 0.91226572 -0.69664991
12.95924664 22.90330124 -0.95944160 0.97096300 0.96823895 -0.90397793
10.64297390 22.70069695 1.05716491 0.79741776 0.95967382 0.99605203
10.79170609 23.21100235 -0.66922778 0.80856144 0.98124701 -0.63054085
9.20615768 22.77191925 0.31281683 0.68976527 0.96268475 0.29473343
10.22157860 22.82258797 0.18041208 0.76584500 0.96482676 0.16998278
11.06190395 21.70249939 -0.74087775 0.82880580 0.91747493 -0.69804889
10.98991299 22.33497238 0.08557072 0.82341194 0.94421279 0.08062403
10.48504543 22.73447990 1.05545080 0.78558511 0.96110201 0.99443698
9.10339165 22.93156815 0.31483483 0.68206561 0.96943390 0.29663476
11.16614914 22.25247955 -0.75419146 0.83661634 0.94072539 -0.71059293
12.39090347 22.55645752 -0.94134372 0.92838025 0.95357609 -0.88692623
10.81803513 22.33875847 0.08492450 0.81053412 0.94437283 0.08001517
10.32876778 22.77081108 1.05392706 0.77387607 0.96263790 0.99300134
9.03158855 23.17469025 0.31850392 0.67668581 0.97971195 0.30009174
11.03760529 22.34551239 -0.75483489 0.82698524 0.94465840 -0.71119916
12.46617699 23.03453827 -0.95557243 0.93402004 0.97378701 -0.90033245
10.70322990 22.46047211 0.08546302 0.80193239 0.94951832 0.08052254
12.12977886 23.19341278 -0.07778127 0.90881562 0.98050344 -0.07328486
9.60996914 22.58992767 0.17458351 0.72002059 0.95499104 0.16449113
10.75909805 22.13020325 -0.74701494 0.80611831 0.93555617 -0.70383132
11.46796227 21.51487160 -0.89903206 0.85922951 0.90954298 -0.84706056
10.61189938 22.63415527 0.08652209 0.79508954 0.95686078 0.08152039
9.45841980 22.52805328 0.17310727 0.70866585 0.95237529 0.16310023
10.71259594 22.30145645 -0.75033098 0.80263418 0.94279587 -0.70695561
11.30950832 21.46084404 -0.89522523 0.84735745 0.90725893 -0.84347379
10.57055950 22.82551575 0.08792222 0.79199219 0.96495056 0.08283959
10.77425957 22.64491081 0.94090056 0.80725425 0.95731544 0.88650870
8.92551136 23.21759415 -0.50699216 0.66873801 0.98152572 -0.47768381
10.06424809 23.45289421 -0.66765046 0.75405711 0.99147302 -0.62905473
9.39462471 22.77554321 0.17570341 0.70388603 0.96283793 0.16554630
10.65754986 22.54916000 -0.75528032 0.79850990 0.95326757 -0.71161884
11.17905521 21.54034805 -0.89553726 0.83758330 0.91061997 -0.84376776
10.39052296 22.81137085 0.08713239 0.77850306 0.96435255 0.08209542
10.61485291 22.67595100 0.93918127 0.79531085 0.95862770 0.88488883
8.78720379 23.29380417 -0.50731862 0.65837544 0.98474747 -0.47799140
9.26939678 22.87859154 0.17631426 0.69450343 0.96719432 0.16612184
10.77316189 23.17066193 -0.77042526 0.80717200 0.97954166 -0.72588831
11.57561016 22.64927101 -0.93198270 0.86729491 0.95749980 -0.87810636
10.21924400 22.81412697 0.08652209 0.76567012 0.96446908 0.08152039
10.92947674 22.15674782 -0.08115008 0.81888384 0.93667835 -0.07645894
10.46632671 22.72948837 0.93857950 0.78418261 0.96089101 0.88432181
8.59842682 23.23411751 -0.50550830 0.64423144 0.98222423 -0.47628573
9.13213158 22.95309830 0.17654333 0.68421888 0.97034413 0.16633765
10.86069775 21.58630371 -0.89229214 0.81373060 0.91256279 -0.84071028
10.07891655 22.88521004 0.08659389 0.75515616 0.96747410 0.08158804
10.78304672 22.21059608 -0.08118680 0.80791265 0.93895477 -0.07649353
10.29121685 22.72378922 0.93522692 0.77106261 0.96065003 0.88116306
8.45567799 23.29708481 -0.50565672 0.63353610 0.98488617 -0.47642559
9.01471233 23.07892418 0.17748506 0.67542136 0.97566342 0.16722496
10.59154415 21.38552666 -0.88293111 0.79356444 0.90407491 -0.83189040
10.70114613 22.39876938 -0.08087929 0.80177629 0.94690979 -0.07620380
12.16188622 23.14469147 -0.22478238 0.91122127 0.97844374 -0.21178809
10.15797329 22.80991364 0.93625849 0.76107943 0.96429098 0.88213497
8.75832558 22.84576797 0.17353997 0.65621173 0.96580672 0.16350792
11.11594009 22.80056381 -0.92979848 0.83285445 0.96389568 -0.87604845
9.67175388 22.73023796 0.08386544 0.72464973 0.96092266 0.07901733
12.03427315 23.16623497 -0.22464937 0.90165997 0.97935450 -0.21166277
10.93711472 22.70507240 -0.92468113 0.81945610 0.95985878 -0.87122691
10.79172230 22.58927345 0.77846080 0.80856264 0.95496339 0.73345929
10.05489922 23.43035698 -0.76903945 0.75335670 0.99052024 -0.72458261
10.66559124 22.50248909 -0.91532016 0.79911238 0.95129460 -0.86240709
10.64361572 22.64397812 0.77794868 0.79746586 0.95727605 0.73297679
8.88083839 23.38572693 -0.65714902 0.66539091 0.98863351 -0.61916035
9.92376900 23.53177261 -0.77007884 0.74353182 0.99480760 -0.72556192
10.54007339 22.60346794 -0.91650587 0.78970802 0.95556349 -0.86352426
9.33679676 23.04042816 0.08528352 0.69955331 0.97403598 0.08035342
10.24680996 22.81427956 -0.08045245 0.76773548 0.96447551 -0.07580163
10.91696835 22.01763916 -0.21956201 0.81794661 0.93079752 -0.20686951
10.49272728 22.69227219 0.77721703 0.78616065 0.95931768 0.73228747
8.68125439 23.30057716 -0.65403599 0.65043724 0.98503381 -0.61622727
10.39116573 22.65471649 -0.91600662 0.77855122 0.95773000 -0.86305386
9.13428783 22.95365143 0.08388339 0.68438047 0.97036749 0.07903423
10.24167538 23.19094849 -0.07966762 0.76735073 0.98039925 -0.07506217
10.79855347 22.12715340 -0.21971497 0.80907446 0.93542725 -0.20701362
10.32590389 22.70500946 0.77509534 0.77366149 0.95985615 0.73028839
8.51267052 23.29458046 -0.65270770 0.63780618 0.98478031 -0.61497581
8.97826672 22.98077583 0.08359618 0.67269069 0.97151417 0.07876363
10.74747658 22.37852859 -0.22039329 0.80524755 0.94605416 -0.20765273
12.24815178 23.20999718 -0.34679690 0.91768467 0.98120451 -0.32674918
10.15851784 22.71472549 0.77290052 0.76112020 0.96026689 0.72822046
8.34720993 23.29491615 -0.65154552 0.62540919 0.98479450 -0.61388081
8.75796032 22.83873367 0.08169345 0.65618438 0.96550936 0.07697089
12.11084843 23.21428490 -0.34631920 0.90739733 0.98138583 -0.32629907
10.00930405 22.66730499 0.76909614 0.74994045 0.95826221 0.72463602
8.25068569 23.37169266 -0.65237564 0.61817718 0.98804021 -0.61466295
9.86509037 22.72608185 0.76894981 0.73913538 0.96074700 0.72449815
10.83404541 22.64778900 0.65966171 0.81173366 0.95743716 0.62152779
10.42419815 22.70270348 -0.22091199 0.78102612 0.95975864 -0.20814145
10.65328979 22.63399124 0.65680397 0.79819071 0.95685381 0.61883527
8.82859135 23.24478149 -0.75339955 0.66147637 0.98267502 -0.70984679
9.92509556 23.46082687 -0.93316847 0.74363124 0.99180835 -0.87922359
9.31344986 22.91760826 -0.08107664 0.69780409 0.96884376 -0.07638974
10.30928326 22.82975006 -0.22113810 0.77241623 0.96512955 -0.20835449
10.92293549 21.93877220 -0.33297554 0.81839371 0.92746341 -0.31372678
10.51002884 22.69866753 0.65674049 0.78745693 0.95958805 0.61877543
8.68515301 23.30728912 -0.75359756 0.65072936 0.98531759 -0.71003336
9.79286671 23.55962944 -0.93441659 0.73372406 0.99598527 -0.88039958
9.19601440 23.04252434 -0.08091142 0.68900532 0.97412461 -0.07623407
10.19075203 22.95075798 -0.22134425 0.76353532 0.97024518 -0.20854871
10.81044102 22.05902863 -0.33343732 0.80996513 0.93254727 -0.31416190
10.35479736 22.73695564 0.65578789 0.77582633 0.96120667 0.61787790
8.95819569 22.86343193 -0.08149431 0.67118686 0.96655345 -0.07678326
10.76300907 22.31558418 -0.33510926 0.80641133 0.94339317 -0.31573719
10.19705296 22.76871681 0.65464479 0.76400745 0.96254939 0.61680090
8.34986019 23.29785919 -0.75052893 0.62560773 0.98491889 -0.70714217
8.78846455 22.85208511 -0.08165953 0.65846992 0.96607375 -0.07693893
10.71460819 22.48516846 -0.33616018 0.80278492 0.95056236 -0.31672734
10.02831554 22.67752266 0.64981836 0.75136489 0.95869416 0.61225349
10.93766594 22.46002579 0.48639295 0.81949741 0.94949943 0.45827541
8.22603321 23.29734612 -0.74948961 0.61633009 0.98489720 -0.70616293
10.92605209 23.30324173 -0.34276831 0.81862724 0.98514646 -0.32295346
9.84188175 22.63921928 0.64632559 0.73739648 0.95707488 0.60896260
10.80152416 22.53911781 0.48669273 0.80929703 0.95284307 0.45855784
10.64433193 23.07914925 -0.34020469 0.79751951 0.97567290 -0.32053804
9.68925095 22.67670441 0.64550000 0.72596073 0.95865953 0.60818475
10.65286064 22.59207916 0.48629302 0.79815853 0.95508200 0.45818126
10.48835278 23.12190437 -0.33999768 0.78583288 0.97748041 -0.32034299
10.52081490 22.68032455 0.48689258 0.78826511 0.95881259 0.45874617
8.70677185 23.28775215 -0.91407204 0.65234911 0.98449165 -0.86123109
9.17367649 22.85086060 -0.21972162 0.68733162 0.96602201 -0.20701988
10.24329472 22.96459770 -0.33805504 0.76747209 0.97083026 -0.31851268
10.38142872 22.75325394 0.48709244 0.77782166 0.96189570 0.45893446
9.04675388 22.95085716 -0.21987458 0.67782205 0.97024935 -0.20716400
10.17846680 23.20976448 -0.33963144 0.76261491 0.98119467 -0.31999794
10.22760296 22.79432678 0.48644289 0.76629639 0.96363205 0.45832247
8.93416214 22.98204613 -0.21983467 0.66938621 0.97156787 -0.20712641
10.09248734 22.78013992 0.48474413 0.75617296 0.96303231 0.45672190
8.80879402 23.08819580 -0.22001423 0.65999305 0.97605538 -0.20729558
9.86676979 22.65436554 0.47959790 0.73926121 0.95771515 0.45187315
8.09325790 23.30706978 -0.90814340 0.60638201 0.98530829 -0.85564518
9.66589737 22.57994461 0.47590059 0.72421098 0.95456898 0.44838959
7.95569277 23.38394737 -0.90901709 0.59607500 0.98855829 -0.85646838
9.50907516 22.60522842 0.47495130 0.71246117 0.95563787 0.44749519
9.36762047 22.66637611 0.47500125 0.70186275 0.95822293 0.44754225
9.28642464 22.77319336 0.47670001 0.69577920 0.96273863 0.44914281
9.03127384 23.11808586 -0.33545956 0.67666221 0.97731900 -0.31606722
8.87507820 23.14637184 -0.33522072 0.66495937 0.97851479 -0.31584218
8.72805882 23.19793510 -0.33518887 0.65394402 0.98069459 -0.31581217
