18.56337166 -4.67740297 2.19755578 0.97646171 -0.94289923 0.71695906
16.92809868 -3.73388767 1.97682321 0.89044386 -0.75269973 0.64494443
17.87358093 -3.82369924 2.09191418 0.94017768 -0.77080446 0.68249315
15.57955551 -2.57172394 2.71760750 0.81950843 -0.51842368 0.88662744
15.47473145 -2.45480204 2.69632006 0.81399453 -0.49485388 0.87968236
18.80864334 -4.96066046 2.70135641 0.98936337 -1.00000000 0.88132548
15.70610619 -2.39015031 2.73443151 0.82616520 -0.48182097 0.89211637
18.90930367 -3.67286396 2.21209359 0.99465823 -0.74039817 0.72170204
18.28728104 -4.70107651 2.61812258 0.96193892 -0.94767147 0.85417020
15.76956558 -2.29846168 2.74301529 0.82950324 -0.46333784 0.89491683
15.70344448 -3.15071392 2.67318749 0.82602519 -0.63514000 0.87213528
18.53039932 -4.82624865 3.06510639 0.97472733 -0.97290444 1.00000000
15.80906963 -2.20283651 2.74747872 0.83158123 -0.44406113 0.89637303
15.58164597 -3.02437353 2.64885473 0.81961840 -0.60967153 0.86419666
17.49581146 -4.29405642 2.49153781 0.92030638 -0.86562192 0.81287158
15.46787071 -2.92655230 2.62685537 0.81363362 -0.58995217 0.85701931
17.32148743 -3.05667043 2.00783706 0.91113669 -0.61618215 0.65506274
15.61201859 -2.85250807 2.64852142 0.82121605 -0.57502586 0.86408794
18.78344345 -4.64626980 2.03747535 0.98803782 -0.93662322 0.66473234
16.76166344 -3.89216185 2.37362313 0.88168913 -0.78460556 0.77440155
15.61798286 -2.75229073 2.64652157 0.82152975 -0.55482346 0.86343545
18.35999680 -4.41979980 1.98517060 0.96576387 -0.89097005 0.64766777
16.52510262 -3.72828364 2.33460712 0.86924565 -0.75156999 0.76167244
15.66606808 -2.65942693 2.65185475 0.82405913 -0.53610343 0.86517543
16.47547340 -3.77231932 2.70148253 0.86663508 -0.76044697 0.88136667
16.36256599 -3.58395648 2.30686259 0.86069596 -0.72247565 0.75262070
15.66690159 -2.55837989 2.64918804 0.82410294 -0.51573372 0.86430544
16.20004845 -3.60266209 2.65195537 0.85214728 -0.72624648 0.86520827
17.41874695 -3.24178529 1.92366123 0.91625267 -0.65349871 0.62760013
17.67166519 -4.02069712 1.89956045 0.92955661 -0.81051648 0.61973721
16.17564201 -3.43691325 2.27564979 0.85086346 -0.69283378 0.74243748
15.71772766 -2.46543741 2.65518785 0.82677650 -0.49699780 0.86626285
15.85173035 -3.42129540 2.59060597 0.83382523 -0.68968546 0.84519285
17.52568245 -3.17642188 1.93452990 0.92187768 -0.64032239 0.63114607
17.34112930 -3.86004734 1.85932589 0.91216987 -0.77813172 0.60661054
16.09474754 -3.34065962 2.26119947 0.84660828 -0.67343038 0.73772299
15.73306942 -2.39194012 2.65585446 0.82758349 -0.48218179 0.86648035
15.69569969 -3.31051278 2.56216788 0.82561779 -0.66735321 0.83591485
17.35532570 -3.74892712 1.85820830 0.91291666 -0.75573146 0.60624593
16.12124252 -3.24063087 2.26206660 0.84800196 -0.65326601 0.73800588
15.79851627 -2.30049253 2.66452098 0.83102608 -0.46374723 0.86930782
15.65814590 -3.20004344 2.55258203 0.82364237 -0.64508414 0.83278739
17.41161537 -3.64669538 1.86200821 0.91587758 -0.73512298 0.60748565
16.15100098 -3.14115191 2.26351166 0.84956735 -0.63321245 0.73847735
15.63338566 -3.09284210 2.54523277 0.82233995 -0.62347388 0.83038968
17.47704506 -3.54586887 1.86692572 0.91931927 -0.71479774 0.60909003
16.17625427 -3.04070044 2.26437855 0.85089570 -0.61296284 0.73876017
15.60595894 -2.98570991 2.53756404 0.82089728 -0.60187751 0.82788777
17.53799248 -3.44360232 1.87139618 0.92252517 -0.69418222 0.61054850
16.22620201 -2.94461799 2.26900268 0.85352302 -0.59359396 0.74026883
18.64971733 -4.82681847 2.46770215 0.98100364 -0.97301930 0.80509508
15.60693359 -2.88438964 2.53468823 0.82094854 -0.58145273 0.82694954
17.61396790 -3.34365702 1.87765491 0.92652160 -0.67403466 0.61259043
16.28727913 -2.85006022 2.27536082 0.85673577 -0.57453239 0.74234319
18.25869179 -4.60387754 2.40896797 0.96043509 -0.92807752 0.78593290
15.63252544 -2.78764844 2.53596640 0.82229471 -0.56195104 0.82736653
17.70771790 -3.27498603 1.88659596 0.93145299 -0.66019154 0.61550748
16.31613922 -2.77591300 2.27767301 0.85825384 -0.55958539 0.74309754
17.79904366 -4.39942646 2.34191966 0.93625689 -0.88686305 0.76405817
15.78168678 -2.73739743 2.55833340 0.83014083 -0.55182117 0.83466381
17.82774925 -3.18135571 1.89799571 0.93776685 -0.64131695 0.61922669
16.38014221 -2.68095589 2.28460908 0.86162049 -0.54044336 0.74536043
16.72958946 -4.02500820 2.18931818 0.88000196 -0.81138557 0.71427149
15.76741028 -2.63302135 2.55322099 0.82938987 -0.53078038 0.83299589
17.94534111 -3.08601093 1.90917194 0.94395238 -0.62209678 0.62287295
16.70049858 -3.90723634 2.18180871 0.87847173 -0.78764439 0.71182150
15.74269772 -2.52738070 2.54651093 0.82808995 -0.50948471 0.83080673
15.93629169 -3.46095705 2.45655227 0.83827329 -0.69768071 0.80145741
18.04870796 -2.98705721 1.91878355 0.94938964 -0.60214907 0.62600881
16.68605614 -3.79348612 2.17644477 0.87771207 -0.76471394 0.71007150
15.81072903 -3.32960987 2.43360543 0.83166850 -0.67120296 0.79397094
15.83181858 -2.33793592 2.55609679 0.83277786 -0.47129530 0.83393413
15.86619759 -3.23736143 2.43904018 0.83458620 -0.65260696 0.79574406
16.54068184 -2.91284657 2.22843695 0.87006515 -0.58718926 0.72703415
16.49978828 -3.53397918 2.14426184 0.86791408 -0.71240091 0.69957173
15.87356949 -2.24224758 2.56057024 0.83497399 -0.45200586 0.83539361
15.83193016 -3.12681341 2.43058610 0.83278370 -0.63032198 0.79298586
17.81051064 -3.72539330 2.32314634 0.93686008 -0.75098735 0.75793332
18.75061607 -3.79815865 2.44973326 0.98631108 -0.76565582 0.79923272
15.71960926 -2.92523384 2.40794110 0.82687545 -0.58968639 0.78559786
18.87721252 -3.70036793 2.46394753 0.99297023 -0.74594259 0.80387014
15.77075195 -2.83239079 2.41307402 0.82956564 -0.57097048 0.78727251
18.26125526 -3.46132302 2.37598014 0.96056992 -0.69775450 0.77517051
15.78434181 -2.73256540 2.41247010 0.83028048 -0.55084711 0.78707546
18.10129738 -3.31352782 2.35103822 0.95215589 -0.66796100 0.76703316
15.83044624 -2.63824844 2.41699910 0.83270568 -0.53183413 0.78855306
17.40389442 -2.42135620 2.33787680 0.91547143 -0.48811164 0.76273918
18.18618011 -3.21103048 2.35988855 0.95662087 -0.64729899 0.76992059
16.66818047 -3.58070517 2.04722881 0.87677175 -0.72182024 0.66791445
15.87598705 -2.54345989 2.42152810 0.83510119 -0.51272607 0.79003066
18.21478653 -3.12762761 2.36176610 0.95812559 -0.63048613 0.77053314
15.91318893 -2.47259641 2.42545319 0.83705807 -0.49844098 0.79131126
17.50606728 -2.23973799 2.34876490 0.92084587 -0.45149997 0.76629150
18.79774857 -3.82505369 2.32094884 0.98879027 -0.77107751 0.75721639
16.00074959 -2.38343120 2.43662477 0.84166390 -0.48046651 0.79495603
18.20762062 -2.89139318 2.35559750 0.95774865 -0.58286458 0.76852065
18.90119553 -3.72267056 2.33137870 0.99423176 -0.75043851 0.76061916
16.08194542 -2.29241872 2.44689035 0.84593487 -0.46211967 0.79830521
18.95149040 -3.60906243 2.33493996 0.99687737 -0.72753668 0.76178104
16.14891624 -2.19859529 2.45504260 0.84945768 -0.44320616 0.80096489
19.01085472 -3.49677372 2.33977342 1.00000000 -0.70490086 0.76335800
17.30279541 -2.41536474 2.22498775 0.91015345 -0.48690388 0.72590882
18.15560722 -3.22071171 2.22555375 0.95501268 -0.64925057 0.72609347
15.91934490 -3.53678608 3.00082278 0.83738184 -0.71296680 0.97902727
18.20967293 -3.14190888 2.23064160 0.95785660 -0.63336504 0.72775340
15.77215576 -3.40001702 2.96862102 0.82963949 -0.68539602 0.96852136
15.56808186 -3.25350285 2.92580724 0.81890488 -0.65586084 0.95455325
18.22029686 -2.90842938 2.22708011 0.95841545 -0.58629882 0.72659147
15.55739117 -3.14934087 2.91995239 0.81834257 -0.63486320 0.95264310
15.52671528 -3.04163694 2.91043830 0.81672895 -0.61315161 0.94953907
17.52538872 -2.57128024 2.13244843 0.92186224 -0.51833427 0.69571757
15.42770290 -2.92155099 2.88811660 0.81152076 -0.58894396 0.94225657
15.54375553 -2.86785746 2.90751076 0.81762528 -0.57812011 0.94858396
15.69869137 -2.69307256 2.93019843 0.82577515 -0.54288590 0.95598590
15.73469830 -2.59760976 2.93385768 0.82766914 -0.52364194 0.95717973
15.79924774 -2.50645876 2.94300604 0.83106458 -0.50526714 0.96016443
15.88076210 -2.41728401 2.95544767 0.83535236 -0.48729077 0.96422350
