3.32290053 3.45681882 1.58888745 0.64057279 0.62869638 0.66477293
4.86338758 4.00419807 2.00537586 0.93754047 0.72824895 0.83902711
3.91408300 3.10089445 1.86432314 0.75453812 0.56396389 0.78001219
4.24986076 3.02230048 1.90083504 0.81926775 0.54966992 0.79528838
3.83546138 2.86027479 2.02513838 0.73938179 0.52020210 0.84729552
3.29981709 3.47624946 1.58824575 0.63612288 0.63223022 0.66450447
4.79587078 3.99920082 1.98750246 0.92452490 0.72734010 0.83154905
3.86691427 3.10308456 1.85080826 0.74544513 0.56436223 0.77435774
4.20943260 3.03368020 1.89108741 0.81147420 0.55173957 0.79121006
3.79977226 2.87110472 2.01564097 0.73250186 0.52217174 0.84332192
3.25211835 3.46916389 1.57541192 0.62692773 0.63094157 0.65913492
4.70396805 3.97256374 1.95915163 0.90680838 0.72249562 0.81968737
3.49298763 3.25268745 1.82476366 0.67336136 0.59157073 0.76346093
3.85023212 3.12968969 1.85223091 0.74222922 0.56920093 0.77495295
4.19180679 3.06116843 1.89178371 0.80807638 0.55673891 0.79150140
3.78019452 2.89381242 2.01484942 0.72872776 0.52630162 0.84299076
3.82761550 3.15143132 1.85080826 0.73786932 0.57315511 0.77435774
4.12714529 3.05416656 1.87089598 0.79561126 0.55546546 0.78276217
3.74155068 2.90183520 2.00376916 0.72127819 0.52776074 0.83835489
4.13228846 3.08809471 1.87994730 0.79660273 0.56163603 0.78654915
3.73073649 2.92168689 2.00535202 0.71919346 0.53137118 0.83901709
3.17650771 3.50792074 1.56771159 0.61235189 0.63799036 0.65591317
4.10380888 3.10724235 1.87576973 0.79111254 0.56511843 0.78480130
3.69642353 2.93258119 1.99664617 0.71257877 0.53335255 0.83537471
4.35847759 2.67213488 2.04874396 0.84020638 0.48598483 0.85717183
3.92683554 4.18660164 1.59572065 0.75699651 0.76142293 0.66763186
3.11168170 3.47961473 1.54589415 0.59985507 0.63284230 0.64678502
4.07226753 3.12388372 1.87019968 0.78503215 0.56814498 0.78247088
3.67648816 2.95460415 1.99585462 0.70873570 0.53735787 0.83504349
4.30534077 2.67712045 2.03137302 0.82996291 0.48689157 0.84990400
3.90045309 4.21119213 1.59572065 0.75191063 0.76589525 0.66763186
3.12094784 3.53473163 1.56193638 0.60164136 0.64286649 0.65349692
4.03622484 3.13681817 1.86254084 0.77808404 0.57049739 0.77926648
3.63498044 2.95919132 1.98319149 0.70073408 0.53819215 0.82974541
4.24917412 2.67958164 2.01249170 0.81913537 0.48733917 0.84200430
3.84158206 4.20000982 1.58205760 0.74056172 0.76386154 0.66191542
3.08505201 3.53850603 1.55487788 0.59472150 0.64355290 0.65054369
3.71084166 3.24570036 1.84013867 0.71535820 0.59029996 0.76989371
4.01200294 3.15865469 1.86045206 0.77341467 0.57446885 0.77839255
3.60493851 2.97267294 1.97685981 0.69494271 0.54064411 0.82709628
4.21973991 2.69829655 2.00644946 0.81346118 0.49074289 0.83947629
3.80227280 4.20974064 1.57659233 0.73298389 0.76563126 0.65962881
3.08120227 3.57943416 1.56450319 0.59397936 0.65099657 0.65457082
3.31809115 3.48495483 1.56132972 0.63964570 0.63381350 0.65324312
3.67225194 3.25276446 1.83089173 0.70791906 0.59158474 0.76602489
4.00972271 3.19775844 1.86880720 0.77297509 0.58158070 0.78188825
3.35596657 3.10973120 1.97626877 0.64694709 0.56557107 0.82684898
3.59892297 3.00580621 1.98398292 0.69378310 0.54667008 0.83007652
4.18556499 2.71374393 1.99814165 0.80687308 0.49355233 0.83600038
3.75023961 4.20474005 1.56566191 0.72295320 0.76472181 0.65505564
3.05498981 3.59437728 1.56257808 0.58892626 0.65371430 0.65376538
3.30004740 3.50986648 1.56321931 0.63616729 0.63834423 0.65403366
3.63050675 3.24624991 1.81737697 0.69987166 0.59039992 0.76037043
3.33728123 3.12174153 1.97385252 0.64334506 0.56775540 0.82583809
3.60022068 3.03568959 1.99268889 0.69403327 0.55210501 0.83371902
4.16341114 2.72738695 1.99361014 0.80260241 0.49603358 0.83410442
3.70247483 4.19054556 1.55363834 0.71374530 0.76214027 0.65002513
3.01374388 3.57964611 1.54974437 0.58097506 0.65103513 0.64839590
3.28996897 3.53229666 1.56636858 0.63422441 0.64242363 0.65535128
3.59347463 3.25387144 1.80884135 0.69273275 0.59178603 0.75679922
3.31230712 3.13758922 1.97063088 0.63853067 0.57063764 0.82449019
3.61191678 3.08435893 2.01010084 0.69628799 0.56095660 0.84100395
4.12762976 2.74127388 1.98454702 0.79570460 0.49855924 0.83031255
3.64962316 4.18318558 1.54216135 0.70355684 0.76080167 0.64522326
3.01407909 3.62628865 1.56193638 0.58103967 0.65951806 0.65349692
3.24318337 3.52645540 1.55440116 0.62520534 0.64136124 0.65034425
3.55786300 3.26242518 1.80101693 0.68586773 0.59334171 0.75352556
3.28331971 3.14942694 1.96499300 0.63294262 0.57279056 0.82213134
3.55202913 3.07232141 1.98714876 0.68474311 0.55876732 0.83140105
4.11340523 2.76921010 1.98605752 0.79296249 0.50364000 0.83094454
3.59576082 4.17386532 1.53013790 0.69317347 0.75910658 0.64019281
2.96732879 3.61576486 1.54910266 0.57202739 0.65760410 0.64812744
3.21326947 3.53836417 1.55062211 0.61943865 0.64352715 0.64876312
3.53729439 3.28471541 1.80101693 0.68190259 0.59739566 0.75352556
3.26869631 3.17511988 1.96821463 0.63012356 0.57746339 0.82347924
3.50214481 3.06808448 1.96973681 0.67512667 0.55799669 0.82411611
4.92320871 3.22117424 2.02044868 0.94907254 0.58583939 0.84533340
4.08211899 2.78566265 1.97926021 0.78693128 0.50663227 0.82810062
3.56698251 4.19343567 1.52904487 0.68762577 0.76266587 0.63973546
2.96352863 3.65796947 1.55936968 0.57129478 0.66527992 0.65242302
3.18588090 3.55285263 1.54810262 0.61415881 0.64616215 0.64770901
3.82584643 4.56736231 2.33007026 0.73752826 0.83067244 0.97487563
3.50302291 3.29401350 1.79390383 0.67529595 0.59908676 0.75054955
3.23438931 3.18140960 1.95935512 0.62351000 0.57860732 0.81977254
3.48141932 3.08881545 1.96894538 0.67113131 0.56176710 0.82378501
4.81456137 3.19390631 1.98350060 0.92812800 0.58088011 0.82987475
4.04162455 2.79554844 1.96793139 0.77912498 0.50843024 0.82336074
3.53933239 4.21428680 1.52849829 0.68229550 0.76645809 0.63950682
3.16223049 3.57138395 1.54747272 0.60959959 0.64953250 0.64744550
3.78763580 4.57981920 2.32416463 0.73016220 0.83293796 0.97240478
3.48225713 3.31595850 1.79390383 0.67129278 0.60307789 0.75054955
3.21820974 3.20556211 1.96177137 0.62039101 0.58299994 0.82078344
3.44411254 3.09474778 1.95865655 0.66393948 0.56284600 0.81948024
4.74728537 3.19265199 1.96370709 0.91515887 0.58065200 0.82159334
4.01333427 2.81349015 1.96264458 0.77367127 0.51169330 0.82114881
3.53478909 4.26318121 1.53833568 0.68141967 0.77535057 0.64362264
2.92433310 3.70387101 1.56321979 0.56373888 0.67362809 0.65403390
3.14475036 3.59687710 1.54999220 0.60622984 0.65416896 0.64849961
3.73903441 4.56445169 2.30718613 0.72079307 0.83014309 0.96530116
3.20435333 3.22199559 1.96257675 0.61771983 0.58598876 0.82112044
3.40900326 3.09252238 1.94678473 0.65717125 0.56244129 0.81451321
4.69305086 3.18860126 1.94721246 0.90470380 0.57991529 0.81469214
3.97426271 2.81428480 1.94980514 0.76613927 0.51183784 0.81577694
3.52559972 4.29321241 1.54325438 0.67964816 0.78081238 0.64568055
3.11652684 3.59878969 1.54432344 0.60078907 0.65451682 0.64612788
3.71610069 4.59510088 2.31087708 0.71637201 0.83571726 0.96684545
3.18149209 3.23944163 1.96096587 0.61331278 0.58916169 0.82044643
3.40851831 3.13119340 1.95786500 0.65707779 0.56947440 0.81914908
4.63083601 3.18926334 1.92939818 0.89271033 0.58003569 0.80723888
3.96555614 2.84564042 1.95433676 0.76446086 0.51754051 0.81767291
3.51423478 4.33476496 1.55035925 0.67745727 0.78836966 0.64865315
3.10501146 3.63123727 1.54999220 0.59856921 0.66041809 0.64849961
3.15219522 3.25012875 1.95532799 0.60766506 0.59110534 0.81808764
3.38202596 3.14632201 1.95390785 0.65197074 0.57222587 0.81749344
4.58121634 3.19787097 1.91686225 0.88314486 0.58160114 0.80199397
3.93257523 2.85967183 1.94678414 0.75810295 0.52009243 0.81451297
3.48812604 4.35826588 1.55090570 0.67242420 0.79264379 0.64888179
3.07228875 3.63911319 1.54495335 0.59226108 0.66185051 0.64639139
3.13423252 3.27252579 1.95693886 0.60420227 0.59517872 0.81876159
3.36219025 3.16750979 1.95390785 0.64814687 0.57607931 0.81749344
4.53321791 3.20706630 1.90498614 0.87389195 0.58327353 0.79702514
3.68095160 3.01171565 1.95224643 0.70959616 0.54774487 0.81679833
3.89508843 2.87012458 1.93696582 0.75087643 0.52199346 0.81040508
3.46779680 4.38917971 1.55418491 0.66850519 0.79826611 0.65025377
3.04081178 3.64817452 1.54054427 0.58619308 0.66349846 0.64454669
3.10734940 3.28547573 1.95291173 0.59901989 0.59753394 0.81707668
3.33154583 3.17847633 1.94757617 0.64223939 0.57807386 0.81484431
4.48682404 3.21688032 1.89376974 0.86494839 0.58505839 0.79233235
3.62797952 3.00638080 1.93373001 0.69938445 0.54677457 0.80905128
3.86506939 2.88572788 1.93092370 0.74508953 0.52483130 0.80787712
3.45663762 4.43218040 1.56183624 0.66635400 0.80608672 0.65345502
3.02631712 3.67743230 1.54495335 0.58339888 0.66881967 0.64639139
3.79069829 3.88397551 2.02934599 0.73075259 0.70638394 0.84905595
3.07545328 3.29284334 1.94566309 0.59287113 0.59887391 0.81404394
3.30752945 3.19553518 1.94520187 0.63760966 0.58117634 0.81385094
4.44201851 3.22734237 1.88321316 0.85631096 0.58696115 0.78791559
3.58789515 3.01123142 1.92215717 0.69165719 0.54765677 0.80420929
3.82908201 2.89662385 1.92186069 0.73815203 0.52681291 0.80408525
3.44857836 4.47979927 1.57112706 0.66480035 0.81474721 0.65734220
3.00796437 3.70224714 1.54747272 0.57986093 0.67333275 0.64744550
3.81765151 3.94900036 2.05424166 0.73594850 0.71821010 0.85947198
3.05990219 3.30729938 1.94566309 0.58987325 0.60150307 0.81404394
3.27790809 3.19704342 1.93649590 0.63189936 0.58145064 0.81020850
4.42065525 3.24379396 1.88057411 0.85219270 0.58995324 0.78681141
3.58488584 3.03769708 1.92832935 0.69107705 0.55247015 0.80679166
3.81834221 2.91687155 1.92337120 0.73608166 0.53049541 0.80471724
3.47270298 4.55583382 1.59244156 0.66945100 0.82857573 0.66625994
3.00005531 3.72817111 1.55251169 0.57833624 0.67804760 0.64955372
2.69020724 3.57573223 1.74099123 0.51860523 0.65032333 0.72841150
3.03660417 3.32374573 1.94405222 0.58538198 0.60449415 0.81336993
3.25381827 3.21372128 1.93412149 0.62725544 0.58448386 0.80921507
4.37587786 3.25357151 1.87001753 0.84356070 0.59173149 0.78239465
3.56154370 3.05653834 1.92601478 0.68657726 0.55589682 0.80582327
3.82051039 2.95658636 1.93394482 0.73649961 0.53771842 0.80914116
2.96707511 3.73509693 1.54747272 0.57197851 0.67930716 0.64744550
2.70182920 3.63898301 1.76387525 0.52084565 0.66182679 0.73798591
3.01322031 3.34002995 1.94244146 0.58087415 0.60745579 0.81269604
3.23356175 3.23410201 1.93412149 0.62335050 0.58819056 0.80921507
3.89128923 3.25595450 1.79194999 0.75014406 0.59216487 0.74973208
3.54504371 3.08128858 1.92755783 0.68339652 0.56039816 0.80646890
3.79016066 2.97144127 1.92790270 0.73064893 0.54042006 0.80661321
2.96003628 3.77450776 1.55629075 0.57062155 0.68647486 0.65113485
2.67454386 3.64987016 1.76092243 0.51558572 0.66380686 0.73675048
3.00065565 3.36850357 1.94807935 0.57845199 0.61263436 0.81505489
3.20539999 3.24654746 1.92937279 0.61792159 0.59045404 0.80722827
3.84929562 3.26200557 1.78178334 0.74204874 0.59326541 0.74547845
3.52561355 3.10350180 1.92755783 0.67965084 0.56443810 0.80646890
3.73940444 2.96999359 1.91128707 0.72086442 0.54015678 0.79966140
2.61150789 3.61069250 1.73360932 0.50343394 0.65668160 0.72532296
2.96740294 3.37349033 1.94002521 0.57204169 0.61354131 0.81168509
3.18622613 3.26793289 1.93016434 0.61422539 0.59434342 0.80755943
3.80311179 3.26396441 1.76958334 0.73314559 0.59362167 0.74037409
3.49644017 3.11695576 1.92215717 0.67402697 0.56688499 0.80420929
3.71777415 2.99112082 1.90977657 0.71669465 0.54399925 0.79902941
2.62632251 3.68015456 1.75944602 0.50628984 0.66931474 0.73613274
2.93898320 3.38374329 1.93519270 0.56656307 0.61540604 0.80966324
3.15155244 3.27339602 1.92145836 0.60754114 0.59533703 0.80391693
3.74998069 3.25927186 1.75399446 0.72290325 0.59276825 0.73385191
3.46587300 3.12892342 1.91598511 0.66813433 0.56906158 0.80162698
3.70034766 3.01558495 1.91053176 0.71333522 0.54844856 0.79934537
2.60740113 3.70268178 1.76239884 0.50264227 0.67341179 0.73736817
3.89367604 3.91088605 2.01362872 0.75060415 0.71127820 0.84248000
2.91647935 3.40074730 1.93438733 0.56222486 0.61849856 0.80932629
3.12710834 3.28915668 1.91908395 0.60282892 0.59820342 0.80292350
3.72520614 3.27902198 1.75196111 0.71812737 0.59636021 0.73300117
3.44343233 3.14813614 1.91444206 0.66380835 0.57255584 0.80098140
3.67846084 3.03642941 1.90902126 0.70911598 0.55223954 0.79871339
2.89099073 3.40324855 1.92794406 0.55731130 0.61895347 0.80663049
3.10271716 3.29453611 1.91354382 0.59812689 0.59918177 0.80060560
3.67607880 3.26640463 1.73569441 0.70865679 0.59406549 0.72619534
4.12840748 3.30845523 1.81327593 0.79585457 0.60171330 0.75865459
3.40695095 3.14421034 1.90209770 0.65677565 0.57184184 0.79581666
3.64412379 3.03721619 1.89844763 0.70249665 0.55238265 0.79428953
2.77442288 3.62889671 1.74485302 0.53483993 0.65999240 0.73002720
2.86604047 3.41712189 1.92552781 0.55250150 0.62147665 0.80561954
3.07692838 3.30860853 1.91037798 0.59315544 0.60174114 0.79928100
3.64572859 3.28058648 1.73095000 0.70280606 0.59664476 0.72421032
3.39384103 3.17188382 1.90595531 0.65424836 0.57687485 0.79743063
3.64059114 3.07312632 1.90675545 0.70181566 0.55891371 0.79776537
2.75043821 3.64477491 1.74412656 0.53021628 0.66288018 0.72972327
2.84219146 3.43223166 1.92391694 0.54790401 0.62422466 0.80494559
3.05982447 3.33191752 1.91275239 0.58985823 0.60598040 0.80027443
3.60703230 3.28687739 1.72213888 0.69534636 0.59778887 0.72052389
4.07772970 3.35291076 1.80931723 0.78608513 0.60979849 0.75699830
3.36583710 3.18549967 1.90132618 0.64884990 0.57935119 0.79549384
3.60567045 3.08276868 1.89844763 0.69508380 0.56066734 0.79428953
2.70844817 3.63666344 1.73177683 0.52212161 0.66140497 0.72455627
2.81250453 3.44006371 1.91827905 0.54218113 0.62564909 0.80258673
3.03758931 3.34972215 1.91196096 0.58557189 0.60921854 0.79994333
3.56840181 3.29281211 1.71332777 0.68789935 0.59886825 0.71683741
4.04639435 3.37004685 1.80469871 0.78004444 0.61291504 0.75506598
3.34708238 3.20786738 1.90209770 0.64523447 0.58341920 0.79581666
3.59887624 3.11621904 1.90524495 0.69377404 0.56675100 0.79713345
2.63446951 3.58477187 1.69835961 0.50786036 0.65196735 0.71057487
2.78283167 3.44765878 1.91264117 0.53646094 0.62703043 0.80022794
3.00416851 3.35511351 1.90404642 0.57912916 0.61019909 0.79663199
3.53531742 3.30355358 1.70722771 0.68152153 0.60082179 0.71428519
3.30444694 3.20688915 1.88898194 0.63701540 0.58324128 0.79032916
3.55686450 3.11932874 1.89316082 0.68567526 0.56731659 0.79207754
3.84244084 3.79080820 1.60386539 0.74072731 0.68943948 0.67103952
2.68705344 3.69175267 1.74412656 0.51799726 0.67142409 0.72972327
2.75973511 3.45212340 1.90780878 0.53200847 0.62784243 0.79820609
2.99444938 3.37607598 1.90800369 0.57725555 0.61401153 0.79828763
3.50335073 3.30461383 1.69909441 0.67535913 0.60101461 0.71088231
3.29061055 3.22372246 1.88975346 0.63434809 0.58630282 0.79065198
3.54073381 3.13483381 1.89240563 0.68256563 0.57013649 0.79176158
3.71241117 3.69636416 1.55563617 0.71566081 0.67226279 0.65086097
2.73348045 3.46362591 1.90458703 0.52694720 0.62993437 0.79685813
2.95979810 3.37968493 1.89929771 0.57057565 0.61466789 0.79464519
3.47438717 3.31872797 1.69502771 0.66977566 0.60358161 0.70918083
3.83981657 3.31301069 1.73674083 0.74022138 0.60254180 0.72663319
3.26507378 3.23911285 1.88666737 0.62942523 0.58910191 0.78936076
3.51404667 3.15086699 1.88862932 0.67742103 0.57305247 0.79018164
3.69045544 3.72098088 1.55621719 0.71142828 0.67673987 0.65110409
2.70607209 3.47348595 1.90056002 0.52166355 0.63172764 0.79517329
2.93246651 3.39129567 1.89534044 0.56530678 0.61677957 0.79298949
3.43865061 3.32603908 1.68757212 0.66288656 0.60491127 0.70606154
3.77184391 3.29626274 1.71496785 0.72711796 0.59949583 0.71752357
3.24984121 3.26481771 1.88975346 0.62648875 0.59377688 0.79065198
3.47903991 3.15925479 1.88032150 0.67067260 0.57457799 0.78670573
3.65233183 3.72899866 1.54982543 0.70407897 0.67819810 0.64842981
2.68197584 3.48750734 1.89894915 0.51701844 0.63427770 0.79449934
2.91829419 3.41800237 1.90008914 0.56257474 0.62163675 0.79497629
3.71700501 3.29000330 1.69913304 0.71654636 0.59835738 0.71089846
3.21381164 3.26931334 1.88049519 0.61954319 0.59459448 0.78677839
3.47006965 3.19103289 1.88636351 0.66894335 0.58035749 0.78923362
3.62617970 3.74911165 1.54866326 0.69903749 0.68185604 0.64794362
2.66441059 3.51014280 1.90217090 0.51363230 0.63839447 0.79584730
2.89080977 3.42927623 1.89613187 0.55727643 0.62368715 0.79332060
3.69484901 3.31203842 1.69847322 0.71227527 0.60236496 0.71062243
3.20600009 3.30273843 1.88821042 0.61803728 0.60067356 0.79000634
3.42273760 3.18764830 1.87125838 0.65981889 0.57974195 0.78291380
3.57490754 3.74265146 1.53646064 0.68915349 0.68068111 0.64283812
2.63793993 3.52093387 1.89894915 0.50852937 0.64035708 0.79449934
2.86802483 3.44596553 1.89534044 0.55288404 0.62672246 0.79298949
3.17247558 3.30944014 1.88049519 0.61157459 0.60189241 0.78677839
3.42293310 3.22806239 1.88258719 0.65985662 0.58709210 0.78765368
3.55524445 3.76923108 1.53820395 0.68536294 0.68551522 0.64356750
2.62565422 3.53922677 1.90217090 0.50616103 0.64368403 0.79584730
2.84470582 3.45097065 1.89059174 0.54838872 0.62763274 0.79100269
3.16063905 3.32838416 1.88280976 0.60929281 0.60533780 0.78774679
3.37805367 3.21619201 1.86597157 0.65120494 0.58493322 0.78070188
3.52313137 3.77050495 1.53181207 0.67917234 0.68574691 0.64089322
2.59906650 3.54972601 1.89894915 0.50103557 0.64559352 0.79449934
2.82180095 3.46735692 1.88980031 0.54397321 0.63061297 0.79067159
3.55650163 3.30122185 1.66020572 0.68560529 0.60039771 0.69461173
3.13338280 3.34141946 1.87895215 0.60403848 0.60770851 0.78613281
3.36179566 3.24119210 1.86823738 0.64807081 0.58948004 0.78164989
3.48774147 3.77986264 1.52658248 0.67235005 0.68744880 0.63870525
2.76236653 3.64672232 1.70499074 0.53251576 0.66323435 0.71334928
2.58629942 3.57938528 1.90619791 0.49857438 0.65098768 0.79753214
2.78491974 3.46647239 1.87951148 0.53686345 0.63045210 0.78636682
3.54121375 3.32865191 1.66284490 0.68265820 0.60538650 0.69571590
3.10109735 3.34880614 1.87200844 0.59781462 0.60905194 0.78322762
3.31874228 3.24035573 1.85539794 0.63977116 0.58932793 0.77627796
3.45494008 3.79176426 1.52251494 0.66602677 0.68961334 0.63700342
2.37107754 4.10493660 1.84655297 0.45708492 0.74657041 0.77257735
2.75386333 3.68353319 1.71423769 0.53087652 0.66992921 0.71721810
2.55214334 3.57911491 1.89733839 0.49198994 0.65093851 0.79382539
2.66666031 3.36345887 1.81302965 0.51406598 0.61171687 0.75855154
3.51885653 3.34954023 1.66218507 0.67834824 0.60918546 0.69543988
3.09114718 3.38052988 1.87895215 0.59589648 0.61482161 0.78613281
3.31154299 3.27410674 1.86295056 0.63838333 0.59546626 0.77943790
3.40556049 3.78484297 1.51089346 0.65650761 0.68835455 0.63214111
2.34706426 4.12299204 1.84802938 0.45245576 0.74985421 0.77319509
2.71522045 3.67963743 1.70427942 0.52342713 0.66922069 0.71305168
2.52437234 3.58756948 1.89331126 0.48663637 0.65247619 0.79214048
2.67280746 3.41473222 1.83202446 0.51525098 0.62104201 0.76649880
3.47317481 3.34810066 1.65030897 0.66954195 0.60892361 0.69047105
3.05754066 3.38613510 1.87123692 0.58941799 0.61584103 0.78290486
3.28301954 3.28702164 1.85841894 0.63288474 0.59781510 0.77754194
3.37918186 3.80329466 1.50973129 0.65142244 0.69171041 0.63165486
2.32742953 4.14903259 1.85319674 0.44867069 0.75459021 0.77535701
2.49452186 3.59279966 1.88767338 0.48088193 0.65342736 0.78978169
2.71343851 3.51110721 1.87555420 0.52308363 0.63856989 0.78471112
3.43986034 3.35803866 1.64437079 0.66311973 0.61073107 0.68798655
3.03987026 3.40942740 1.87355149 0.58601159 0.62007719 0.78387326
3.26752663 3.31283569 1.86144006 0.62989807 0.60250998 0.77880597
3.35898757 3.82878232 1.51147449 0.64752948 0.69634587 0.63238424
3.75926590 3.86751676 1.54569316 0.72469324 0.70339054 0.64670092
2.30069375 4.14692068 1.84729123 0.44351670 0.75420612 0.77288622
2.49095273 3.62418985 1.89814377 0.48019391 0.65913635 0.79416239
2.69910860 3.52676201 1.87713706 0.52032119 0.64141703 0.78537339
3.40104151 3.35177946 1.63315451 0.65563643 0.60959274 0.68329382
3.01404762 3.41260695 1.86737943 0.58103365 0.62065548 0.78129089
3.22197890 3.29786110 1.84406912 0.62111759 0.59978652 0.77153814
3.34090757 3.84456849 1.51147449 0.64404410 0.69921690 0.63238424
3.70625138 3.84937334 1.53106892 0.71447331 0.70009077 0.64058232
2.27989984 4.17110348 1.85172033 0.43950814 0.75860429 0.77473933
2.48854041 3.67016721 1.91425204 0.47972888 0.66749835 0.80090189
2.67355466 3.53926969 1.87476277 0.51539505 0.64369184 0.78438002
2.98289394 3.42030883 1.86120725 0.57502794 0.62205625 0.77870852
3.20377779 3.32069445 1.84557962 0.61760890 0.60393924 0.77217013
3.34025264 3.89317346 1.52251494 0.64391786 0.70805675 0.63700342
3.71253061 3.90445971 1.54400575 0.71568382 0.71010941 0.64599496
2.25626993 4.19026709 1.85393488 0.43495288 0.76208961 0.77566588
2.82104754 3.61200380 1.66619623 0.54382801 0.65692008 0.69711810
2.45431185 3.66894150 1.90539253 0.47313043 0.66727543 0.79719520
2.64463663 3.54719353 1.87001407 0.50982034 0.64513296 0.78239322
3.97489309 4.45108271 2.11389494 0.76626080 0.80952448 0.88443029
2.95775151 3.43477225 1.85889268 0.57018113 0.62468672 0.77774012
3.17130017 3.32874227 1.83878231 0.61134803 0.60540289 0.76932621
3.31080055 3.90822363 1.52019060 0.63824022 0.71079397 0.63603091
3.67077756 3.90958428 1.53669369 0.70763487 0.71104145 0.64293563
2.24026418 4.22411060 1.86279321 0.43186736 0.76824474 0.77937210
2.76260591 3.58378506 1.64461219 0.53256190 0.65178788 0.68808758
2.41519117 3.65976834 1.89250588 0.46558896 0.66560709 0.79180354
2.62777376 3.57111192 1.87397134 0.50656962 0.64948303 0.78404891
2.92660069 3.44199967 1.85272050 0.56417602 0.62600118 0.77515775
3.62910771 3.91433930 1.52938151 0.69960195 0.71190625 0.63987631
2.20855808 4.22819567 1.85836411 0.42575520 0.76898772 0.77751899
2.79827619 3.67690706 1.68012130 0.53943825 0.66872412 0.70294416
2.38818240 3.66871572 1.88928425 0.46038234 0.66723436 0.79045564
2.59985352 3.58014607 1.87001407 0.50118726 0.65112609 0.78239322
2.90609622 3.46173835 1.85349202 0.56022328 0.62959111 0.77548057
3.54197431 3.86935210 1.50238287 0.68280476 0.70372438 0.62858039
2.19537473 4.25179815 1.86426961 0.42321378 0.77328032 0.77998978
2.75594854 3.65722156 1.66480362 0.53127849 0.66514391 0.69653541
2.36102438 3.66449380 1.88123012 0.45514694 0.66646647 0.78708589
2.58403277 3.59384394 1.87080550 0.49813741 0.65361732 0.78272432
3.55348015 3.91858625 1.51531971 0.68502283 0.71267861 0.63399303
2.16694617 4.26218700 1.86279321 0.41773346 0.77516979 0.77937210
2.40555143 4.19130278 1.84801030 0.46373063 0.76227796 0.77318710
2.33015633 3.66685891 1.87478685 0.44919634 0.66689664 0.78439009
2.55177355 3.59657121 1.86368251 0.49191865 0.65411329 0.77974415
3.52236009 3.93371153 1.51250732 0.67902368 0.71542948 0.63281631
2.13764858 4.27072096 1.86057866 0.41208562 0.77672184 0.77844554
2.39210844 4.22898722 1.85818076 0.46113917 0.76913166 0.77744228
2.31671953 3.69698477 1.88284099 0.44660607 0.67237568 0.78775984
2.54184937 3.63053060 1.87317991 0.49000552 0.66028959 0.78371775
2.77884126 3.42798638 1.80874395 0.53569168 0.62345254 0.75675845
3.46693039 3.92137480 1.49900806 0.66833818 0.71318579 0.62716842
2.12380362 4.31080151 1.87238979 0.40941665 0.78401136 0.78338718
2.36183381 4.23743820 1.85527492 0.45530298 0.77066869 0.77622652
2.28389454 3.69585013 1.87478685 0.44027820 0.67216933 0.78439009
2.50637746 3.62835288 1.86368251 0.48316741 0.65989351 0.77974415
2.57613635 3.21691632 1.68684387 0.49661520 0.58506495 0.70575684
3.44349122 3.94452167 1.49957049 0.66381967 0.71739554 0.62740374
2.10391140 4.33914423 1.87903357 0.40558192 0.78916609 0.78616685
2.33787394 4.25708294 1.85745430 0.45068410 0.77424151 0.77713835
2.27008009 3.72580481 1.88284099 0.43761513 0.67761719 0.78775984
2.48873758 3.65159416 1.86763966 0.47976688 0.66412044 0.78139979
4.03335714 4.42988300 2.05805635 0.77753121 0.80566889 0.86106801
2.66390419 3.37108707 1.76013827 0.51353467 0.61310422 0.73642242
3.17715836 4.09056282 1.53762281 0.61247730 0.74395627 0.64332438
3.41234565 3.95883536 1.49675810 0.65781558 0.71999878 0.62622702
2.07739973 4.35395861 1.87977171 0.40047115 0.79186040 0.78647572
2.30929303 4.26841784 1.85600138 0.44517443 0.77630299 0.77653044
2.24101329 3.73055243 1.87800848 0.43201178 0.67848068 0.78573799
2.47090435 3.67475653 1.87159693 0.47632906 0.66833299 0.78305548
2.65056658 3.39797997 1.76553881 0.51096350 0.61799526 0.73868191
3.14328504 4.09978151 1.53355527 0.60594738 0.74563289 0.64162254
3.39490199 3.98893785 1.50013304 0.65445292 0.72547358 0.62763906
2.05921555 4.36875391 1.88198626 0.39696568 0.79455125 0.78740227
2.29181051 4.28417110 1.85818076 0.44180423 0.77916807 0.77744228
2.22340870 3.74107170 1.87800848 0.42861804 0.68039382 0.78573799
2.43716478 3.66197014 1.85893381 0.46982491 0.66600752 0.77775735
2.87399602 3.57913351 1.61776102 0.55403513 0.65094191 0.67685330
2.61770773 3.38844943 1.75396609 0.50462914 0.61626190 0.73384005
3.14234996 4.13900805 1.54285252 0.60576713 0.75276703 0.64551246
3.38973665 4.02098036 1.50632024 0.65345716 0.73130119 0.63022774
2.04102325 4.40188122 1.89084458 0.39345866 0.80057615 0.79110849
2.27710438 4.32151508 1.86835122 0.43896925 0.78595984 0.78169751
2.19710517 3.75021625 1.87559223 0.42354739 0.68205696 0.78472704
2.42425919 3.69251847 1.86684823 0.46733704 0.67156339 0.78106868
2.86191225 3.61043811 1.62386096 0.55170572 0.65663528 0.67940545
2.59191847 3.39893985 1.75088000 0.49965760 0.61816984 0.73254883
3.38660860 4.06866646 1.51644468 0.65285414 0.73997390 0.63446367
2.01408958 4.41631269 1.89158285 0.38826650 0.80320084 0.79141736
2.25163698 4.33903790 1.86980414 0.43405977 0.78914678 0.78230536
2.17531466 3.76712608 1.87720311 0.41934672 0.68513238 0.78540105
2.39799428 3.70306635 1.86447394 0.46227381 0.67348176 0.78007531
2.84032369 3.62983561 1.62453878 0.54754394 0.66016316 0.67968905
2.58925581 3.44031000 1.76399577 0.49914429 0.62569386 0.73803633
3.81548691 4.56487942 2.39012051 0.73553121 0.83022088 1.00000000
3.35240793 4.07951784 1.51250732 0.64626110 0.74194747 0.63281631
1.99232960 4.44247389 1.89748836 0.38407174 0.80795878 0.79388815
2.23373222 4.37131310 1.87779522 0.43060815 0.79501671 0.78564876
2.15160251 3.78071952 1.87720311 0.41477558 0.68760461 0.78540105
2.36970115 3.71034312 1.86051667 0.45681959 0.67480516 0.77841961
2.57524180 3.46691585 1.76939642 0.49644274 0.63053274 0.74029589
3.77726102 4.57736778 2.38407850 0.72816223 0.83249211 0.99747211
3.31820512 4.09010077 1.50857008 0.63966763 0.74387223 0.63116902
1.97329175 4.47535133 1.90634668 0.38040170 0.81393826 0.79759437
2.21297741 4.39855051 1.88360691 0.42660716 0.79997039 0.78808033
2.12958097 3.79736543 1.87881386 0.41053039 0.69063205 0.78607494
2.35225797 3.73445678 1.86526537 0.45345700 0.67919075 0.78040642
2.60435295 3.55321145 1.80565786 0.50205463 0.64622742 0.75546730
3.75429940 4.60816956 2.38785481 0.72373581 0.83809412 0.99905205
3.29485202 4.11385536 1.50969505 0.63516575 0.74819249 0.63163972
1.94147289 4.47911882 1.90265572 0.37426782 0.81462348 0.79605013
2.19030023 4.42236662 1.88796556 0.42223555 0.80430186 0.78990394
2.47114038 4.24650335 1.83373702 0.47637457 0.77231735 0.76721531
2.10655761 3.81227732 1.87961936 0.40609205 0.69334406 0.78641194
2.32679486 3.74605107 1.86368251 0.44854835 0.68129945 0.77974415
2.61421204 3.61450601 1.82880342 0.50395525 0.65737516 0.76515114
3.71478105 4.61871529 2.38105750 0.71611762 0.84001207 0.99620813
3.29525471 4.16749716 1.52206945 0.63524336 0.75794840 0.63681704
1.93265307 4.51732111 1.91520500 0.37256756 0.82157135 0.80130059
2.17274022 4.43932009 1.89087141 0.41885042 0.80738521 0.79111969
2.07464409 3.79639316 1.86673272 0.39993992 0.69045520 0.78102034
2.31299210 3.76321554 1.86684823 0.44588751 0.68442118 0.78106868
2.96554303 3.58960462 1.59158802 0.57168311 0.65284628 0.66590285
2.58113837 3.60420871 1.81723058 0.49757946 0.65550238 0.76030916
2.68481708 3.37939930 1.72398305 0.51756614 0.61461598 0.72129548
3.31125164 4.22817612 1.53894353 0.63832718 0.76898420 0.64387697
1.90494525 4.53109169 1.91594326 0.36722618 0.82407582 0.80160946
2.15051317 4.46461248 1.89595664 0.41456559 0.81198519 0.79324728
2.48198152 4.37608528 1.87854922 0.47846448 0.79588461 0.78596425
2.05935168 3.82551336 1.87478685 0.39699191 0.69575137 0.78439009
2.28738332 3.77454138 1.86526537 0.44095075 0.68648100 0.78040642
2.93573236 3.59941936 1.58762932 0.56593639 0.65463132 0.66424656
2.55949974 3.62186694 1.81800210 0.49340805 0.65871388 0.76063198
2.66812968 3.40200901 1.72700405 0.51434922 0.61872804 0.72255939
3.27990174 4.24284172 1.53669369 0.63228369 0.77165145 0.64293563
1.87995064 4.55157566 1.91963422 0.36240786 0.82780129 0.80315375
2.11919904 4.47131395 1.89305079 0.40852901 0.81320399 0.79203153
2.42093945 4.33108473 1.85223091 0.46669707 0.78770030 0.77495295
2.02847481 3.82540631 1.86834359 0.39103964 0.69573188 0.78169429
2.25602794 3.77625966 1.85893381 0.43490621 0.68679351 0.77775735
2.91186810 3.61632872 1.58696949 0.56133592 0.65770662 0.66397047
2.55661321 3.66672659 1.83266103 0.49285161 0.66687256 0.76676512
2.64784241 3.42016506 1.72775936 0.51043832 0.62203008 0.72287542
3.27072930 4.28618670 1.54513073 0.63051546 0.77953464 0.64646560
1.84854865 4.55639696 1.91668141 0.35635433 0.82867813 0.80191833
2.09344649 4.48959780 1.89523017 0.40356454 0.81652927 0.79294336
2.40889454 4.37410784 1.86432314 0.46437511 0.79552495 0.78001219
2.00691867 3.84295607 1.87075984 0.38688415 0.69892365 0.78270525
2.23413539 3.79351664 1.86051667 0.43068588 0.68993205 0.77841961
2.91035223 3.66106367 1.59884560 0.56104374 0.66584265 0.66893935
2.43171239 3.53327322 1.75705218 0.46877384 0.64260125 0.73513120
2.64440250 3.46019268 1.73984349 0.50977522 0.62930995 0.72793126
3.25301790 4.31888199 1.54963052 0.62710118 0.78548098 0.64834827
1.83894634 4.61635065 1.93735087 0.35450324 0.83958203 0.81056619
2.07303429 4.51956797 1.90249479 0.39962959 0.82198000 0.79598278
2.37694049 4.38092375 1.86076653 0.45821518 0.79676461 0.77852416
1.98356271 3.85712171 1.87156522 0.38238168 0.70150000 0.78304219
2.20653820 3.80114245 1.85735083 0.42536584 0.69131899 0.77709508
2.50827646 3.69550061 1.83111799 0.48353347 0.67210573 0.76611954
2.63270855 3.48999858 1.74664080 0.50752091 0.63473082 0.73077518
3.23732591 4.35459566 1.55525529 0.62407613 0.79197627 0.65070164
1.81124473 4.63128185 1.93882728 0.34916306 0.84229755 0.81118393
2.05310106 4.55115366 1.91048586 0.39578697 0.82772452 0.79932618
2.34674454 4.39081573 1.85863268 0.45239413 0.79856366 0.77763134
1.95765007 3.86623454 1.86995435 0.37738636 0.70315737 0.78236824
2.18628955 3.82129145 1.86051667 0.42146239 0.69498348 0.77841961
2.48704696 3.71426344 1.83266103 0.47944096 0.67551816 0.76676512
2.60516429 3.49907017 1.74286449 0.50221103 0.63638067 0.72919524
3.25554824 4.43657684 1.57775414 0.62758893 0.80688632 0.66011488
1.79337084 4.65018749 1.94325638 0.34571740 0.84573597 0.81303698
2.03545737 4.56927347 1.91411817 0.39238569 0.83102000 0.80084586
2.32949352 4.40845060 1.86147785 0.44906858 0.80177093 0.77882177
1.93453979 3.86557102 1.86512196 0.37293130 0.70303667 0.78034639
2.16278601 3.82198548 1.85576797 0.41693148 0.69510972 0.77643281
2.64283395 3.58409619 1.77987218 0.50947285 0.65184450 0.74467885
3.22099853 4.43328667 1.57100439 0.62092865 0.80628788 0.65729088
1.77257836 4.68399811 1.95285296 0.34170914 0.85188514 0.81705207
2.00746226 4.58367586 1.91484463 0.38698894 0.83363938 0.80114985
2.30945373 4.43795490 1.86787963 0.44520539 0.80713695 0.78150016
1.91822612 3.89410973 1.87317598 0.36978641 0.70822704 0.78371614
2.14504290 3.84669948 1.86130810 0.41351107 0.69960451 0.77875072
2.65644717 3.64987969 1.80479562 0.51209712 0.66380858 0.75510657
1.74759221 4.70725918 1.95802033 0.33689243 0.85611564 0.81921405
1.98754787 4.61670113 1.92356217 0.38314992 0.83964574 0.80479717
2.28744364 4.46404696 1.87285876 0.44096240 0.81188232 0.78358340
1.89530277 3.90938735 1.87478685 0.36536735 0.71100563 0.78439009
2.11458802 3.84886146 1.85576797 0.40764013 0.69999766 0.77643281
2.63020062 3.66200089 1.80252993 0.50703746 0.66601312 0.75415862
1.72489917 4.73738766 1.96614051 0.33251777 0.86159515 0.82261145
1.96949637 4.65479565 1.93445909 0.37967005 0.84657407 0.80935627
2.26603174 4.49170923 1.87854922 0.43683472 0.81691331 0.78596425
1.87460470 3.92949843 1.87881386 0.36137730 0.71466327 0.78607494
2.09212685 3.86529422 1.85735083 0.40331015 0.70298636 0.77709508
2.54355741 3.58959699 1.75796962 0.49033478 0.65284491 0.73551506
1.70004261 4.76215649 1.97204602 0.32772604 0.86609989 0.82508224
1.93732178 4.66020727 1.93155324 0.37346759 0.84755826 0.80814052
2.23694015 4.50418091 1.87783790 0.43122658 0.81918156 0.78566664
2.55392504 4.53601122 1.89735377 0.49233341 0.82497054 0.79383183
1.85295844 3.94784236 1.88203549 0.35720444 0.71799946 0.78742284
2.07041430 3.88321328 1.85972524 0.39912453 0.70624530 0.77808851
2.58931708 3.70232677 1.80630612 0.49915612 0.67334723 0.75573850
1.67797697 4.79558420 1.98164248 0.32347235 0.87217945 0.82909733
1.92578828 4.71534395 1.94971466 0.37124422 0.85758603 0.81573904
2.21755075 4.53665638 1.88566232 0.42748877 0.82508790 0.78894025
2.52171016 4.54542494 1.89456868 0.48612317 0.82668263 0.79266661
1.82583809 3.95441008 1.87961936 0.35197631 0.71919394 0.78641194
2.04511309 3.89452314 1.85893381 0.39424708 0.70830226 0.77775735
2.35800719 3.81268883 1.83806169 0.45456529 0.69341892 0.76902467
2.56494522 3.71700335 1.80555093 0.49445781 0.67601645 0.75542253
1.66433847 4.82983446 1.99271548 0.32084316 0.87840861 0.83373010
1.90917277 4.73817158 1.95552635 0.36804116 0.86173773 0.81817061
2.20662808 4.56897974 1.89490926 0.42538315 0.83096659 0.79280907
2.50207901 4.56053782 1.89596117 0.48233876 0.82943124 0.79324919
1.80793488 3.96463943 1.88042474 0.34852499 0.72105438 0.78674895
2.03527594 3.92037964 1.86684823 0.39235070 0.71300483 0.78106868
2.34479403 3.83164930 1.84191930 0.45201814 0.69686729 0.77063870
1.63807166 4.85254097 1.99788284 0.31577960 0.88253826 0.83589208
1.88351917 4.76045322 1.95988512 0.36309579 0.86579013 0.81999427
2.17230797 4.57091379 1.88993013 0.41876709 0.83131832 0.79072589
2.44194794 4.51856279 1.87159216 0.47074699 0.82179719 0.78305346
1.77928245 3.96755123 1.87639761 0.34300151 0.72158396 0.78506404
1.99795008 3.90861654 1.85497653 0.38515523 0.71086544 0.77610165
2.32067299 3.84630656 1.84191930 0.44736817 0.69953305 0.77063870
1.61619639 4.88924456 2.00895572 0.31156257 0.88921356 0.84052485
1.85834217 4.78433371 1.96497035 0.35824227 0.87013328 0.82212186
2.15060949 4.59974051 1.89633191 0.41458416 0.83656108 0.79340428
2.42238450 4.55033159 1.87855482 0.46697566 0.82757503 0.78596658
1.75870311 3.98872352 1.88123012 0.33903435 0.72543460 0.78708589
1.98335171 3.94073486 1.86447394 0.38234103 0.71670681 0.78007531
2.29458809 3.85763144 1.84037626 0.44233966 0.70159268 0.76999307
1.59505486 4.92940521 2.02150512 0.30748701 0.89651763 0.84577543
1.82690358 4.79243851 1.96351743 0.35218170 0.87160736 0.82151401
2.12476325 4.61996746 1.89917707 0.40960166 0.84023982 0.79459471
2.40339518 4.58368921 1.88621366 0.46331498 0.83364183 0.78917092
1.72784519 3.98623061 1.87478685 0.33308569 0.72498119 0.78439009
1.95196843 3.93998241 1.85814226 0.37629110 0.71656996 0.77742618
2.27123094 3.87356853 1.84114778 0.43783697 0.70449120 0.77031589
1.58566368 5.00852585 2.05029464 0.30567664 0.91090745 0.85782063
1.81720698 4.85784674 1.98603761 0.35031244 0.88350320 0.83093619
2.10027456 4.64346361 1.90344489 0.40488085 0.84451306 0.79638028
2.36674714 4.58373690 1.87994730 0.45625013 0.83365047 0.78654915
1.70986092 4.01388359 1.88284099 0.32961878 0.73001051 0.78775984
1.92392385 3.94558048 1.85497653 0.37088481 0.71758813 0.77610165
2.24867988 3.89096594 1.84269071 0.43348971 0.70765531 0.77096140
1.78275597 4.85868740 1.98167896 0.34367114 0.88365614 0.82911259
2.07933831 4.67538881 1.91126931 0.40084484 0.85031933 0.79965395
2.34303761 4.60852480 1.88412488 0.45167953 0.83815873 0.78829700
1.68390846 4.02285576 1.88203549 0.32461578 0.73164225 0.78742284
1.90471125 3.96915674 1.86051667 0.36718109 0.72187597 0.77841961
2.22690606 3.90984035 1.84500527 0.42929226 0.71108800 0.77192980
1.76624537 4.88453341 1.98894346 0.34048828 0.88835675 0.83215195
2.06100678 4.69370794 1.91482580 0.39731097 0.85365111 0.80114192
2.33232403 4.64125013 1.89317620 0.44961423 0.84411049 0.79208398
1.66493249 4.03074598 1.88203549 0.32095769 0.73307729 0.78742284
1.88678038 3.97974443 1.86130810 0.36372447 0.72380155 0.77875072
2.20216799 3.90900898 1.83960474 0.42452335 0.71093678 0.76967031
2.04395175 4.73578978 1.92691803 0.39402321 0.86130458 0.80620122
2.31736040 4.68432617 1.90501261 0.44672960 0.85194480 0.79703623
1.64365590 4.05132484 1.88686800 0.31685609 0.73681998 0.78944468
1.86644232 4.00148678 1.86605680 0.35980380 0.72775584 0.78073752
2.17845178 3.92438555 1.84037626 0.41995147 0.71373338 0.76999307
2.02066398 4.76405239 1.93331969 0.38953391 0.86644471 0.80887961
2.29450083 4.71225405 1.91058266 0.44232285 0.85702407 0.79936665
1.62754333 4.08542538 1.89814377 0.31374997 0.74302191 0.79416239
1.84590530 4.02312994 1.87080550 0.35584477 0.73169214 0.78272432
2.65409064 4.64786530 1.89226127 0.51164281 0.84531361 0.79170120
2.16604424 3.96071625 1.85117745 0.41755959 0.72034085 0.77451217
1.98997855 4.77492619 1.93260837 0.38361850 0.86842233 0.80858195
2.26648140 4.72995281 1.91197515 0.43692139 0.86024296 0.79994929
1.59657049 4.08190727 1.89170051 0.30777919 0.74238205 0.79146659
1.81372273 4.01961231 1.86368251 0.34964076 0.73105240 0.77974415
2.63858342 4.68909979 1.90242791 0.50865346 0.85281301 0.79595482
2.14198351 3.97587585 1.85194898 0.41292128 0.72309798 0.77483499
1.97466719 4.82372093 1.94754589 0.38066685 0.87729675 0.81483167
2.24074817 4.75256395 1.91545641 0.43196067 0.86435533 0.80140579
1.57672536 4.10726643 1.89894915 0.30395353 0.74699414 0.79449934
1.79671001 4.04935884 1.87238836 0.34636113 0.73646241 0.78338659
2.59819436 4.68579721 1.89429462 0.50086743 0.85221237 0.79255193
2.12124825 3.99742484 1.85580659 0.40892404 0.72701710 0.77644897
2.34778595 3.93352151 1.83198500 0.45259491 0.71539491 0.76648229
1.94984412 4.84992886 1.95323622 0.37588158 0.88206321 0.81721246
2.23232055 4.81238937 1.93425536 0.43033603 0.87523586 0.80927104
1.55216253 4.12052441 1.90056002 0.29921845 0.74940538 0.79517329
1.77197397 4.06224823 1.87317991 0.34159264 0.73880666 0.78371775
2.56063914 4.68713665 1.88819456 0.49362770 0.85245597 0.78999972
2.09015870 3.99919987 1.85040593 0.40293077 0.72733992 0.77418941
2.32586336 3.95297122 1.83425069 0.44836876 0.71893227 0.76743019
1.93379092 4.87646580 1.96034932 0.37278691 0.88688952 0.82018846
2.19780612 4.79733276 1.92381155 0.42368251 0.87249744 0.80490148
1.53461576 4.13295031 1.90297627 0.29583585 0.75166529 0.79618424
1.75060892 4.06550217 1.87080550 0.33747399 0.73939842 0.78272432
2.53941131 4.70081043 1.88887239 0.48953551 0.85494280 0.79028332
2.07296896 4.01229143 1.85194898 0.39961699 0.72972095 0.77483499
2.31096458 3.97027326 1.83727169 0.44549665 0.72207904 0.76869416
1.91251230 4.91294336 1.97030759 0.36868495 0.89352375 0.82435489
2.17771840 4.83323050 1.93286288 0.41981009 0.87902623 0.80868846
1.51294708 4.15457201 1.90861416 0.29165867 0.75559771 0.79854310
1.72864807 4.08486223 1.87476277 0.33324048 0.74291950 0.78438002
2.50017190 4.69836378 1.88141680 0.48197111 0.85449785 0.78716397
2.04937673 4.02853394 1.85349202 0.39506900 0.73267496 0.77548057
2.28040123 3.97510147 1.83274019 0.43960479 0.72295713 0.76679826
1.88887024 4.94409847 1.97813201 0.36412734 0.89918995 0.82762855
1.49167466 4.17781115 1.91505742 0.28755787 0.75982422 0.80123883
1.69795763 4.08379412 1.86922264 0.32732412 0.74272519 0.78206211
2.47493744 4.72233009 1.88480568 0.47710654 0.85885662 0.78858185
2.02729988 4.04794502 1.85657811 0.39081314 0.73620528 0.77677178
2.25354290 3.98613501 1.83122969 0.43442717 0.72496384 0.76616627
1.87140560 4.99267769 1.99306941 0.36076057 0.90802509 0.83387822
1.47196019 4.20613813 1.92391694 0.28375742 0.76497608 0.80494559
1.68560863 4.12662840 1.88426018 0.32494354 0.75051552 0.78835362
2.45977974 4.76626825 1.89632797 0.47418451 0.86684769 0.79340267
2.01071906 4.07884789 1.86506486 0.38761675 0.74182564 0.78032249
2.23390365 4.00989866 1.83576119 0.43064120 0.72928578 0.76806217
1.85021281 5.03244734 2.00445032 0.35667515 0.91525805 0.83863986
1.66033876 4.13883924 1.88505161 0.32007211 0.75273633 0.78868479
2.73628902 4.76242876 1.88387299 0.52748865 0.86614943 0.78819162
1.99382961 4.10970211 1.87355149 0.38436088 0.74743712 0.78387326
2.22393537 4.05138636 1.84860063 0.42871958 0.73683119 0.77343404
1.83361220 5.08623314 2.02152157 0.35347494 0.92504019 0.84578228
1.47591484 4.39636612 2.00365281 0.28451976 0.79957312 0.83830619
1.63770568 4.15771914 1.88900888 0.31570902 0.75617003 0.79034042
2.40804720 4.81366158 1.90310574 0.46421176 0.87546718 0.79623842
2.72878456 4.81887484 1.89970779 0.52604198 0.87641537 0.79481673
1.96324301 4.11213636 1.86892235 0.37846455 0.74787986 0.78193647
2.19843602 4.06527948 1.84860063 0.42380393 0.73935795 0.77343404
1.81952775 5.12303734 2.03290248 0.35075980 0.93173379 0.85054392
2.08475661 5.02053928 1.98299348 0.40188935 0.91309232 0.82966256
1.45178032 4.39282799 1.99882030 0.27986723 0.79892963 0.83628434
1.61876762 4.16709948 1.88980031 0.31205824 0.75787610 0.79067159
2.39692187 4.84861469 1.91259456 0.46206707 0.88182420 0.80020845
2.71533227 4.84811926 1.90630567 0.52344871 0.88173407 0.79757720
1.95631814 4.14810038 1.88126671 0.37712961 0.75442070 0.78710121
2.17045045 4.05930185 1.84104800 0.41840902 0.73827076 0.77027416
1.80858004 5.19623518 2.05779815 0.34864938 0.94504637 0.86096001
1.42859769 4.41581678 2.00526357 0.27539819 0.80311066 0.83898014
1.59387743 4.18061447 1.89138317 0.30726004 0.76033407 0.79133379
2.37948036 4.89070034 1.92343903 0.45870480 0.88947833 0.80474561
2.69032693 4.87498236 1.91026437 0.51862830 0.88661969 0.79923350
1.92175579 4.14186049 1.87277997 0.37046686 0.75328583 0.78355044
2.15882492 4.09901476 1.85313213 0.41616789 0.74549341 0.77533001
1.79558992 5.26595259 2.08127117 0.34614521 0.95772600 0.87078083
2.06794834 5.16103649 2.02894640 0.39864916 0.93864477 0.84888875
1.40245903 4.42994881 2.00767970 0.27035931 0.80568087 0.83999097
1.56757855 4.19054651 1.89138317 0.30219027 0.76214039 0.79133379
2.35515404 4.91915607 1.92886126 0.45401528 0.89465362 0.80701423
2.64965677 4.87357998 1.90300679 0.51078808 0.88636464 0.79619700
1.90252137 4.16899157 1.87972367 0.36675894 0.75822020 0.78645563
2.13474751 4.11577845 1.85464263 0.41152638 0.74854225 0.77596200
1.78179443 5.33570957 2.10474443 0.34348577 0.97041279 0.88060182
2.05764890 5.22967815 2.05122662 0.39666367 0.95112872 0.85821056
1.38634300 4.47719669 2.02539897 0.26725253 0.81427389 0.84740454
1.55402851 4.23474169 1.90721226 0.29957816 0.77017826 0.79795653
2.33374619 4.95431948 1.93699467 0.44988838 0.90104884 0.81041718
2.63424015 4.91837072 1.91422307 0.50781614 0.89451081 0.80088979
1.88227355 4.19435740 1.88589585 0.36285564 0.76283354 0.78903800
2.10969472 4.13075590 1.85539794 0.40669683 0.75126624 0.77627796
2.01656771 5.22154522 2.04287148 0.38874424 0.94964957 0.85471487
1.37700856 4.54897738 2.05439377 0.26545310 0.82732874 0.85953563
2.31434321 4.99453735 1.94716132 0.44614798 0.90836334 0.81467080
2.61925173 4.96482563 1.92609930 0.50492674 0.90295964 0.80585867
1.85735750 4.20948410 1.88743889 0.35805246 0.76558465 0.78968358
2.08034229 4.13732624 1.85237694 0.40103838 0.75246119 0.77501404
1.99328661 5.23448944 2.04426408 0.38425621 0.95200378 0.85529751
1.35812986 4.56419992 2.05842066 0.26181376 0.83009726 0.86122048
1.53845060 4.33799124 1.94678473 0.29657513 0.78895640 0.81451321
2.29233479 5.00881577 1.94851685 0.44190529 0.91096020 0.81523794
2.60022211 4.98546743 1.92939818 0.50125831 0.90671378 0.80723888
1.84260619 4.23005438 1.89283955 0.35520875 0.76932579 0.79194313
2.07079935 4.16694117 1.86144006 0.39919874 0.75784731 0.77880597
1.96897161 5.26971102 2.05331540 0.37956887 0.95840955 0.85908449
1.33546829 4.59376383 2.06808567 0.25744516 0.83547413 0.86526418
1.51666033 4.36316204 1.95390785 0.29237449 0.79353422 0.81749344
2.29988146 5.11077404 1.98308361 0.44336009 0.92950344 0.82970023
2.58361340 5.03020477 1.94061458 0.49805659 0.91485023 0.81193167
1.82533562 4.26364136 1.90286922 0.35187942 0.77543426 0.79613948
2.04621911 4.18319035 1.86295056 0.39446029 0.76080257 0.77943790
1.93451929 5.27846241 2.05192304 0.37292734 0.96000117 0.85850191
1.30953360 4.61264277 2.07291818 0.25244561 0.83890766 0.86728603
1.50361133 4.41427040 1.97290266 0.28985897 0.80282938 0.82544065
2.26621413 5.12167692 1.98172808 0.43686986 0.93148637 0.82913309
2.56225395 5.06651974 1.94853199 0.49393901 0.92145485 0.81524426
1.79497015 4.26650620 1.89901161 0.34602574 0.77595532 0.79452544
2.02475834 4.20595503 1.86748207 0.39032319 0.76494277 0.78133386
1.91988957 5.34161425 2.07211447 0.37010708 0.97148669 0.86694980
1.28293288 4.62961102 2.07694530 0.24731764 0.84199369 0.86897093
1.49292374 4.47408438 1.99585462 0.28779867 0.81370783 0.83504349
2.23250055 5.13235807 1.98037243 0.43037072 0.93342900 0.82856596
2.53799725 5.09770298 1.95447004 0.48926291 0.92712623 0.81772864
1.77858794 4.30332518 1.91058445 0.34286764 0.78265160 0.79936743
2.00149202 4.22527456 1.87050307 0.38583800 0.76845646 0.78259778
1.93789971 5.49839163 2.12920761 0.37357900 1.00000000 0.89083695
1.46998441 4.49906731 2.00297761 0.28337654 0.81825149 0.83802366
2.20460963 5.15668106 1.98443913 0.42499405 0.93785262 0.83026737
2.51261258 5.12708855 1.95974839 0.48436937 0.93247062 0.81993705
1.76181340 4.34010601 1.92215717 0.33963391 0.78934103 0.80420929
1.97964180 4.24781752 1.87503469 0.38162583 0.77255636 0.78449380
1.24485934 4.72334099 2.11238337 0.23997800 0.85904050 0.88379782
1.45642841 4.55363750 2.02355552 0.28076327 0.82817626 0.84663326
2.17866850 5.18606758 1.99053919 0.41999325 0.94319719 0.83281958
2.48530626 5.15296030 1.96370709 0.47910541 0.93717593 0.82159334
1.73450923 4.35108995 1.92215717 0.33437034 0.79133868 0.80420929
1.96070325 4.27697325 1.88258719 0.37797496 0.77785897 0.78765368
1.23475945 4.77706051 2.13412952 0.23803100 0.86881053 0.89289618
1.43942368 4.57444763 2.02988696 0.27748519 0.83196104 0.84928226
2.15349126 5.19453621 1.98986137 0.41513970 0.94473737 0.83253598
2.45445013 5.15100241 1.95842874 0.47315711 0.93681985 0.81938493
1.71799231 4.36953640 1.92678630 0.33118629 0.79469353 0.80614609
1.94129789 4.28784895 1.88334250 0.37423408 0.77983695 0.78796971
1.21966851 4.84514475 2.16151357 0.23512183 0.88119310 0.90435338
1.41777384 4.60619259 2.04017591 0.27331161 0.83773452 0.85358703
2.12714100 5.22367144 1.99596131 0.41006002 0.95003629 0.83508813
2.42930484 5.18168211 1.96436679 0.46830970 0.94239962 0.82186937
1.69247472 4.38541746 1.92910087 0.32626715 0.79758185 0.80711448
1.92420483 4.32191324 1.89316082 0.37093896 0.78603226 0.79207754
1.39417148 4.63257551 2.04809046 0.26876166 0.84253281 0.85689843
2.09635520 5.24218225 1.99799466 0.40412527 0.95340288 0.83593887
2.39430928 5.19170856 1.96238744 0.46156344 0.94422311 0.82104123
1.67328584 4.41843414 1.93913066 0.32256800 0.80358666 0.81131083
1.89326227 4.32545137 1.88938451 0.36497399 0.78667575 0.79049760
1.38501179 4.70812035 2.07816553 0.26699591 0.85627228 0.86948150
2.06814599 5.26752853 2.00273919 0.39868724 0.95801264 0.83792394
2.36242795 5.20836639 1.96304727 0.45541751 0.94725269 0.82131726
1.65374863 4.45138168 1.94916034 0.31880170 0.80957890 0.81550711
1.87491810 4.35763741 1.89844763 0.36143771 0.79252946 0.79428953
1.35025680 4.69909811 2.07025099 0.26029602 0.85463142 0.86617011
2.03433824 5.27866077 2.00206137 0.39216995 0.96003723 0.83764035
2.32655549 5.21622086 1.96040809 0.44850218 0.94868124 0.82021308
