-19.47796440 7.96025801 1.70385158 -0.99436760 1.00000000 0.81657481
-19.00042534 7.62672091 1.65413773 -0.96998882 0.95809972 0.79274929
-18.20424652 7.17562771 1.57477009 -0.92934316 0.90143156 0.75471216
-17.50590515 6.80609989 1.50604296 -0.89369220 0.85500997 0.72177458
-19.19145775 7.62921047 0.96240962 -0.97974122 0.95841247 0.46123701
-17.06227875 6.51111460 1.46051562 -0.87104470 0.81795269 0.69995546
-16.69032288 6.24984264 1.42196560 -0.85205603 0.78513068 0.68148029
-16.56274414 6.08390284 1.40644097 -0.84554303 0.76428461 0.67404008
-17.91239166 6.73420000 0.88163799 -0.91444373 0.84597760 0.42252705
-16.45437431 5.92721939 1.39283514 -0.84001064 0.74460143 0.66751945
-19.06668472 7.67626619 1.55623651 -0.97337145 0.96432382 0.74582994
-16.81447792 6.23872185 2.04999685 -0.85839427 0.78373361 0.98246568
-16.45182228 5.80983067 1.38917196 -0.83988035 0.72985458 0.66576385
-18.18622398 7.18827343 1.47390676 -0.92842311 0.90302014 0.70637321
-18.45291519 6.70621443 0.90813619 -0.94203794 0.84246194 0.43522635
-16.50913811 5.74267721 1.39196301 -0.84280634 0.72141850 0.66710150
-17.55160332 6.84117842 1.41474771 -0.89602518 0.85941666 0.67802107
-16.50527573 5.62538338 1.38829982 -0.84260917 0.70668358 0.66534591
-17.13832283 6.55578566 1.37448668 -0.87492681 0.82356447 0.65872592
-16.56676292 5.53036880 1.39074194 -0.84574819 0.69474745 0.66651630
-16.85833549 6.32714510 1.34622180 -0.86063319 0.79484171 0.64517993
-16.58981705 5.42246771 1.38969529 -0.84692508 0.68119246 0.66601467
-16.67900085 6.14027834 1.32699513 -0.85147804 0.77136678 0.63596547
-16.66798019 6.27271271 1.93429863 -0.85091537 0.78800368 0.92701709
-18.45189095 6.96839190 0.80223030 -0.94198567 0.87539774 0.38447073
-16.65773010 5.32901192 1.39283514 -0.85039210 0.66945213 0.66751945
-16.58419609 5.98715162 1.31532764 -0.84663814 0.75213033 0.63037378
-18.92619324 7.61213446 1.42935872 -0.96619922 0.95626730 0.68502349
-16.61392021 6.13335466 1.92273629 -0.84815556 0.77049696 0.92147577
-18.01593018 6.67415047 0.77785105 -0.91972947 0.83843392 0.37278691
-16.72322083 5.23432350 1.39580047 -0.85373551 0.65755701 0.66894060
-16.61585236 5.88083124 1.31483459 -0.84825420 0.73877394 0.63013750
-18.19064522 7.18474722 1.36469209 -0.92864883 0.90257716 0.65403181
-16.45229721 5.98549700 1.89914894 -0.83990461 0.75192249 0.91017151
-16.77817917 5.16480303 1.39859140 -0.85654116 0.64882356 0.67027813
-16.64149857 5.80180740 1.31467032 -0.84956348 0.72884667 0.63005877
-17.62016678 6.86433983 1.31488967 -0.89952540 0.86232632 0.63016391
-16.36426735 5.83714247 1.88365543 -0.83541059 0.73328561 0.90274620
-16.84465218 5.06957674 1.40173125 -0.85993469 0.63686085 0.67178291
-16.67008209 5.69454575 1.31401289 -0.85102272 0.71537203 0.62974370
-17.23809814 6.59157515 1.27995133 -0.88002044 0.82806051 0.61341965
-16.38937378 5.73026133 1.88226795 -0.83669227 0.71985877 0.90208125
-18.41391373 5.69421911 0.88898087 -0.94004691 0.71533096 0.42604613
-16.92397308 4.97763872 1.40609217 -0.86398405 0.62531126 0.67387289
-16.72064781 5.59477043 1.31532764 -0.85360414 0.70283782 0.63037378
-17.01021004 6.38255835 1.25788498 -0.86838657 0.80180293 0.60284430
-16.39687538 5.61748028 1.87879920 -0.83707523 0.70569074 0.90041882
-17.02579117 4.89147902 1.41254616 -0.86918199 0.61448747 0.67696601
-16.77819252 5.49707460 1.31729960 -0.85654181 0.69056487 0.63131887
-16.84216690 6.19933081 1.24087560 -0.85980779 0.77878517 0.59469247
-16.44314194 5.51815081 1.88018668 -0.83943719 0.69321257 0.90108377
-17.01704025 6.47353745 1.90894842 -0.86873525 0.81323212 0.91486794
-17.15021706 4.81066656 1.42109346 -0.87553400 0.60433549 0.68106234
-16.84086037 5.40070963 1.31976449 -0.85974109 0.67845911 0.63250017
-16.85826874 6.08528757 1.23903668 -0.86062980 0.76445860 0.59381115
-18.97786903 7.66751289 1.30753374 -0.96883732 0.96322417 0.62663853
-16.47371674 5.41348267 1.87972414 -0.84099805 0.68006372 0.90086210
-16.54138947 6.17455816 1.84703195 -0.84445280 0.77567309 0.88519430
-17.29351807 4.73372078 1.43138516 -0.88284969 0.59466928 0.68599463
-16.91438484 5.30736685 1.32321548 -0.86349458 0.66673303 0.63415408
-18.21214104 6.74384832 0.69753659 -0.92974621 0.84718966 0.33429602
-16.89617157 5.97924471 1.23903668 -0.86256480 0.75113708 0.59381115
-18.45288086 7.32021713 1.26399148 -0.94203621 0.91959548 0.60577083
-17.53274345 5.00936842 2.08658361 -0.89506233 0.62929726 1.00000000
-16.51604843 5.34131384 1.88180542 -0.84315914 0.67099756 0.90185958
-16.41915512 6.04112768 1.82892644 -0.83821267 0.75891101 0.87651724
-18.44435692 5.98871040 0.78642184 -0.94160104 0.75232619 0.37689447
-17.00774956 5.24883986 1.32913136 -0.86826092 0.65938061 0.63698930
-18.20240593 6.64292383 0.69564539 -0.92924923 0.83451110 0.33338967
-16.93357849 5.90282869 1.23980284 -0.86447442 0.74153733 0.59417838
-17.87059975 6.99121428 1.21720803 -0.91231018 0.87826478 0.58334976
-17.46440315 4.87148333 2.07398415 -0.89157349 0.61197555 0.99396169
-16.59282875 5.25127316 1.88712406 -0.84707886 0.65968633 0.90440857
-16.38571739 5.91229439 1.82043254 -0.83650565 0.74272650 0.87244648
-18.41310310 5.85085201 0.78299350 -0.94000548 0.73500782 0.37525144
-17.09952736 5.15979147 1.33422565 -0.87294626 0.64819402 0.63943070
-18.23625755 6.52573919 0.69530153 -0.93097734 0.81978989 0.33322486
-16.98732376 5.80209732 1.24118209 -0.86721820 0.72888309 0.59483939
-17.53439140 6.73249865 1.18846166 -0.89514649 0.84576386 0.56957299
-16.69568634 5.16873360 1.89568031 -0.85232985 0.64931732 0.90850914
-18.61541557 5.78681087 0.79127866 -0.95033371 0.72696275 0.37922212
-17.19659042 5.07149458 1.33981287 -0.87790143 0.63710177 0.64210838
-18.30142021 6.41960192 0.69641906 -0.93430400 0.80645651 0.33376044
-17.04425240 5.70218515 1.24286771 -0.87012446 0.71633172 0.59564722
-17.24416924 6.49663115 1.16337907 -0.88033038 0.81613326 0.55755210
-16.80766296 5.08799696 1.90539265 -0.85804635 0.63917488 0.91316384
-16.36291122 5.67283487 1.80903268 -0.83534133 0.71264458 0.86698306
-18.78133965 5.70937872 0.79775441 -0.95880431 0.71723539 0.38232565
-17.29704475 4.98328876 1.34572875 -0.88302970 0.62602103 0.64494359
-18.36218834 6.31160736 0.69736463 -0.93740624 0.79288977 0.33421361
-17.10438919 5.60302305 1.24485981 -0.87319446 0.70387453 0.59660190
-17.17802811 6.34861565 1.15534699 -0.87695378 0.79753894 0.55370271
-16.86976814 4.99134493 1.90909266 -0.86121684 0.62703305 0.91493708
-16.39446640 5.56863832 1.80858564 -0.83695227 0.69955498 0.86676884
-17.06295395 6.51023626 1.79021442 -0.87107915 0.81784236 0.85796440
-17.42584038 4.90214920 1.35410964 -0.88960487 0.61582792 0.64896017
-18.44126320 6.20945930 0.69916987 -0.94144309 0.78005755 0.33507878
-17.17724800 5.50757742 1.24792457 -0.87691396 0.69188428 0.59807074
-17.21382904 6.23919439 1.15506506 -0.87878150 0.78379297 0.55356759
-19.23013878 7.77719212 1.21604514 -0.98171592 0.97700250 0.58279246
-16.92178345 4.89134359 1.91163635 -0.86387229 0.61447048 0.91615611
-16.61779022 5.52803516 1.83093822 -0.84835315 0.69445425 0.87748134
-16.56915283 6.20217276 1.72992647 -0.84587020 0.77914220 0.82907122
-17.53892326 4.81534767 1.36117589 -0.89537781 0.60492355 0.65234667
-18.54255867 6.11405087 0.70200670 -0.94661433 0.76807195 0.33643833
-17.27432442 5.41916847 1.25298142 -0.88186979 0.68077797 0.60049421
-17.26584435 6.13560534 1.15605152 -0.88143688 0.77077973 0.55404037
-18.56423569 7.37331438 1.16588390 -0.94772094 0.92626578 0.55875254
-16.84530258 4.78321505 1.89961147 -0.85996789 0.60088694 0.91039318
-16.65310287 5.45274591 1.83205581 -0.85015589 0.68499613 0.87801695
-16.39862061 6.05012846 1.70744979 -0.83716434 0.76004177 0.81829923
-18.62059593 6.04258823 0.70424175 -0.95059818 0.75909454 0.33750948
-18.34500313 6.71799994 0.57719409 -0.93652892 0.84394246 0.27662161
-17.34541702 5.35176420 1.25665915 -0.88549918 0.67231041 0.60225677
-17.30397606 6.05748034 1.15675604 -0.88338357 0.76096535 0.55437797
-16.71164703 5.35586119 1.83496165 -0.85314465 0.67282510 0.87940961
-16.35031319 5.91574574 1.69778681 -0.83469820 0.74316007 0.81366825
-18.77821350 5.96345139 0.70965749 -0.95864469 0.74915302 0.34010500
-18.50343323 6.64460373 0.58173013 -0.94461691 0.83472216 0.27879551
-17.45891190 5.26677418 1.26309514 -0.89129317 0.66163361 0.60534126
-17.38508224 5.96357393 1.15999711 -0.88752413 0.74916840 0.55593127
-17.54470634 6.74727964 1.08901346 -0.89567304 0.84762073 0.52191222
-16.72979355 5.24601412 1.83317339 -0.85407102 0.65902561 0.87855256
-16.34031677 5.79621935 1.69253528 -0.83418787 0.72814465 0.81115144
-18.40158844 6.47762680 0.57616985 -0.93941766 0.81374586 0.27613074
-17.55671310 5.17607403 1.26830518 -0.89628601 0.65023947 0.60783815
-17.44111252 5.86059856 1.16140628 -0.89038450 0.73623222 0.55660665
-17.50829887 6.60739994 1.08354127 -0.89381444 0.83004844 0.51928967
-16.78143120 5.14660025 1.83540869 -0.85670716 0.64653689 0.87962383
-16.37265778 5.69212580 1.69211519 -0.83583891 0.71506798 0.81095010
-17.70706558 6.89105701 1.77443182 -0.90396166 0.86568260 0.85040051
-18.54769325 6.39848900 0.58026689 -0.94687647 0.80380422 0.27809423
-17.68089676 5.09204865 1.27566063 -0.90262568 0.63968384 0.61136329
-17.50221825 5.75903130 1.16323805 -0.89350402 0.72347295 0.55748451
-16.82105446 5.04333258 1.83630276 -0.85872996 0.63356394 0.88005233
-16.40433502 5.58785486 1.69169509 -0.83745605 0.70196909 0.81074876
-17.11585045 6.53822231 1.70611393 -0.87377959 0.82135808 0.81765902
-18.60645866 6.28824377 0.58099848 -0.94987649 0.78995478 0.27844486
-17.83159828 5.01419353 1.28516138 -0.91031915 0.62990338 0.61591655
-17.56653214 5.65815496 1.16535187 -0.89678729 0.71080047 0.55849755
-19.58829308 7.94515467 1.12126982 -1.00000000 0.99810266 0.53737116
-16.75500298 4.93770838 1.82579708 -0.85535800 0.62029499 0.87501746
-16.44367981 5.51493168 1.69316554 -0.83946466 0.69280815 0.81145346
-16.43851852 6.19177055 1.62998271 -0.83920115 0.77783543 0.78117299
-18.65863419 6.20808887 0.58187646 -0.95254010 0.77988541 0.27886564
-18.96218872 7.58660126 1.07868803 -0.96803683 0.95305973 0.51696372
-16.86976051 4.85643148 1.83563221 -0.86121649 0.61008471 0.87973094
-16.46289444 5.40652275 1.69148493 -0.84044558 0.67918938 0.81064802
-16.36505508 6.04710960 1.61796188 -0.83545077 0.75966251 0.77541196
-18.72956657 6.10128880 0.58312017 -0.95616126 0.76646870 0.27946168
-17.81626892 5.52335310 1.17930222 -0.90953660 0.69386607 0.56518328
-16.94396210 4.76265907 1.84077322 -0.86500454 0.59830463 0.88219482
-16.51925278 5.31030798 1.69400573 -0.84332275 0.66710252 0.81185615
-16.30540085 5.90902424 1.60754395 -0.83240539 0.74231565 0.77041912
-18.77514648 5.98592424 0.58341283 -0.95848811 0.75197613 0.27960193
-17.92123985 5.43279362 1.18451607 -0.91489542 0.68248963 0.56768203
-18.43719673 6.64032745 0.48464096 -0.94123548 0.83418494 0.23226529
-17.05024147 4.67704630 1.84971428 -0.87043017 0.58754957 0.88647985
-16.56367302 5.21000433 1.69526613 -0.84559041 0.65450191 0.81246018
-16.30468750 5.79317808 1.60353708 -0.83236897 0.72776258 0.76849884
-18.46521950 7.34572983 1.70919192 -0.94266605 0.92280048 0.81913418
-18.01621246 5.33828783 1.18902528 -0.91974390 0.67061746 0.56984311
-17.97583771 6.05128717 1.10008800 -0.91768271 0.76018733 0.52721971
-17.71123314 6.70008659 0.99007499 -0.90417439 0.84169215 0.47449571
-16.61508369 5.11170053 1.69736671 -0.84821498 0.64215261 0.81346691
-16.32760620 5.68605328 1.60213459 -0.83353901 0.71430516 0.76782668
-17.78786469 6.94628429 1.63698411 -0.90808654 0.87262052 0.78452837
-18.65713692 6.45569563 0.48927686 -0.95246363 0.81099075 0.23448706
-16.69828033 5.02273273 1.70303845 -0.85246223 0.63097614 0.81618512
-16.36866188 5.58527374 1.60273564 -0.83563495 0.70164484 0.76811475
-17.25680542 6.61354208 1.57977331 -0.88097548 0.83082008 0.75711000
-18.34672165 5.18665314 1.20847142 -0.93661666 0.65156847 0.57916272
-18.63862228 6.31850815 0.48730817 -0.95151848 0.79375672 0.23354356
-17.66838264 6.43110991 0.98210579 -0.90198684 0.80790222 0.47067645
-16.75798988 4.95474529 1.70702958 -0.85551047 0.62243527 0.81809783
-16.40801048 5.51249695 1.60413814 -0.83764368 0.69250232 0.76878691
-16.59135818 6.26813030 1.51052773 -0.84700376 0.78742802 0.72392386
-18.59004021 5.16121149 1.22453558 -0.94903827 0.64837241 0.58686149
-18.68336487 6.23565292 0.48781621 -0.95380259 0.78334808 0.23378704
-18.47056198 6.62563324 1.03099167 -0.94293880 0.83233899 0.49410513
-16.83272552 4.86210012 1.71186101 -0.85932577 0.61079681 0.82041335
-16.44610405 5.41053343 1.60453880 -0.83958840 0.67969322 0.76897889
-16.46429634 6.10197592 1.49404955 -0.84051716 0.76655507 0.71602666
-16.91652298 4.77142191 1.71774280 -0.86360371 0.59940541 0.82323217
-16.50251198 5.31438684 1.60694289 -0.84246808 0.66761488 0.77013105
-17.03626823 4.68995380 1.72761571 -0.86971682 0.58917105 0.82796383
-16.53747559 5.21118975 1.60714328 -0.84425300 0.65465087 0.77022713
-16.52467346 5.88923740 1.49256837 -0.84359944 0.73982996 0.71531683
-16.61174393 5.12002563 1.61155093 -0.84804451 0.64319843 0.77233946
-16.42792320 5.73851156 1.47942281 -0.83866030 0.72089517 0.70901680
-18.34661865 5.32135773 1.10894763 -0.93661141 0.66849059 0.53146571
-16.65121078 5.01783800 1.61235225 -0.85005933 0.63036120 0.77272356
-16.47683907 5.63970852 1.48071885 -0.84115750 0.70848316 0.70963794
-16.70711899 4.94888592 1.61575818 -0.85291344 0.62169921 0.77435583
-16.48625565 5.55625725 1.47905254 -0.84163821 0.69799966 0.70883936
-16.84878731 4.87576962 1.62737823 -0.86014575 0.61251402 0.77992475
-16.47925186 5.43878222 1.47497928 -0.84128064 0.68324196 0.70688725
-16.87908936 4.76981020 1.62737823 -0.86169273 0.59920299 0.77992475
-16.52825356 5.34004927 1.47646046 -0.84378225 0.67083871 0.70759708
-19.07664490 5.81212568 1.05002260 -0.97387987 0.73014289 0.50322574
-16.98356438 4.68421030 1.63519168 -0.86702627 0.58844954 0.78366935
-16.56527519 5.23729944 1.47683072 -0.84567219 0.65793085 0.70777452
-17.16066933 4.61704779 1.65061831 -0.87606764 0.58001232 0.79106265
-16.64159775 5.14669800 1.48108912 -0.84956855 0.64654917 0.70981538
-18.63458443 5.42193079 1.01814568 -0.95131230 0.68112499 0.48794866
-16.70218849 5.05071449 1.48386633 -0.85266179 0.63449132 0.71114635
-16.78114128 4.98847151 1.48923564 -0.85669237 0.62667209 0.71371961
-16.86185837 4.89743376 1.49404955 -0.86081308 0.61523557 0.71602666
-16.98231125 4.81703615 1.50275147 -0.86696225 0.60513568 0.72019708
-17.10433578 4.73585129 1.51163864 -0.87319171 0.59493691 0.72445631
-17.31825638 4.67835474 1.52941287 -0.88411260 0.58771396 0.73297465
