3.46062565 -3.33698845 1.87312794 0.50050813 -0.92779511 0.70849758
3.46665716 -3.30114174 1.86500788 0.50138044 -0.91782850 0.70542622
3.47645426 -3.26915455 1.85910225 0.50279742 -0.90893501 0.70319247
3.49692607 -3.24724698 1.85910225 0.50575823 -0.90284395 0.70319247
3.50532269 -3.22446918 1.85541129 0.50697261 -0.89651096 0.70179635
3.51860714 -3.19616175 1.85172033 0.50889397 -0.88864052 0.70040029
3.49694920 -3.13693476 1.82957447 0.50576156 -0.87217343 0.69202375
3.51938367 -3.11735368 1.83105087 0.50900626 -0.86672926 0.69258225
4.03098106 -3.40117812 1.75123489 0.58299828 -0.94564199 0.66239238
3.50238585 -3.06352067 1.81185782 0.50654787 -0.85176188 0.68532258
4.01722956 -3.34682012 1.73583436 0.58100939 -0.93052864 0.65656722
3.52438927 -3.04387164 1.81333423 0.50973022 -0.84629875 0.68588102
3.53057861 -3.37575316 1.86835122 0.51062536 -0.93857300 0.70669085
4.04404974 -3.32630372 1.73840117 0.58488840 -0.92482442 0.65753812
3.52593446 -3.01641059 1.80669045 0.50995368 -0.83866370 0.68336809
3.53162432 -3.34492111 1.86036015 0.51077664 -0.93000066 0.70366824
4.04642010 -3.29649353 1.73262596 0.58523124 -0.91653615 0.65535367
3.55336905 -3.00135612 1.81111968 0.51392156 -0.83447802 0.68504339
3.54443789 -3.31499410 1.85600138 0.51262987 -0.92167991 0.70201957
4.05372620 -3.26037145 1.72685075 0.58628792 -0.90649301 0.65316927
3.54063702 -2.95291781 1.79487944 0.51208013 -0.82101053 0.67890060
3.55292416 -3.28122854 1.84946322 0.51385719 -0.91229200 0.69954658
4.05925035 -3.22311616 1.72043383 0.58708686 -0.89613479 0.65074211
3.56632137 -2.93648911 1.79857039 0.51579481 -0.81644279 0.68029672
3.55838323 -3.24496508 1.84147215 0.51464677 -0.90220952 0.69652402
3.38748932 -3.37802553 2.06808567 0.48993048 -0.93920481 0.78223896
4.05998087 -3.18243217 1.71209180 0.58719248 -0.88482326 0.64758676
3.56009412 -2.89419937 1.78602111 0.51489419 -0.80468482 0.67555004
3.56352782 -3.20876288 1.83348119 0.51539081 -0.89214408 0.69350147
4.06336689 -3.14417386 1.70503330 0.58768225 -0.87418616 0.64491695
3.58693719 -2.87871575 1.79045022 0.51877648 -0.80037987 0.67722529
3.57390761 -3.17760086 1.82839596 0.51689202 -0.88348001 0.69157803
3.43889523 -3.34408617 2.07372355 0.49736527 -0.92976850 0.78437150
3.60484362 -2.86523104 1.79266477 0.52136630 -0.79663068 0.67806292
3.59023499 -3.16196156 1.82912242 0.51925343 -0.87913173 0.69185281
3.38048220 -3.25703430 2.02862048 0.48891702 -0.90556514 0.76731157
3.63157964 -2.84937048 1.79709399 0.52523309 -0.79222089 0.67973828
3.58621621 -3.11845279 1.81677258 0.51867223 -0.86703485 0.68718153
3.28768301 -3.12896061 1.96016049 0.47549555 -0.86995637 0.74141705
3.59306192 -3.08487940 1.81023443 0.51966232 -0.85770029 0.68470854
4.15405273 -3.40005636 1.74587882 0.60079807 -0.94533008 0.66036648
3.60529256 -3.05618763 1.80660212 0.52143121 -0.84972304 0.68333465
3.26206660 -3.02791500 1.92150068 0.47179067 -0.84186226 0.72679424
4.13853550 -3.34392285 1.73013222 0.59855384 -0.92972308 0.65441042
3.61303353 -3.02385783 1.80079043 0.52255076 -0.84073424 0.68113643
3.26069951 -2.98889756 1.90941954 0.47159293 -0.83101410 0.72222459
4.16834068 -3.32499003 1.73391140 0.60286450 -0.92445916 0.65583992
3.62051105 -2.99155188 1.79497874 0.52363229 -0.83175212 0.67893821
3.26851177 -2.95857310 1.90297627 0.47272283 -0.82258290 0.71978748
4.17576790 -3.28811383 1.72824264 0.60393870 -0.91420633 0.65369570
3.64175272 -2.98038936 1.79861104 0.52670443 -0.82864857 0.68031210
3.26462531 -2.92733216 1.89250588 0.47216073 -0.81389689 0.71582717
3.42325568 -3.40283465 2.04334164 0.49510333 -0.94610256 0.77287972
3.64885235 -2.94803023 1.79279935 0.52773124 -0.81965160 0.67811388
3.61480927 -3.34682298 1.83871615 0.52280760 -0.93052942 0.69548154
3.27194405 -2.89710498 1.88606262 0.47321922 -0.80549270 0.71339005
3.46284318 -3.39934921 2.05442190 0.50082886 -0.94513351 0.77707076
4.58275557 -3.33675146 1.57549930 0.66280109 -0.92772919 0.59592164
4.20042038 -2.90563846 1.69476616 0.60750419 -0.80786526 0.64103347
3.64765406 -2.62062788 1.74763501 0.52755791 -0.72862273 0.66103077
3.62607312 -3.31525540 1.83373702 0.52443671 -0.92175257 0.69359821
3.27070928 -2.85971045 1.87478685 0.47304064 -0.79509574 0.70912504
3.40138793 -3.29663563 2.00456071 0.49194062 -0.91657567 0.75821114
3.68230247 -2.61047530 1.75649333 0.53256911 -0.72579998 0.66438133
3.64126110 -3.28741956 1.83089173 0.52663332 -0.91401327 0.69252205
3.27609110 -2.82839537 1.86753809 0.47381902 -0.78638911 0.70638329
3.38767600 -3.24203157 1.98398292 0.48995748 -0.90139389 0.75042772
3.69252014 -2.58305311 1.75354052 0.53404689 -0.71817571 0.66326445
3.64363909 -3.24838114 1.82164478 0.52697724 -0.90315932 0.68902445
3.31058240 -2.82192779 1.87720311 0.47880748 -0.78459090 0.71003896
3.31225896 -3.12943316 1.92699850 0.47904995 -0.87008774 0.72887373
3.69640064 -2.55140972 1.74763501 0.53460813 -0.70937777 0.66103077
3.64144635 -3.20575523 1.81026387 0.52666014 -0.89130783 0.68471968
3.30996799 -2.78583241 1.86673272 0.47871861 -0.77455515 0.70607865
3.29440951 -3.07330894 1.90483785 0.47646838 -0.85448331 0.72049165
3.71146178 -2.53604603 1.74911129 0.53678638 -0.70510614 0.66158915
3.62823343 -3.16410780 1.79603779 0.52474916 -0.87972850 0.67933875
3.31882429 -2.76670694 1.86431646 0.47999948 -0.76923764 0.70516467
3.29676557 -3.04647660 1.89771485 0.47680914 -0.84702301 0.71779740
3.71340919 -2.50338817 1.74246764 0.53706807 -0.69602615 0.65907621
3.64093423 -3.13518000 1.79248130 0.52658606 -0.87168556 0.67799354
3.33188558 -2.74232960 1.86190021 0.48188853 -0.76245993 0.70425075
3.30773520 -3.01823711 1.89296615 0.47839567 -0.83917153 0.71600127
3.72440791 -2.47693992 1.74025297 0.53865880 -0.68867266 0.65823853
3.64626908 -3.10019422 1.78536820 0.52735764 -0.86195832 0.67530304
3.29913402 -2.68116927 1.83371079 0.47715169 -0.74545532 0.69358832
3.30081391 -2.97391677 1.87792861 0.47739467 -0.82684898 0.71031338
3.74301481 -2.45551515 1.74172938 0.54134989 -0.68271583 0.65879697
3.65705562 -3.07004857 1.78110039 0.52891767 -0.85357684 0.67368883
3.34458232 -2.68316293 1.84981906 0.48372486 -0.74600959 0.69968116
3.34403467 -2.97520661 1.89217472 0.48364565 -0.82720757 0.71570188
3.75054359 -2.42693520 1.73803842 0.54243881 -0.67476970 0.65740091
3.67771721 -3.04819679 1.78181171 0.53190595 -0.84750128 0.67395782
3.69089031 -3.39423490 1.82633543 0.53381115 -0.94371152 0.69079864
3.38154173 -2.67791176 1.86109483 0.48907027 -0.74454963 0.70394611
3.33929801 -2.93342233 1.87872005 0.48296058 -0.81559014 0.71061277
3.77043271 -2.40630054 1.74025297 0.54531533 -0.66903251 0.65823853
3.68082857 -3.01207566 1.77398729 0.53235596 -0.83745843 0.67099833
3.70661235 -3.36591339 1.82355046 0.53608501 -0.93583721 0.68974525
3.35632157 -2.62411284 1.83773792 0.48542270 -0.72959167 0.69511157
3.76912165 -2.38062263 1.73434746 0.54512572 -0.66189319 0.65600485
3.71392512 -3.00991631 1.78323424 0.53714269 -0.83685803 0.67449594
3.71271086 -3.33959246 1.81867659 0.53696704 -0.92851913 0.68790174
3.35121632 -2.59490156 1.82807291 0.48468432 -0.72147000 0.69145584
3.77451158 -2.35104084 1.72991824 0.54590523 -0.65366846 0.65432954
3.72983456 -2.98419857 1.78181171 0.53944367 -0.82970762 0.67395782
3.70987678 -3.29493594 1.80684018 0.53655714 -0.91610307 0.68342471
3.37183356 -2.57710814 1.83048916 0.48766619 -0.71652281 0.69236976
3.49414730 -3.41145611 2.00548124 0.50535637 -0.94849962 0.75855929
3.74409580 -2.95724773 1.77967775 0.54150623 -0.82221442 0.67315072
3.73612404 -3.27652907 1.80962527 0.54035330 -0.91098535 0.68447816
3.36449218 -2.53834367 1.81760263 0.48660442 -0.70574498 0.68749553
3.48617196 -3.36138082 1.98850787 0.50420290 -0.93457699 0.75213921
3.74781251 -2.92223406 1.77256477 0.54204381 -0.81247944 0.67046028
3.75946188 -3.25545597 1.81101775 0.54372865 -0.90512633 0.68500483
3.38626885 -2.52149916 1.82082427 0.48975396 -0.70106161 0.68871409
3.35561538 -3.19626570 1.90132618 0.48532057 -0.88866943 0.71916336
3.75569630 -2.89069200 1.76758564 0.54318404 -0.80370969 0.66857696
3.39612341 -2.49586511 1.81760263 0.49117923 -0.69393450 0.68749553
3.34054208 -3.14240265 1.88126671 0.48314053 -0.87369370 0.71157598
3.76333213 -2.85916662 1.76260638 0.54428840 -0.79494458 0.66669357
3.41025114 -2.47340965 1.81679714 0.49322250 -0.68769115 0.68719083
3.34528828 -3.10760355 1.87277997 0.48382697 -0.86401838 0.70836598
3.76771975 -2.82542992 1.75620472 0.54492295 -0.78556460 0.66427219
3.41825581 -2.44664240 1.81277013 0.49438021 -0.68024892 0.68566763
3.34153748 -3.06542206 1.85966420 0.48328447 -0.85229051 0.70340502
3.77346468 -2.80210400 1.75264812 0.54575384 -0.77907920 0.66292691
3.42375231 -2.42630219 1.80954850 0.49517515 -0.67459369 0.68444908
3.33812118 -3.03358889 1.84963441 0.48279038 -0.84343982 0.69961131
4.38039255 -3.43035531 1.71295428 0.63353342 -0.95375425 0.64791304
3.80612087 -2.78932381 1.75976121 0.55047691 -0.77552593 0.66561741
3.42086577 -2.39224076 1.79988360 0.49475768 -0.66512346 0.68079340
3.35849452 -3.01378131 1.85040593 0.48573697 -0.83793265 0.69990313
4.40185928 -3.40276504 1.71295428 0.63663816 -0.94608319 0.64791304
3.79318500 -2.74357629 1.74553514 0.54860598 -0.76280653 0.66023648
3.43734097 -2.37173223 1.80068898 0.49714050 -0.65942138 0.68109804
3.38707018 -3.00114226 1.85580659 0.48986986 -0.83441854 0.70194590
5.38127375 -2.99670124 1.71486270 0.77829027 -0.83318383 0.64863485
3.80271769 -2.71429253 1.74197853 0.54998469 -0.75466466 0.65889120
3.46128488 -2.35622478 1.80552149 0.50060350 -0.65510982 0.68292594
3.35427570 -2.93507814 1.82726038 0.48512679 -0.81605053 0.69114852
3.44021177 -3.33060479 1.91657388 0.49755567 -0.92602021 0.72493070
5.36789179 -2.94535351 1.70447874 0.77635485 -0.81890744 0.64470720
3.81356525 -2.68606710 1.73913336 0.55155355 -0.74681705 0.65781504
3.46382356 -2.32632470 1.79907811 0.50097066 -0.64679658 0.68048877
3.38106132 -2.92114449 1.83188951 0.48900080 -0.81217647 0.69289941
3.39574647 -3.24593782 1.87956619 0.49112469 -0.90247995 0.71093279
5.35916424 -2.89702034 1.69573438 0.77509260 -0.80546916 0.64139968
3.82002902 -2.66381645 1.73628819 0.55248845 -0.74063063 0.65673888
3.46862984 -2.30595183 1.79585648 0.50166577 -0.64113224 0.67927021
3.40604830 -2.91472602 1.83806169 0.49261466 -0.81039196 0.69523400
3.39493465 -3.21455026 1.87050307 0.49100730 -0.89375317 0.70750475
3.83051252 -2.63555074 1.73344290 0.55400467 -0.73277181 0.65566272
3.48151422 -2.28311610 1.79505110 0.50352925 -0.63478315 0.67896557
3.42570972 -2.89445233 1.83883321 0.49545828 -0.80475515 0.69552583
3.39485717 -3.17409563 1.85917425 0.49099606 -0.88250542 0.70321971
5.40774775 -2.84682465 1.70119965 0.78211921 -0.79151309 0.64346689
3.84389424 -2.60934496 1.73202026 0.55594003 -0.72548574 0.65512460
3.49579072 -2.26119614 1.79505110 0.50559402 -0.62868863 0.67896557
3.83362818 -3.32077956 1.79127228 0.55445528 -0.92328846 0.67753625
3.41822767 -2.85171080 1.82494581 0.49437615 -0.79287159 0.69027305
3.41202307 -3.15017819 1.85766375 0.49347878 -0.87585557 0.70264834
3.85242486 -2.57997513 1.72846377 0.55717379 -0.71731991 0.65377939
3.83576441 -3.28080201 1.78246117 0.55476421 -0.91217339 0.67420352
3.41749287 -2.81501150 1.81491613 0.49426988 -0.78266793 0.68647939
3.39903522 -3.09859014 1.83953750 0.49160033 -0.86151236 0.69579226
3.86699510 -2.55469537 1.72775245 0.55928111 -0.71029133 0.65351033
3.82889533 -3.23367977 1.76958334 0.55377072 -0.89907181 0.66933256
3.43080187 -2.79001045 1.81260157 0.49619475 -0.77571684 0.68560392
3.41432428 -3.07343721 1.83727169 0.49381161 -0.85451901 0.69493520
3.87197661 -2.52325249 1.72277331 0.56000155 -0.70154911 0.65162700
3.83608699 -3.19876599 1.76348341 0.55481088 -0.88936460 0.66702533
3.42371345 -2.74887395 1.79948568 0.49516955 -0.76427948 0.68064290
3.43081045 -3.04945087 1.83576119 0.49619597 -0.84784997 0.69436389
3.88617730 -2.49787092 1.72206199 0.56205541 -0.69449216 0.65135795
3.83716130 -3.15912986 1.75467217 0.55496627 -0.87834442 0.66369253
3.44527149 -2.73072624 1.80180025 0.49828747 -0.75923383 0.68151838
3.88841558 -2.47355199 1.71779418 0.56237912 -0.68773073 0.64974368
3.83883739 -3.13036442 1.74857223 0.55520868 -0.87034667 0.66138524
3.46101475 -2.71672583 1.80334330 0.50056440 -0.75534123 0.68210202
4.63848019 -3.57606149 1.74332333 0.67086053 -0.99426544 0.65939987
3.98572826 -2.13862467 1.72741807 0.57645339 -0.59460962 0.65338385
3.90864372 -2.45203090 1.71992815 0.56530470 -0.68174714 0.65055084
3.84960699 -3.09913898 1.74450552 0.55676627 -0.86166495 0.65984702
3.45605922 -2.67807484 1.79177046 0.49984768 -0.74459493 0.67772466
4.44097948 -3.38072538 1.65964854 0.64229608 -0.93995547 0.62775046
3.98429513 -2.10563660 1.72087991 0.57624614 -0.58543783 0.65091079
3.93513107 -2.43425846 1.72490728 0.56913555 -0.67680579 0.65243417
3.88082647 -3.08420753 1.74992776 0.56128150 -0.85751349 0.66189796
3.47134686 -2.65519285 1.79099894 0.50205874 -0.73823297 0.67743284
4.01558590 -2.09010649 1.72887099 0.58077168 -0.58111995 0.65393341
3.93114710 -2.39788938 1.71637154 0.56855935 -0.66669393 0.64920557
3.86893940 -3.03550053 1.73569441 0.55956227 -0.84397131 0.65651429
3.47170568 -2.62117505 1.78251231 0.50211060 -0.72877491 0.67422283
4.02202129 -2.06140518 1.72596514 0.58170241 -0.57314003 0.65283430
3.93168068 -2.36453581 1.70996988 0.56863654 -0.65742052 0.64678419
3.88196588 -3.00654745 1.73298335 0.56144631 -0.83592141 0.65548885
3.48662162 -2.59821463 1.78174078 0.50426793 -0.72239113 0.67393100
4.03987312 -2.03863430 1.72814453 0.58428431 -0.56680894 0.65365863
3.89478159 -2.97755075 1.73027217 0.56329983 -0.82785934 0.65446341
3.49989462 -2.57408381 1.78019774 0.50618756 -0.71568191 0.67334735
4.03945255 -2.01453948 1.72378576 0.58422351 -0.56010979 0.65200996
3.91328454 -2.96255255 1.73230553 0.56597590 -0.82368934 0.65523249
3.92639160 -3.29869604 1.75653434 0.56787157 -0.91714853 0.66439688
3.50899243 -2.55540395 1.77865469 0.50750339 -0.71048832 0.67276371
4.06204462 -1.99409127 1.72814453 0.58749098 -0.55442446 0.65365863
3.90460539 -2.91774559 1.72010553 0.56472063 -0.81123149 0.65061790
3.90648532 -3.24004912 1.73806036 0.56499255 -0.90084273 0.65740919
3.51144838 -2.52367759 1.77171099 0.50785857 -0.70166731 0.67013735
4.57506657 -3.59668684 1.67056191 0.66168904 -1.00000000 0.63187838
4.06779671 -1.96525693 1.72523868 0.58832288 -0.54640758 0.65255952
3.60349917 -2.19041777 1.78058016 0.52117187 -0.60900986 0.67349201
3.92286110 -2.89315462 1.72010553 0.56736094 -0.80439436 0.65061790
3.91948605 -3.20943022 1.73476148 0.56687284 -0.89232963 0.65616143
3.53931665 -2.51004767 1.77788317 0.51188916 -0.69787776 0.67247188
4.58094120 -3.55486822 1.66437483 0.66253865 -0.98837304 0.62953818
4.09349871 -1.94612050 1.73105037 0.59204018 -0.54108703 0.65475774
3.61719084 -2.16773319 1.78058016 0.52315205 -0.60270280 0.67349201
3.92875409 -2.85964203 1.71468329 0.56821328 -0.79507673 0.64856702
3.92786598 -3.17519736 1.72948313 0.56808484 -0.88281173 0.65416491
3.53681684 -2.47514987 1.76862490 0.51152760 -0.68817496 0.66897005
4.56519794 -3.49670434 1.65031302 0.66026175 -0.97220153 0.62421942
4.13764811 -1.93550611 1.74485302 0.59842545 -0.53813583 0.65997851
3.62285519 -2.14025378 1.77662289 0.52397126 -0.59506261 0.67199522
3.94511127 -2.83380938 1.71400547 0.57057899 -0.78789437 0.64831060
3.93891287 -3.14335370 1.72552443 0.56968254 -0.87395811 0.65266758
3.57210183 -2.46641564 1.77865469 0.51663089 -0.68574655 0.67276371
4.62066936 -3.49353480 1.66268742 0.66828454 -0.97132027 0.62889993
4.17506695 -1.92126727 1.75574994 0.60383731 -0.53417695 0.66410017
3.65838981 -2.13049579 1.78770328 0.52911061 -0.59234953 0.67618632
3.95514035 -2.80355716 1.71061659 0.57202947 -0.77948326 0.64702880
3.93936634 -3.10327625 1.71694720 0.56974810 -0.86281526 0.64942330
3.55846143 -2.42432046 1.76399577 0.51465803 -0.67404270 0.66721910
4.49678373 -3.35487437 1.60925257 0.65036702 -0.93276799 0.60868853
4.20946932 -1.91324878 1.76664686 0.60881293 -0.53194755 0.66822183
3.64934325 -2.10213876 1.77820587 0.52780223 -0.58446532 0.67259395
3.96367359 -2.78166461 1.70858324 0.57326365 -0.77339637 0.64625967
3.96433377 -3.09284973 1.72156572 0.57335913 -0.85991633 0.65117025
3.56831169 -2.40650034 1.76322436 0.51608270 -0.66908807 0.66692734
4.52793932 -3.34510660 1.61487722 0.65487301 -0.93005222 0.61081606
4.23668766 -1.89367282 1.77318501 0.61274952 -0.52650476 0.67069489
3.66247940 -2.07916784 1.77820587 0.52970213 -0.57807863 0.67259395
3.97021270 -2.74925256 1.70383883 0.57420939 -0.76438475 0.64446515
3.96877623 -3.05629992 1.71496785 0.57400161 -0.84975427 0.64867461
3.57103300 -2.37591410 1.75705218 0.51647627 -0.66058409 0.66459274
3.66747761 -2.05159259 1.77424860 0.53042501 -0.57041180 0.67109716
3.97961783 -2.71897817 1.70044994 0.57556963 -0.75596744 0.64318335
3.98640275 -3.03015471 1.71430814 0.57655096 -0.84248501 0.64842510
3.58743811 -2.35443497 1.75782371 0.51884896 -0.65461218 0.66488457
4.77867937 -3.21760273 1.39913559 0.69113743 -0.89460188 0.52921325
3.68671274 -2.03208637 1.77741432 0.53320694 -0.56498843 0.67229456
4.00444651 -2.69914556 1.70383883 0.57916063 -0.75045329 0.64446515
3.99030662 -2.99365568 1.70771027 0.57711554 -0.83233702 0.64592952
3.58196235 -2.31890845 1.74779391 0.51805699 -0.64473462 0.66109085
4.37948513 -1.85983014 1.81895196 0.63340223 -0.51709539 0.68800586
3.69457841 -2.00622940 1.77504003 0.53434455 -0.55779928 0.67139649
4.00875664 -2.66564965 1.69841659 0.57978398 -0.74114031 0.64241421
4.00752449 -2.96739531 1.70705044 0.57960576 -0.82503575 0.64567995
3.62298059 -2.31311154 1.76090980 0.52398944 -0.64312285 0.66605186
4.39966726 -1.83590114 1.82258427 0.63632113 -0.51044232 0.68937981
3.71195698 -1.98559868 1.77741432 0.53685802 -0.55206329 0.67229456
4.01911497 -2.63630795 1.69570553 0.58128208 -0.73298234 0.64138877
4.62173700 -1.80028331 1.61045873 0.66843897 -0.50053936 0.60914481
4.45471001 -1.83450222 1.84219861 0.64428192 -0.51005334 0.69679880
3.71317530 -1.96375179 1.77345717 0.53703421 -0.54598910 0.67079782
4.01566839 -2.60715985 1.68892777 0.58078361 -0.72487819 0.63882518
4.62132359 -1.77504456 1.60730946 0.66837913 -0.49352214 0.60795361
3.73681474 -1.94637704 1.77899730 0.54045320 -0.54115832 0.67289335
4.05898190 -2.59901285 1.70044994 0.58704799 -0.72261304 0.64318335
4.63061142 -1.74529624 1.60667968 0.66972244 -0.48525110 0.60771537
5.12315941 -1.73718536 2.11230302 0.74095935 -0.48299599 0.79896390
3.75223088 -1.92455196 1.78058016 0.54268283 -0.53509021 0.67349201
4.04970837 -2.55749083 1.68960547 0.58570677 -0.71106851 0.63908148
4.65748549 -1.72215760 1.61234832 0.67360920 -0.47881779 0.60985953
5.27703905 -1.75187624 2.17209673 0.76321489 -0.48708054 0.82158041
3.79532385 -1.91681945 1.79561770 0.54891533 -0.53294033 0.67917985
4.68425083 -1.69874978 1.61801708 0.67748028 -0.47230962 0.61200368
5.37643433 -1.74708951 2.20900631 0.77759033 -0.48574969 0.83554125
4.68357706 -1.79335332 1.91920340 0.67738283 -0.49861258 0.72592533
3.81549644 -1.89706290 1.79957497 0.55183285 -0.52744734 0.68067670
4.69840384 -1.67057097 1.61927688 0.67952722 -0.46447495 0.61248016
5.48306799 -1.74334967 2.24886894 0.79301268 -0.48470989 0.85061902
4.75745249 -1.78773844 1.94535589 0.68806738 -0.49705145 0.73581731
4.10394573 -1.75533724 1.92713857 0.59355110 -0.48804283 0.72892672
3.84379959 -1.88120461 1.80748951 0.55592632 -0.52303821 0.68367028
4.69627762 -1.63659322 1.61486781 0.67921972 -0.45502800 0.61081249
5.59067726 -1.74821305 2.29020762 0.80857617 -0.48606208 0.86625504
4.81816769 -1.78492665 1.96714973 0.69684857 -0.49626967 0.74406070
4.18314219 -1.76555848 1.96096587 0.60500526 -0.49088469 0.74172169
3.89221525 -1.88244975 1.82648432 0.56292868 -0.52338439 0.69085497
4.72365952 -1.62130356 1.62179625 0.68317991 -0.45077696 0.61343312
5.34077692 -3.00223708 1.82525480 0.77243322 -0.83472294 0.69038987
5.71721172 -1.74798393 2.33819032 0.82687676 -0.48599836 0.88440418
4.90623665 -1.78292131 1.99911392 0.70958596 -0.49571213 0.75615090
4.22295332 -1.75103259 1.97465789 0.61076313 -0.48684600 0.74690056
3.90396619 -1.85795724 1.82648432 0.56462818 -0.51657462 0.69085497
6.17892075 -1.72948563 2.13817382 0.89365345 -0.48085523 0.80874932
5.27458286 -1.77588558 1.81138420 0.76285964 -0.49375597 0.68514341
6.45365572 -1.92620301 2.63863540 0.93338823 -0.53554928 0.99804544
4.97518635 -1.77292395 2.02308702 0.71955812 -0.49293253 0.76521856
4.26784134 -1.73812461 1.99076617 0.61725521 -0.48325714 0.75299340
3.91556287 -1.83339143 1.82648432 0.56630540 -0.50974452 0.69085497
4.06934404 -2.36913800 1.66046107 0.58854669 -0.65870011 0.62805784
6.31037283 -1.72318733 2.18052530 0.91266531 -0.47910407 0.82476848
5.37206459 -1.77155614 1.84161758 0.77695835 -0.49255222 0.69657898
5.36798429 -2.92942071 1.82176840 0.77636820 -0.81447756 0.68907118
6.47813320 -1.88922095 2.64380288 0.93692839 -0.52526700 1.00000000
5.07055426 -1.77144814 2.05795717 0.73335111 -0.49252221 0.77840793
4.39446402 -1.75699210 2.04553413 0.63556862 -0.48850295 0.77370900
3.98027372 -1.83359277 1.85181069 0.57566452 -0.50980049 0.70043451
5.83146811 -2.03507423 1.67053556 0.84340161 -0.56581914 0.63186842
6.53358269 -1.73939490 2.25496149 0.94494802 -0.48361033 0.85292345
5.45526266 -1.76135349 1.86681199 0.78899121 -0.48971555 0.70610863
5.41667891 -2.91184497 1.83222771 0.78341091 -0.80959094 0.69302738
6.46840477 -1.84243512 2.63494444 0.93552136 -0.51225901 0.99664938
4.43784857 -1.74191689 2.06083703 0.64184326 -0.48431152 0.77949721
3.99839401 -1.81161106 1.85497653 0.57828522 -0.50368887 0.70163196
6.70035362 -1.73828423 2.30950499 0.96906799 -0.48330152 0.87355417
5.54938984 -1.75364411 1.89578557 0.80260479 -0.48757207 0.71706766
4.52741385 -1.74393857 2.09788585 0.65479702 -0.48487362 0.79351068
4.05992556 -1.80911064 1.87872005 0.58718449 -0.50299364 0.71061277
6.83795643 -1.72780478 2.35378170 0.98896939 -0.48038790 0.89030153
5.66537094 -1.75162351 1.93231738 0.81937909 -0.48701030 0.73088557
4.60414553 -1.74829614 2.13010240 0.66589469 -0.48608518 0.80569637
4.08686209 -1.79817963 1.88742602 0.59108031 -0.49995446 0.71390575
5.51900196 -2.84483004 1.85024107 0.79820979 -0.79095852 0.69984078
4.69235420 -1.74777353 2.16634583 0.67865229 -0.48593986 0.81940520
4.14687109 -1.79383314 1.91037798 0.59975940 -0.49874598 0.72258717
4.78934479 -1.74931657 2.20661640 0.69267994 -0.48636889 0.83463728
4.16312170 -1.76992095 1.91275239 0.60210967 -0.49209759 0.72348523
3.78102040 -2.17583489 1.74286449 0.54684663 -0.60495532 0.65922636
4.86237431 -1.74116325 2.23561144 0.70324218 -0.48410198 0.84560442
4.25873995 -1.77950883 1.95232487 0.61593890 -0.49476334 0.73845327
3.75605822 -2.12992930 1.72473836 0.54323637 -0.59219205 0.65237027
4.95797396 -1.73995411 2.27507663 0.71706867 -0.48376581 0.86053187
4.31054258 -1.76963449 1.97131968 0.62343109 -0.49201795 0.74563789
3.74518132 -2.09262276 1.71340942 0.54166323 -0.58181953 0.64808518
4.80478621 -1.77605164 1.91340315 0.69491321 -0.49380213 0.72373140
5.05028009 -1.73643398 2.31293082 0.73041886 -0.48278710 0.87484998
4.40149784 -1.77514756 2.00851798 0.63658589 -0.49355078 0.75970793
3.79385281 -2.08886814 1.73002517 0.54870260 -0.58077568 0.65436995
4.86938524 -1.77364099 1.93616498 0.70425618 -0.49313191 0.73234087
5.29452944 -1.79155850 2.42246699 0.76574451 -0.49811357 0.91628122
4.45411062 -1.77222943 2.02909565 0.64419526 -0.49273944 0.76749128
3.80040956 -2.06918049 1.72851455 0.54965085 -0.57530183 0.65379858
6.60478210 -1.75327253 2.23213100 0.95524549 -0.48746878 0.84428799
4.92450285 -1.75855529 1.95394754 0.71222776 -0.48893756 0.73906702
4.54543352 -1.77595961 2.06629372 0.65740323 -0.49377656 0.78156120
3.81984711 -2.04879308 1.73153567 0.55246210 -0.56963342 0.65494132
6.75889826 -1.74925387 2.28126001 0.97753525 -0.48635146 0.86287069
5.01495504 -1.75506032 1.98595631 0.72530985 -0.48796585 0.75117415
4.60958052 -1.76797390 2.09082866 0.66668075 -0.49155626 0.79084134
3.84407806 -2.03086090 1.73682249 0.55596662 -0.56464767 0.65694100
5.09316111 -1.74629998 2.01298594 0.73662072 -0.48553017 0.76139790
4.69783354 -1.76840806 2.12644386 0.67944473 -0.49167696 0.80431259
3.83218002 -1.99373126 1.72549355 0.55424583 -0.55432439 0.65265590
5.18564606 -1.74133277 2.04570603 0.74999678 -0.48414913 0.77377403
4.80519581 -1.77487743 2.17076516 0.69497246 -0.49347568 0.82107681
3.87751555 -1.98665643 1.74059868 0.56080264 -0.55235738 0.65836930
5.27293253 -1.73353946 2.07629204 0.76262093 -0.48198232 0.78534299
4.89040327 -1.77184451 2.20479751 0.70729595 -0.49263242 0.83394927
3.83713627 -1.93531716 1.71643043 0.55496264 -0.53808331 0.64922786
5.39143801 -1.74394393 2.12039304 0.77976030 -0.48487511 0.80202389
4.97470331 -1.77624798 2.23962140 0.71948826 -0.49385673 0.84712118
5.50755072 -1.74293864 2.16235995 0.79655361 -0.48459560 0.81789756
5.04116678 -1.76458549 2.26494789 0.72910082 -0.49061415 0.85670072
4.12320471 -1.77359486 1.84037626 0.59633654 -0.49311906 0.69610947
5.64352322 -1.74655294 2.21215153 0.81621927 -0.48560050 0.83673090
5.11288261 -1.75396478 2.29264855 0.73947304 -0.48766124 0.86717832
4.21429968 -1.78105819 1.87663758 0.60951155 -0.49519414 0.70982510
5.60782051 -1.69714332 2.19365740 0.81105560 -0.47186297 0.82973564
5.24899960 -1.76440156 2.34963298 0.75915956 -0.49056301 0.88873231
4.26125956 -1.76924467 1.89283955 0.61630332 -0.49190956 0.71595335
4.31850529 -1.76104653 1.91367054 0.62458271 -0.48963022 0.72383255
5.99899960 -1.73215520 2.34018636 0.86763155 -0.48159745 0.88515919
4.38267851 -1.75491214 1.93758762 0.63386405 -0.48792464 0.73287898
6.59775400 -1.73089266 2.17424798 0.95422906 -0.48124641 0.82239413
6.33569860 -1.78517902 2.46893263 0.91632813 -0.49633986 0.93385655
4.44694281 -1.74804020 1.96150470 0.64315856 -0.48601401 0.74192548
6.68597984 -1.70896530 2.20013356 0.96698910 -0.47514987 0.83218515
6.30797863 -1.74544513 2.45470667 0.91231900 -0.48529249 0.92847568
4.53095484 -1.75608814 1.99545157 0.65530920 -0.48825160 0.75476563
6.83432770 -1.71217513 2.24697399 0.98844457 -0.47604230 0.84990221
6.32785177 -1.70818460 2.45826316 0.91519326 -0.47493282 0.92982090
4.59717512 -1.74834573 2.02014017 0.66488659 -0.48609897 0.76410395
6.44519854 -1.69613361 2.50023007 0.93216503 -0.47158223 0.94569457
4.68425226 -1.74749446 2.05408692 0.67748046 -0.48586228 0.77694404
6.60069275 -1.69230974 2.55713463 0.95465410 -0.47051907 0.96721834
4.76976156 -1.74498987 2.08726239 0.68984765 -0.48516592 0.78949243
6.80357456 -1.69823039 2.63253284 0.98399675 -0.47216520 0.99573720
4.87107515 -1.74702358 2.12738132 0.70450056 -0.48573136 0.80466717
4.95168161 -1.74058986 2.15824199 0.71615863 -0.48394257 0.81633997
5.06982517 -1.75484359 2.20684767 0.73324567 -0.48790559 0.83472472
4.92153025 -1.77504909 1.84888339 0.71179783 -0.49352339 0.69932723
5.14024067 -1.74287713 2.23307943 0.74342978 -0.48457849 0.84464669
4.95745611 -1.75277650 1.85837233 0.71699381 -0.48733085 0.70291638
5.22473001 -1.73469388 2.26548314 0.75564945 -0.48230329 0.85690320
5.04670477 -1.74839795 1.88819456 0.72990179 -0.48611349 0.71419644
5.33391333 -1.73341167 2.30868816 0.77144057 -0.48194680 0.87324518
5.11824989 -1.73698616 1.91123903 0.74024928 -0.48294061 0.72291285
6.47597361 -1.69540513 2.45018244 0.93661600 -0.47137970 0.92676443
5.21666622 -1.73354506 1.94445026 0.75448316 -0.48198387 0.73547477
6.90980244 -1.79076779 1.81202865 0.99936044 -0.49789372 0.68538719
5.29998112 -1.73323333 1.97291684 0.76653296 -0.48189721 0.74624205
5.40944576 -1.73108792 2.01019478 0.78236479 -0.48130071 0.76034218
5.51729155 -1.72707844 2.04679465 0.79796243 -0.48018593 0.77418578
5.64690971 -1.72831476 2.09152818 0.81670904 -0.48052967 0.79110593
6.29396200 -1.74193347 1.94786167 0.91029179 -0.48431614 0.73676509
5.78217077 -1.72958851 2.13829494 0.83627176 -0.48088381 0.80879515
6.36210489 -1.71763945 1.96587491 0.92014724 -0.47756159 0.74357849
5.90681839 -1.72609854 2.18099499 0.85429949 -0.47991350 0.82494617
6.43944931 -1.69496465 1.98679364 0.93133354 -0.47125721 0.75149083
6.07781315 -1.74444020 2.24199486 0.87903035 -0.48501310 0.84801894
6.65691471 -1.71802056 2.05245519 0.96278542 -0.47766754 0.77632684
6.14849854 -1.72278082 2.26436162 0.88925350 -0.47899106 0.85647899
6.91089058 -1.73656201 2.12857580 0.99951780 -0.48282269 0.80511898
6.28999662 -1.71943092 2.31316161 0.90971828 -0.47805968 0.87493724
6.91422462 -1.69130802 2.12625170 1.00000000 -0.47024056 0.80423987
6.46080446 -1.72203481 2.37280631 0.93442214 -0.47878364 0.89749742
6.56080484 -1.70432067 2.40601730 0.94888514 -0.47385851 0.91005927
6.73750639 -1.70457625 2.46769524 0.97444135 -0.47392958 0.93338853
6.84232950 -1.69652867 2.50361753 0.98960185 -0.47169209 0.94697589
6.33333206 -1.74752510 1.89048851 0.91598588 -0.48587081 0.71506411
6.40714693 -1.72485375 1.90961254 0.92666167 -0.47956741 0.72229761
5.97535515 -1.73880100 2.13920999 0.86421192 -0.48344520 0.80914128
6.48834372 -1.70329499 1.93098640 0.93840510 -0.47357333 0.73038214
6.07688379 -1.72732568 2.17219925 0.87889594 -0.48025468 0.82161921
6.62711620 -1.69570327 1.96979702 0.95847571 -0.47146258 0.74506199
6.18577099 -1.71668482 2.20782781 0.89464420 -0.47729617 0.83509547
6.78651476 -1.69159925 2.01479483 0.98152941 -0.47032154 0.76208210
6.34028149 -1.71722317 2.25995064 0.91699094 -0.47744584 0.85481060
6.49233389 -1.72608638 2.31207371 0.93898219 -0.47991011 0.87452573
6.70210934 -1.73748934 2.38399053 0.96932191 -0.48308051 0.90172780
6.72203970 -1.69768310 2.38728929 0.97220439 -0.47201306 0.90297550
