-0.71689367 14.41897583 2.48172832 -0.25434628 0.98294896 0.92103106
-0.76604307 14.07903957 2.42301583 -0.27178395 0.95977533 0.89924139
-0.91827488 12.55115223 2.15898204 -0.32579419 0.85561848 0.80125189
-1.14944887 11.83285999 2.66530275 -0.40781227 0.80665213 0.98916012
-1.14826357 11.10773754 2.50143361 -0.40739176 0.75722015 0.92834419
-1.20116377 10.94911480 2.46688819 -0.42616019 0.74640679 0.91552353
-1.05957246 11.71526432 2.01580644 -0.37592509 0.79863560 0.74811590
-1.23494053 10.79028797 2.43189979 -0.43814382 0.73557949 0.90253848
-0.64031160 14.61999702 2.43952703 -0.22717577 0.99665272 0.90536916
-1.29178512 10.69326782 2.41152692 -0.45831168 0.72896558 0.89497757
-0.70769745 14.11341381 2.35452938 -0.25108355 0.96211869 0.87382442
-1.35070610 10.62110901 2.39691162 -0.47921622 0.72404647 0.88955349
-0.88371283 14.17871284 1.59496319 -0.31353194 0.96657014 0.59193051
-1.22988260 11.24085999 1.93649340 -0.43634930 0.76629519 0.71868086
-1.41191411 10.57182598 2.38761091 -0.50093216 0.72068679 0.88610178
-1.29381287 11.17616272 1.92653632 -0.45903111 0.76188475 0.71498555
-0.82912135 13.19206810 2.20020008 -0.29416347 0.89931005 0.81654894
-1.48653078 10.62067604 2.40089750 -0.52740538 0.72401696 0.89103276
-1.01886725 13.60431004 1.52615082 -0.36148331 0.92741281 0.56639254
-1.35552454 11.09937572 1.91451919 -0.48092574 0.75665015 0.71052569
-0.87886709 12.69668198 2.11720228 -0.31181273 0.86553931 0.78574640
-1.55008519 10.58990479 2.39602566 -0.54995382 0.72191924 0.88922471
-1.40630412 11.08114052 1.91245902 -0.49894181 0.75540704 0.70976108
-0.91762775 12.40130043 2.06787038 -0.32556459 0.84540302 0.76743811
-1.59760976 10.56705952 2.39248252 -0.56681502 0.72036189 0.88790977
-1.12285423 11.70071030 2.56686616 -0.39837679 0.79764342 0.95262784
-1.11424863 12.97325897 1.45031190 -0.39532360 0.88439375 0.53824681
-1.47141457 11.03889179 1.90662217 -0.52204227 0.75252694 0.70759487
-1.12796390 11.01338959 2.41561866 -0.40018964 0.75078845 0.89649612
-1.17738521 12.77031898 1.42632449 -0.41772380 0.87055922 0.52934450
-1.54240143 11.04113388 1.90868223 -0.54722768 0.75267977 0.70835942
-1.03163815 11.89755440 1.98453927 -0.36601427 0.81106240 0.73651189
-1.72452009 10.51151752 2.38451052 -0.61184144 0.71657556 0.88495111
-1.19589484 10.99443531 2.41302586 -0.42429081 0.74949628 0.89553386
-1.24889588 12.67575264 1.41566348 -0.44309503 0.86411256 0.52538794
-1.60914826 11.01368332 1.90559208 -0.57090873 0.75080842 0.70721263
-1.08610511 11.66892147 1.94687355 -0.38533857 0.79547638 0.72253317
-1.80080819 10.56005573 2.39824009 -0.63890767 0.71988440 0.89004654
-1.24473047 10.80819225 2.37326932 -0.44161719 0.73680001 0.88077927
-1.32683301 12.65186214 1.41372502 -0.47074628 0.86248392 0.52466851
-1.14349103 11.49896431 1.91920769 -0.40569851 0.78389031 0.71226567
-1.87502527 10.59268856 2.40842676 -0.66523910 0.72210902 0.89382702
-1.30171263 10.70902824 2.35295892 -0.46183383 0.73003995 0.87324154
-1.38446295 12.62771130 1.41154432 -0.49119279 0.86083758 0.52385920
-0.70282465 14.17023945 1.93259919 -0.24935474 0.96599251 0.71723562
-1.72767174 10.97975826 1.90284538 -0.61295962 0.74849576 0.70619321
-1.18259573 11.34631538 1.89420831 -0.41957244 0.77348417 0.70298779
-1.92210019 10.56838989 2.40488362 -0.68194079 0.72045255 0.89251208
-1.34251869 10.62526226 2.33567357 -0.47631142 0.72432959 0.86682653
-0.67284024 14.55462170 2.32411885 -0.23871659 0.99219602 0.86253828
-1.46540070 12.63256550 1.41324043 -0.51990867 0.86116850 0.52448869
-0.77179295 13.81583405 1.88144493 -0.27382395 0.94183248 0.69825101
-1.80081165 10.99395561 1.90730882 -0.63890886 0.74946362 0.70784974
-1.24853146 11.28964996 1.88587523 -0.44296575 0.76962125 0.69989520
-1.98992360 10.56376839 2.40665507 -0.70600379 0.72013754 0.89316952
-1.40443993 10.57982826 2.32746291 -0.49828041 0.72123230 0.86377937
-1.54474401 12.62310886 1.41324043 -0.54805881 0.86052382 0.52448869
-1.16197360 13.15110111 1.39803493 -0.41225591 0.89651734 0.51884550
-1.31289983 11.22476864 1.87620878 -0.46580294 0.76519823 0.69630772
-2.07509303 10.64673805 2.42879963 -0.73622102 0.72579360 0.90138793
-1.47009051 10.56499100 2.32616663 -0.52157253 0.72022086 0.86329830
-0.78469908 13.36651516 2.13304043 -0.27840292 0.91120219 0.79162431
-1.62505305 12.62102795 1.41420960 -0.57655162 0.86038196 0.52484834
-1.23352718 13.02485943 1.38416004 -0.43764237 0.88791138 0.51369619
-1.38197339 11.20455265 1.87420893 -0.49030951 0.76382011 0.69556552
-2.15827298 10.71376038 2.44740105 -0.76573241 0.73036253 0.90829140
-1.53255665 10.52848530 2.32011652 -0.54373485 0.71773225 0.86105293
-0.84297585 12.97521019 2.07041287 -0.29907891 0.88452673 0.76838171
-1.70405161 12.60860157 1.41396737 -0.60457945 0.85953486 0.52475846
-1.31671655 13.03068924 1.38577878 -0.46715707 0.88830876 0.51429695
-0.96674347 12.94242954 1.75601614 -0.34299034 0.88229209 0.65170127
-1.45159543 11.18977928 1.87320888 -0.51501065 0.76281297 0.69519436
-2.22474504 10.69617081 2.44651508 -0.78931594 0.72916347 0.90796256
-1.60273457 10.54568386 2.32616663 -0.56863326 0.71890467 0.86329830
-0.89995366 12.63294315 2.01577330 -0.31929404 0.86119419 0.74810356
-1.07778645 11.76631355 2.49280667 -0.38238722 0.80211562 0.92514253
-1.78492796 12.60943699 1.41542113 -0.63327354 0.85959178 0.52529800
-1.40629983 13.09525490 1.39433491 -0.49894029 0.89271027 0.51747233
-1.52134895 11.17652893 1.87254226 -0.53975850 0.76190972 0.69494700
-2.30717659 10.75251007 2.46290207 -0.81856179 0.73300415 0.91404420
-1.66835928 10.53154755 2.32530236 -0.59191620 0.71794099 0.86297750
-0.95749527 12.35149765 1.97103941 -0.33970916 0.84200794 0.73150176
-1.12958038 11.53745079 2.44512081 -0.40076315 0.78651392 0.90744513
-1.84694433 12.61856079 1.41760182 -0.65527630 0.86021376 0.52610731
-1.46537340 13.06478786 1.39155996 -0.51989895 0.89063329 0.51644248
-1.00103605 14.02921486 1.44312191 -0.35515699 0.95637876 0.53557843
-0.70444959 14.40346718 1.89369678 -0.24993125 0.98189175 0.70279795
-1.57073998 11.14579678 1.86854243 -0.55728191 0.75981468 0.69346255
-2.35444736 10.72628498 2.45935893 -0.83533299 0.73121637 0.91272926
-1.71796930 10.52356815 2.32530236 -0.60951728 0.71739703 0.86297750
-0.99769402 12.13240242 1.93621075 -0.35397127 0.82707208 0.71857595
-1.93103981 12.63809967 1.42147851 -0.68511248 0.86154574 0.52754599
-1.54627848 13.04545689 1.39040375 -0.54860324 0.88931549 0.51601338
-1.06768608 13.75121307 1.41249907 -0.37880370 0.93742728 0.52421355
-1.12229288 12.19869423 1.64966178 -0.39817762 0.83159125 0.61223048
-0.77557343 14.03884029 1.84288561 -0.27516523 0.95703495 0.68394065
-1.64102364 11.13765907 1.86887574 -0.58221781 0.75925994 0.69358623
-2.40098119 10.62000656 2.43810034 -0.85184270 0.72397131 0.90483963
-1.78244126 10.50293732 2.32314157 -0.63239127 0.71599060 0.86217558
-1.05438399 11.90959930 1.90106249 -0.37408426 0.81188351 0.70553154
-1.18831336 10.91006947 2.31293917 -0.42160100 0.74374503 0.85838926
-2.01198530 12.63551712 1.42269003 -0.71383107 0.86136967 0.52799565
-1.61459684 12.92507172 1.37745380 -0.57284182 0.88110876 0.51120734
-1.13748264 13.55016899 1.39059353 -0.40356678 0.92372197 0.51608384
-1.71037829 11.12322998 1.86820900 -0.60682410 0.75827628 0.69333881
-2.47479010 10.63509083 2.44518661 -0.87802929 0.72499961 0.90746957
-1.85107863 10.50692081 2.32659864 -0.65674311 0.71626216 0.86345857
-1.11438799 11.74945641 1.87613928 -0.39537305 0.80096650 0.69628191
-1.24272954 10.78195381 2.28700471 -0.44090727 0.73501134 0.84876430
-2.10050941 12.67745113 1.42947435 -0.74523848 0.86422837 0.53051347
-1.70701945 13.00135517 1.38762879 -0.60563242 0.88630903 0.51498353
-1.19807422 13.27556896 1.36041760 -0.42506403 0.90500236 0.50488478
-1.78085029 11.11615849 1.86887574 -0.63182682 0.75779420 0.69358623
-2.53744555 10.60226822 2.44120049 -0.90025878 0.72276205 0.90599018
-1.91671145 10.49316120 2.32616663 -0.68002892 0.71532416 0.86329830
-1.17221975 11.58707142 1.85089648 -0.41589114 0.78989661 0.68691373
-0.67769098 14.47894859 2.17967987 -0.24043758 0.98703736 0.80893338
-1.29702187 10.66523647 2.26358008 -0.46016961 0.72705466 0.84007084
-2.18488097 12.69138718 1.43286645 -0.77517259 0.86517841 0.53177238
-1.77956557 12.92344666 1.37976635 -0.63137102 0.88099802 0.51206559
-1.27253485 13.17679214 1.35013545 -0.45148188 0.89826870 0.50106883
-0.96664792 13.01239967 1.70022309 -0.34295645 0.88706195 0.63099504
-2.43305302 11.01685905 1.93202984 -0.86322141 0.75102496 0.71702433
-1.85098016 11.10669613 1.86920905 -0.65670812 0.75714916 0.69370997
-2.61668491 10.63722706 2.45315862 -0.92837209 0.72514522 0.91042817
-1.98188496 10.47707176 2.32530236 -0.70315176 0.71422738 0.86297750
-1.23813641 11.51667404 1.84067154 -0.43927768 0.78509760 0.68311900
-1.35619640 10.59675312 2.25061297 -0.48116410 0.72238612 0.83525842
-2.27127123 12.71452999 1.43747020 -0.80582297 0.86675602 0.53348094
-1.87082076 12.98281193 1.38809121 -0.66374737 0.88504493 0.51515514
-1.35963809 13.21004772 1.35482955 -0.48238519 0.90053576 0.50281096
-1.92172730 11.10067749 1.87020898 -0.68180847 0.75673890 0.69408107
-2.70705128 10.71318817 2.47486019 -0.96043313 0.73032355 0.91848212
-2.05064559 10.47974968 2.32875943 -0.72754735 0.71440989 0.86426049
-1.30752432 11.48317051 1.83651769 -0.46389577 0.78281361 0.68157738
-0.79467225 13.35016727 2.00848413 -0.28194129 0.91008776 0.74539840
-1.42090142 10.57445717 2.24768496 -0.50412077 0.72086620 0.83417177
-2.34272623 12.76615334 1.44522369 -0.83117443 0.87027520 0.53635842
-1.94269347 13.04657078 1.39664745 -0.68924707 0.88939142 0.51833057
-1.42964339 13.27462006 1.36287642 -0.50722235 0.90493768 0.50579733
-0.70331562 14.66909885 1.84817696 -0.24952893 1.00000000 0.68590444
-1.97435856 11.09344101 1.87054229 -0.70048147 0.75624555 0.69420475
-2.78397560 10.80225086 2.49877620 -0.98772502 0.73639500 0.92735797
-2.10152888 10.47763157 2.33048797 -0.74560016 0.71426553 0.86490202
-1.36115062 11.47296143 1.83587861 -0.48292181 0.78211766 0.68134022
-0.83418065 12.97333908 1.95141888 -0.29595846 0.88439918 0.72422004
-1.47016990 10.56377125 2.24684834 -0.52160072 0.72013772 0.83386129
-1.03156793 12.06260777 2.44598675 -0.36598936 0.82231414 0.90776652
-2.03428936 13.09693909 1.40404737 -0.72174430 0.89282507 0.52107686
-1.51210856 13.25747776 1.36198235 -0.53648007 0.90376908 0.50546551
-1.12609935 12.26987553 1.59776306 -0.39952812 0.83644372 0.59296960
-0.77686411 14.32995987 1.80285239 -0.27562314 0.97688073 0.66908336
-2.05004311 11.11379623 1.87620878 -0.72733355 0.75763321 0.69630772
-2.17281342 10.49100113 2.33653784 -0.77089119 0.71517694 0.86714727
-1.43122315 11.44851398 1.83332241 -0.50778282 0.78045106 0.68039155
-0.85480869 12.08618641 1.81645489 -0.30327708 0.82392156 0.67413157
-1.53508735 10.54465103 2.24475694 -0.54463273 0.71883428 0.83308512
-1.07655072 11.71439362 2.37574315 -0.38194880 0.79857624 0.88169736
-2.09894228 12.97405052 1.39109743 -0.74468249 0.88444769 0.51627082
-1.26648426 12.91899109 1.69073093 -0.44933519 0.88069427 0.62747228
-2.12166429 11.11038399 1.87787545 -0.75274402 0.75740057 0.69692630
-2.24434876 10.50388813 2.34258771 -0.79627115 0.71605545 0.86939251
-1.50078154 11.42168236 1.83044660 -0.53246140 0.77862197 0.67932427
-0.92939401 12.06283379 1.81373751 -0.32973915 0.82232958 0.67312306
-1.60012019 10.52706623 2.24308372 -0.56770569 0.71763551 0.83246416
-1.12548006 11.45191574 2.32316089 -0.39930838 0.78068298 0.86218274
-2.19805217 13.06642246 1.40358484 -0.77984560 0.89074475 0.52090526
-1.66719699 13.14872169 1.35192370 -0.59150380 0.89635509 0.50173247
-1.19022000 13.21303082 1.26253712 -0.42227745 0.90073907 0.46855891
-1.33973312 12.83394623 1.67984283 -0.47532311 0.87489671 0.62343144
-2.19483781 11.11425209 1.88087535 -0.77870518 0.75766426 0.69803959
-2.31821370 10.52582836 2.35079837 -0.82247764 0.71755111 0.87243974
-1.57278895 11.41398239 1.83076620 -0.55800885 0.77809703 0.67944288
-1.00500727 12.05478573 1.81343555 -0.35656592 0.82178092 0.67301100
-1.66839981 10.53032207 2.24601173 -0.59193057 0.71785748 0.83355081
-1.15652239 11.04701710 2.24127698 -0.41032189 0.75308084 0.83179361
-1.75296426 13.16162300 1.35460603 -0.62193316 0.89723462 0.50272799
-1.27941477 13.27063274 1.26946914 -0.45392281 0.90466583 0.47113156
-1.42378235 12.85677528 1.68430972 -0.50514287 0.87645298 0.62508923
-2.27048802 11.12923622 1.88587523 -0.80554509 0.75868577 0.69989520
-2.41814613 10.66156483 2.38493705 -0.85793263 0.72680438 0.88510942
-1.64418840 11.40192127 1.83044660 -0.58334064 0.77727485 0.67932427
-1.07570291 11.99111843 1.80467951 -0.38164800 0.81744069 0.66976142
-1.73485231 10.52156067 2.24642992 -0.61550725 0.71726018 0.83370602
-1.20804441 10.87592316 2.20756006 -0.42860135 0.74141729 0.81928045
-1.84701490 13.23103523 1.36377048 -0.65530133 0.90196645 0.50612915
-1.35996687 13.23462868 1.26652825 -0.48250183 0.90221143 0.47004011
-2.34238410 11.12440300 1.88754189 -0.83105308 0.75835627 0.70051372
-2.48464632 10.64425850 2.38450480 -0.88152617 0.72562456 0.88494903
-1.71758091 11.40307617 1.83236384 -0.60937953 0.77735358 0.68003577
-1.13988197 11.86602306 1.78656363 -0.40441805 0.80891287 0.66303819
-1.80126047 10.51237965 2.24684834 -0.63906813 0.71663433 0.83386129
-1.26713407 10.78831768 2.19110322 -0.44956574 0.73544514 0.81317288
-0.76291418 13.95026016 2.69451094 -0.27067387 0.95099640 1.00000000
-1.90389001 13.18481827 1.35952353 -0.67548001 0.89881581 0.50455296
-1.41980302 13.20433903 1.26400757 -0.50373107 0.90014654 0.46910465
-2.40219593 11.14795494 1.89354169 -0.85227364 0.75996178 0.70274037
-2.53477836 10.63243103 2.38450480 -0.89931250 0.72481829 0.88494903
-1.77068388 11.39095497 1.83172476 -0.62821990 0.77652723 0.67979860
-1.85249400 10.51340199 2.24893975 -0.65724522 0.71670401 0.83463746
-1.30742478 10.69468880 2.17304063 -0.46386045 0.72906244 0.80646938
-0.85030591 13.94127274 2.69374418 -0.30167952 0.95038372 0.99971545
-2.00465846 13.29048347 1.37293506 -0.71123159 0.90601909 0.50953031
-1.50784636 13.24061680 1.26883900 -0.53496790 0.90261966 0.47089770
-2.47643352 11.15190029 1.89687490 -0.87861234 0.76023078 0.70397747
-2.63612676 10.75860786 2.41691494 -0.93526983 0.73341984 0.89697725
-1.84158206 11.37570763 1.83108568 -0.65337378 0.77548784 0.67956144
-1.91993523 10.50924778 2.25061297 -0.68117267 0.71642083 0.83525842
-1.37237859 10.66876888 2.16942811 -0.48690537 0.72729546 0.80512869
-0.87311292 12.99371815 2.50934172 -0.30977121 0.88578844 0.93127912
-2.10682917 13.39539719 1.38634658 -0.74748069 0.91317111 0.51450771
-1.59241605 13.24273205 1.27009928 -0.56497234 0.90276384 0.47136542
-2.55735779 11.18420029 1.90520811 -0.90732342 0.76243269 0.70707011
-2.71408200 10.78351212 2.42642212 -0.96292752 0.73511755 0.90050560
-1.91268981 11.36196613 1.83076620 -0.67860210 0.77455109 0.67944288
-1.98372519 10.48545074 2.24810314 -0.70380467 0.71479857 0.83432698
-1.43550730 10.63080311 2.16340709 -0.50930279 0.72470731 0.80289418
-0.92872494 12.64151573 2.44148469 -0.32950178 0.86177862 0.90609568
-2.16988873 13.25443935 1.37181747 -0.76985353 0.90356195 0.50911558
-1.67879963 13.25812149 1.27283013 -0.59562033 0.90381294 0.47237891
-1.16942930 13.17010689 1.19262838 -0.41490114 0.89781296 0.44261405
-2.64102650 11.22552299 1.91520774 -0.93700820 0.76524967 0.71078122
-2.78517818 10.77948761 2.42944694 -0.98815173 0.73484319 0.90162814
-1.98850513 11.37499905 1.83492005 -0.70550054 0.77543950 0.68098444
-2.05146408 10.48237324 2.25019479 -0.72783774 0.71458876 0.83510321
-1.50092030 10.61187077 2.16140008 -0.53251064 0.72341669 0.80214930
-0.97150600 12.18544960 2.35330892 -0.34468004 0.83068836 0.87337142
-2.25682545 13.26209068 1.37427616 -0.80069774 0.90408355 0.51002806
-1.76206911 13.24731159 1.27283013 -0.62516344 0.90307605 0.47237891
-1.40787113 12.86703587 1.61243558 -0.49949777 0.87715244 0.59841496
-2.71656919 11.22980118 1.91887438 -0.96380997 0.76554132 0.71214199
-2.06598210 11.39529419 1.84035206 -0.73298854 0.77682304 0.68300039
-2.12002516 10.48268986 2.25312281 -0.75216246 0.71461034 0.83618987
-1.57322443 10.64100647 2.16942811 -0.55816334 0.72540289 0.80512869
-0.99488568 11.78569126 2.27586746 -0.35297489 0.80343664 0.84463102
-1.82689261 13.25659752 1.27472067 -0.64816213 0.90370905 0.47308055
-2.51240206 13.22684479 1.82682276 -0.89137363 0.90168083 0.67797935
-2.12476468 11.41259670 1.84482551 -0.75384396 0.77800256 0.68466061
-1.54461539 11.78426075 1.78112876 -0.54801315 0.80333912 0.66102117
-2.17780733 10.51278496 2.26190710 -0.77266294 0.71666193 0.83944994
-1.60378551 10.50366783 2.14253473 -0.56900609 0.71604043 0.79514790
-1.05463731 11.62479591 2.24558091 -0.37417415 0.79246831 0.83339089
-1.91408241 13.27242279 1.27766156 -0.67909616 0.90478790 0.47417197
-1.40704334 13.24290276 1.20224500 -0.49920407 0.90277547 0.44618300
-2.19567585 11.39514542 1.84418643 -0.77900255 0.77681291 0.68442345
-1.61862719 11.77432346 1.78112876 -0.57427180 0.80266166 0.66102117
-2.24546719 10.50654125 2.26358008 -0.79666793 0.71623629 0.84007084
-1.08557487 11.19209957 2.16200566 -0.38515046 0.76297116 0.80237406
-2.00242305 13.29357719 1.28123271 -0.71043849 0.90622997 0.47549731
-1.48909414 13.22391510 1.20124328 -0.52831483 0.90148109 0.44581124
-2.27267742 11.40822315 1.84865975 -0.80632186 0.77770442 0.68608361
-1.69452238 11.77762318 1.78324234 -0.60119855 0.80288661 0.66180557
-2.32247090 10.54186344 2.27445579 -0.82398808 0.71864426 0.84410709
-1.71983087 10.38600540 2.12246513 -0.61017776 0.70801932 0.78769958
-1.13493371 10.98593903 2.12290144 -0.40266246 0.74891710 0.78786153
-0.68157321 14.01599693 2.57744241 -0.24181496 0.95547771 0.95655298
-2.08927083 13.30235195 1.28354335 -0.74125117 0.90682817 0.47635484
-1.57810533 13.26368904 1.20625186 -0.55989504 0.90419251 0.44767004
-2.34992981 11.42078209 1.85313320 -0.83373022 0.77856058 0.68774378
-1.77342808 11.79998875 1.78837514 -0.62919348 0.80441129 0.66371047
-2.38909745 10.52896976 2.27487421 -0.84762645 0.71776527 0.84426236
-1.83268523 10.65507221 2.18066692 -0.65021729 0.72636175 0.80929971
-1.19284165 10.87909889 2.10334945 -0.42320758 0.74163377 0.78060526
-2.17726183 13.31644917 1.28648424 -0.77246940 0.90778917 0.47744629
-1.66191292 13.25745964 1.20665264 -0.58962911 0.90376782 0.44781879
-2.42784309 11.43474960 1.85792613 -0.86137301 0.77951276 0.68952256
-1.84420347 11.76712227 1.78505397 -0.65430385 0.80217075 0.66247791
-2.46417212 10.55182457 2.28324008 -0.87426215 0.71932328 0.84736717
-1.88494956 10.56037998 2.16340709 -0.66876012 0.71990651 0.80289418
-1.25979412 10.85969353 2.10104918 -0.44696161 0.74031091 0.77975160
-2.43343949 13.18602848 1.75103438 -0.86335856 0.89889830 0.64985240
-1.75017416 13.28423405 1.21045911 -0.62094325 0.90559304 0.44923148
-1.28073657 13.50130844 1.12245667 -0.45439175 0.92039114 0.41657159
-1.36711133 12.47460938 1.47028017 -0.48503661 0.85040051 0.54565752
-2.50474763 11.44240379 1.86176050 -0.88865793 0.78003454 0.69094563
-1.92062199 11.77091694 1.78746939 -0.68141633 0.80242944 0.66337430
-2.54653239 10.60266209 2.29788041 -0.90348274 0.72278893 0.85280055
-1.94562089 10.51749134 2.15698481 -0.69028568 0.71698278 0.80051070
-1.30665302 10.81856632 2.09414864 -0.46358666 0.73750722 0.77719063
-2.49957180 13.19582558 1.75410545 -0.88682157 0.89956623 0.65099216
-1.81711030 13.30737877 1.21366465 -0.64469147 0.90717083 0.45042112
-1.43188059 12.52125263 1.47714865 -0.50801605 0.85358024 0.54820657
-2.56602907 11.46321392 1.86719251 -0.91039991 0.78145319 0.69296157
-1.98158181 11.79489040 1.79260218 -0.70304424 0.80406374 0.66527921
-2.60913730 10.64180756 2.30917454 -0.92569429 0.72545749 0.85699207
-2.00095081 10.53901577 2.16340709 -0.70991611 0.71845013 0.80289418
-1.37510431 10.81403637 2.09491539 -0.48787242 0.73719841 0.77747518
-0.89408630 12.33676624 2.26786613 -0.31721234 0.84100372 0.84166151
-1.90011740 13.29175949 1.21326399 -0.67414153 0.90610605 0.45027244
-2.65051103 11.50071144 1.87613928 -0.94037324 0.78400940 0.69628191
-2.04723930 11.73350143 1.78505397 -0.72633880 0.79987884 0.66247791
-2.69086576 10.68396950 2.32214165 -0.95469064 0.72833169 0.86180449
-2.07460761 10.56470108 2.17143488 -0.73604882 0.72020108 0.80587345
-1.45171773 10.86937332 2.10756660 -0.51505405 0.74097073 0.78217036
-0.94768912 12.02115917 2.21004939 -0.33623007 0.81948858 0.82020426
-2.52243114 12.45273876 1.65192449 -0.89493185 0.84890962 0.61307025
-1.99101794 13.32874966 1.21827269 -0.70639205 0.90862769 0.45213127
-2.73143601 11.52031612 1.88221037 -0.96908456 0.78534585 0.69853508
-2.12998915 11.77100468 1.79290414 -0.75569755 0.80243546 0.66539133
-2.77766418 10.74255562 2.33887362 -0.98548579 0.73232555 0.86801416
-2.14480591 10.57066727 2.17544889 -0.76095438 0.72060782 0.80736315
-1.50840414 10.77841187 2.09146500 -0.53516579 0.73476988 0.77619463
-0.99589032 11.68774319 2.14893913 -0.35333133 0.79675943 0.79752475
-2.59257865 12.39786148 1.64634085 -0.91981941 0.84516859 0.61099803
-2.07503438 13.31794262 1.21847296 -0.73620021 0.90789098 0.45220560
-2.21184707 11.80015373 1.79954672 -0.78473991 0.80442256 0.66785651
-2.21874356 10.59343243 2.18307519 -0.78718668 0.72215974 0.81019348
-1.57149041 10.73765469 2.08533096 -0.55754817 0.73199141 0.77391815
-1.05752480 11.55004501 2.12442183 -0.37519860 0.78737247 0.78842574
-2.28407955 11.77631569 1.79803705 -0.81036723 0.80279750 0.66729623
-2.28936076 10.59844208 2.18708920 -0.81224096 0.72250122 0.81168318
-1.63832545 10.72368908 2.08456421 -0.58126050 0.73103940 0.77363360
-1.09319770 11.15955830 2.05269980 -0.38785496 0.76075280 0.76180792
-2.24890423 13.33005047 1.22247994 -0.79788738 0.90871638 0.45369270
-2.39184713 13.04949379 1.65615106 -0.84860200 0.88959068 0.61463881
-2.36303639 11.78694153 1.80196214 -0.83838028 0.80352187 0.66875297
-2.35928416 10.59915447 2.19030046 -0.83704901 0.72254980 0.81287497
-1.66843271 10.58791542 2.05926156 -0.59194225 0.72178364 0.76424319
-1.13689208 11.06624889 2.03623295 -0.40335727 0.75439185 0.75569665
-2.34505534 12.46755028 1.57757056 -0.83200079 0.84991932 0.58547568
-2.42171049 11.79117393 1.80437756 -0.85919720 0.80381036 0.66964936
-2.41524100 10.61467743 2.19591975 -0.85690188 0.72360802 0.81496042
-1.19235349 10.92790031 2.01171565 -0.42303437 0.74496055 0.74659771
-2.43441415 12.50897026 1.58534813 -0.86370432 0.85274291 0.58836210
-2.50957441 11.84150887 1.81464338 -0.89037043 0.80724174 0.67345929
-2.48942018 10.63173771 2.20274353 -0.88321990 0.72477102 0.81749290
-1.81369066 10.63768482 2.07344651 -0.64347821 0.72517645 0.76950753
-1.25344574 10.85376835 1.99927402 -0.44470927 0.73990697 0.74198031
-2.52477956 12.55169868 1.59339392 -0.89576501 0.85565573 0.59134811
-2.05746293 12.54636860 1.49139428 -0.72996604 0.85529238 0.55349350
-1.09704280 11.24663639 2.65470481 -0.38921916 0.76668900 0.98522693
-2.59188390 11.86221886 1.82038009 -0.91957295 0.80865353 0.67558831
-2.56299853 10.64447212 2.20876431 -0.90932471 0.72563910 0.81972736
-1.89190114 10.68984318 2.08609772 -0.67122650 0.72873211 0.77420270
-1.31318533 10.77539730 1.98610055 -0.46590424 0.73456436 0.73709130
-1.15049672 11.07112312 2.61442137 -0.40818405 0.75472414 0.97027677
-2.67886162 11.90165615 1.82913613 -0.95043170 0.81134200 0.67883790
-2.64010453 10.67002010 2.21759486 -0.93668109 0.72738075 0.82300460
-1.94936800 10.62563419 2.07574654 -0.69161510 0.72435492 0.77036113
-1.38160217 10.77278614 1.98719835 -0.49017781 0.73438638 0.73749870
-2.22249317 12.56251049 1.49699080 -0.78851700 0.85639280 0.55557048
-1.22003543 11.06367588 2.61442137 -0.43285564 0.75421649 0.97027677
-2.72050667 10.70641708 2.22883391 -0.96520692 0.72986197 0.82717568
-2.01202250 10.59197140 2.07152963 -0.71384424 0.72206014 0.76879615
-1.44331133 10.71906281 1.97878194 -0.51207155 0.73072404 0.73437518
-2.31095934 12.60099697 1.50385928 -0.81990391 0.85901642 0.55811960
-1.31526387 11.28001690 2.66813254 -0.46664169 0.76896453 0.99021029
-2.80048776 10.73842907 2.23927021 -0.99358338 0.73204422 0.83104885
-2.05433273 10.54385281 2.06386209 -0.72885549 0.71877986 0.76595056
-1.49621868 10.72967339 1.98207533 -0.53084254 0.73144734 0.73559743
-2.38450789 12.66602039 1.51378036 -0.84599811 0.86344910 0.56180155
-2.13149238 10.58459663 2.07459664 -0.75623089 0.72155738 0.76993442
-1.56248462 10.71227551 1.98061168 -0.55435300 0.73026133 0.73505425
-2.46742892 12.66831779 1.51606977 -0.87541765 0.86360574 0.56265116
-1.45015252 11.35174179 2.68896890 -0.51449877 0.77385408 0.99794322
-2.23504996 10.74773216 2.10986686 -0.79297203 0.73267841 0.78302407
-1.62742174 10.68669224 1.97768426 -0.57739198 0.72851729 0.73396778
-1.43262386 10.67116642 2.52783513 -0.50827974 0.72745889 0.93814248
-2.30170488 10.72964001 2.10910010 -0.81662053 0.73144507 0.78273946
-1.69179451 10.65877247 1.97439086 -0.60023075 0.72661400 0.73274553
-1.56969178 11.16688251 2.64914846 -0.55691004 0.76125211 0.98316485
-2.36651134 10.70347118 2.10679984 -0.83961314 0.72966111 0.78188580
-1.76158261 10.66539764 1.97768426 -0.62499082 0.72706562 0.73396778
-2.40077925 10.62139034 2.09261513 -0.85177106 0.72406566 0.77662152
-1.81182241 10.65697765 1.97768426 -0.64281541 0.72649163 0.73396778
-2.54010129 10.91568089 2.15472150 -0.90120101 0.74412757 0.79967070
-1.88111258 10.65894222 1.98024571 -0.66739881 0.72662556 0.73491842
-2.60265136 10.87469959 2.14973760 -0.92339313 0.74133384 0.79782104
-1.95084906 10.66239071 1.98317313 -0.69214058 0.72686064 0.73600483
-2.01816630 10.65185547 1.98353910 -0.71602404 0.72614247 0.73614067
-2.75556374 10.90581226 2.16277242 -0.97764480 0.74345481 0.80265862
-2.08954811 10.66212749 1.98793018 -0.74134952 0.72684270 0.73777032
-2.81857347 10.86739254 2.15855527 -1.00000000 0.74083573 0.80109352
-2.16616488 10.69698429 1.99707842 -0.76853234 0.72921890 0.74116546
-2.21496606 10.67895412 1.99561477 -0.78584647 0.72798979 0.74062228
-2.28732157 10.68983173 2.00037193 -0.81151748 0.72873133 0.74238777
-2.36116052 10.70598316 2.00622678 -0.83771473 0.72983235 0.74456066
-2.43486071 10.71970940 2.01171565 -0.86386275 0.73076808 0.74659771
-2.51548648 10.76166248 2.02269363 -0.89246792 0.73362803 0.75067192
-2.59627891 10.80111122 2.03330541 -0.92113227 0.73631728 0.75461018
-2.67644691 10.90911484 2.05635905 -0.94957501 0.74367994 0.76316595
-2.77022076 10.99318027 2.07575321 -0.98284495 0.74941075 0.77036363
