1.61011195 13.34500122 2.30833793 0.95385420 0.78626704 0.86380994
1.52358258 13.33135891 2.30421782 0.90259290 0.78546327 0.86226815
1.43332779 13.27993202 2.29357409 0.84912461 0.78243327 0.85828513
1.34162211 13.20633411 2.27915359 0.79479682 0.77809697 0.85288876
1.25530970 13.17919159 2.27297330 0.74366409 0.77649778 0.85057604
1.16939151 13.15148830 2.26679301 0.69276488 0.77486557 0.84826326
1.10659266 13.14703465 2.26507640 0.65556186 0.77460313 0.84762090
1.02171779 13.12425900 2.25992608 0.60528076 0.77326125 0.84569359
0.93896091 13.12648869 2.25923944 0.55625433 0.77339262 0.84543663
0.85546523 13.11639881 2.25649261 0.50679028 0.77279812 0.84440875
1.56245399 13.19294739 2.21153307 0.92562091 0.77730829 0.82758427
0.77360034 13.13134956 2.25820947 0.45829231 0.77367902 0.84505123
1.48843467 13.28088093 2.22486615 0.88177073 0.78248918 0.83257371
0.69057655 13.12611294 2.25649261 0.40910777 0.77337050 0.84440875
1.40096390 13.25271606 2.21853304 0.82995176 0.78082973 0.83020377
1.41075253 14.84211445 1.68073630 0.83575070 0.87447464 0.62895328
0.62807536 13.11544418 2.25408912 0.37208116 0.77274191 0.84350932
1.33507860 13.22582054 2.21286654 0.79092032 0.77924508 0.82808328
0.54534143 13.11125660 2.25271583 0.32306835 0.77249515 0.84299541
1.25157499 13.23002243 2.21219969 0.74145156 0.77949268 0.82783377
0.46288428 13.11245441 2.25237250 0.27421951 0.77256572 0.84286696
1.16295600 13.17673683 2.20186687 0.68895239 0.77635318 0.82396710
1.19729233 15.75695801 1.78976989 0.70929372 0.92837584 0.66975504
0.38102853 13.13479996 2.25580597 0.22572695 0.77388233 0.84415179
1.07669663 13.14251518 2.19486690 0.63785106 0.77433687 0.82134759
1.07226336 15.38388538 1.74324894 0.63522470 0.90639496 0.65234631
0.29861832 13.14284420 2.25683594 0.17690592 0.77435625 0.84453720
0.99193937 15.65385246 1.77547443 0.58763957 0.92230099 0.66440552
0.21629801 13.16219234 2.25992608 0.12813815 0.77549624 0.84569359
0.91731459 13.23762512 2.20886660 0.54343075 0.77994061 0.82658648
0.96998191 16.56215096 1.88596177 0.57463163 0.97581661 0.70575130
1.39542234 15.00896835 1.61587036 0.82666886 0.88430542 0.60467958
0.15475158 13.21035004 2.26816654 0.09167713 0.77833360 0.84877729
0.85687488 13.27131748 2.21386647 0.50762540 0.78192574 0.82845747
0.86316836 16.51438713 1.87941980 0.51135373 0.97300243 0.70330322
0.07179967 13.22485352 2.27056980 0.04253519 0.77918810 0.84967661
0.76593924 13.15045452 2.19253373 0.45375374 0.77480465 0.82047451
1.56936967 13.50397015 2.16627145 0.92971784 0.79563326 0.81064683
0.75965524 16.52543449 1.88014662 0.45003101 0.97365332 0.70357519
1.49935079 14.09825993 1.93115413 0.88823760 0.83064789 0.72266287
-0.01149807 13.30976677 2.28533387 -0.00681163 0.78419107 0.85520148
0.68877530 13.25740623 2.20986652 0.40804070 0.78110605 0.82696062
1.48151422 13.48608494 2.16179800 0.87767094 0.79457951 0.80897278
0.65588480 16.53186417 1.88038898 0.38855588 0.97403210 0.70366591
1.40530515 14.05225658 1.92306197 0.83252358 0.82793742 0.71963465
-0.09611639 13.42370510 2.30524802 -0.05694077 0.79090416 0.86265361
0.60332549 13.21616650 2.20220017 0.35741895 0.77867627 0.82409179
1.39674997 13.49512672 2.16179800 0.82745540 0.79511219 0.80897278
0.55199981 16.53565979 1.88038898 0.32701287 0.97425574 0.70366591
1.04708266 15.46341610 1.66535747 0.62030727 0.91108078 0.62319833
1.31135190 13.99971867 1.91410267 0.77686429 0.82484198 0.71628201
0.52075797 13.23151875 2.20420003 0.30850473 0.77958083 0.82484019
1.28636706 13.23635006 2.11834216 0.76206291 0.77986550 0.79271108
0.44935313 15.63710403 1.77038622 0.26620346 0.92131424 0.66250145
1.24243414 13.97222805 1.90918958 0.73603642 0.82322228 0.71444345
0.45476434 13.13331795 2.18720055 0.26940912 0.77379501 0.81847876
1.23398554 13.35237217 2.13623571 0.73103130 0.78670132 0.79940706
0.35080025 15.62572479 1.76869011 0.20781927 0.92064381 0.66186672
1.15414000 13.97384071 1.90832257 0.68372965 0.82331729 0.71411902
1.13725770 13.20838070 2.11163211 0.67372829 0.77821755 0.79020005
0.25220159 15.59982967 1.76529789 0.14940795 0.91911811 0.66059732
1.36305332 15.02673531 1.55823743 0.80749297 0.88535225 0.58311260
1.06484115 13.96108150 1.90543258 0.63082767 0.82256556 0.71303755
0.29383528 13.31345654 2.21686625 0.17407237 0.78440845 0.82958007
1.05208933 13.18770981 2.10715866 0.62327331 0.77699965 0.78852606
0.97669494 13.96157360 1.90456545 0.57860857 0.82259452 0.71271306
0.20970123 13.28743649 2.21219969 0.12423011 0.78287542 0.82783377
0.96920830 13.19405937 2.10715866 0.57417333 0.77737379 0.78852606
0.05415747 14.73222160 1.65917182 0.03208369 0.86799997 0.62088358
0.64323026 16.97260666 1.83833086 0.38105914 1.00000000 0.68792719
1.17807078 15.09420013 1.56404912 0.69790661 0.88932717 0.58528745
0.88784766 13.94965839 1.90196443 0.52597409 0.82189250 0.71173972
1.43713248 14.27325916 1.88308787 0.85137856 0.84095860 0.70467585
0.12616672 13.28454781 2.21153307 0.07474303 0.78270525 0.82758427
0.88615972 13.19791889 2.10683918 0.52497417 0.77760118 0.78840649
1.08627820 15.14492130 1.56896663 0.64352727 0.89231557 0.58712763
0.80040324 13.95891285 1.90254247 0.47417074 0.82243776 0.71195602
1.34987772 14.30763531 1.88671732 0.79968756 0.84298396 0.70603406
0.04276099 13.29888248 2.21386647 0.02533225 0.78354979 0.82845747
0.80216610 13.18548870 2.10396338 0.47521508 0.77686882 0.78733033
1.58246112 13.70583916 2.07309771 0.93747342 0.80752707 0.77577996
1.01320517 15.12409019 1.56606078 0.60023773 0.89108825 0.58604020
0.73410928 13.95264816 1.90109742 0.43489721 0.82206869 0.71141523
1.27831089 14.26847553 1.88029611 0.75729030 0.84067672 0.70363116
-0.01990754 13.33640480 2.22019958 -0.01179352 0.78576058 0.83082741
0.73937690 13.17729378 2.10204625 0.43801785 0.77638596 0.78661293
1.48655927 13.43414974 2.03022337 0.88065976 0.79151952 0.75973588
0.90979987 14.98929501 1.55019057 0.53897893 0.88314629 0.58010137
0.64722639 13.97477818 1.90369844 0.38342652 0.82337254 0.71238858
1.18997180 14.29201317 1.88252950 0.70495695 0.84206355 0.70446688
-0.10531651 13.59434700 2.26386499 -0.06239106 0.80095810 0.84716755
0.65694815 13.18956757 2.10332441 0.38918582 0.77710915 0.78709120
1.39837623 13.40783501 2.02478838 0.82841879 0.78996909 0.75770199
0.55971313 13.98647881 1.90485454 0.33158234 0.82406193 0.71282125
1.09922111 14.28736115 1.88085437 0.65119487 0.84178942 0.70384002
1.68800640 14.76018715 1.87124157 1.00000000 0.86964762 0.70024282
0.57406324 13.19343472 2.10332441 0.34008357 0.77733696 0.78709120
1.31077850 13.38291073 2.01965570 0.77652460 0.78850061 0.75578129
1.31365561 15.46429825 1.50053799 0.77822906 0.91113275 0.56152076
0.47195071 13.99367523 1.90543258 0.27959061 0.82448590 0.71303755
1.00957227 14.29596138 1.88113356 0.59808558 0.84229618 0.70394450
1.59082019 14.72911549 1.86560953 0.94242543 0.86781693 0.69813526
0.49122605 13.19875431 2.10364389 0.29100958 0.77765042 0.78721076
1.22336590 13.35544872 2.01422071 0.72474009 0.78688258 0.75374746
1.20235956 15.29579353 1.48184252 0.71229559 0.90120476 0.55452466
0.38427413 14.00625610 1.90687752 0.22764969 0.82522714 0.71357822
0.91881943 14.28818893 1.87917936 0.54432225 0.84183824 0.70321321
1.48499572 14.60669327 1.84764063 0.87973344 0.86060399 0.69141102
0.40811270 13.19565964 2.10268521 0.24177201 0.77746809 0.78685200
1.13771784 13.34317493 2.01120162 0.67400092 0.78615946 0.75261766
0.53391540 15.03920555 1.55376697 0.31629938 0.88608694 0.58143973
1.10389364 15.27130985 1.47848141 0.65396297 0.89976221 0.55326688
0.29661396 14.02620220 1.90947866 0.17571850 0.82640237 0.71455163
0.82996637 14.30949593 1.88141274 0.49168438 0.84309357 0.70404899
0.32692689 13.27296734 2.11482739 0.19367634 0.78202289 0.79139578
1.05290687 13.33823586 2.00938988 0.62375760 0.78586847 0.75193971
0.46286377 15.03559494 1.55309641 0.27420735 0.88587421 0.58118880
1.02891028 15.23268890 1.47386014 0.60954171 0.89748669 0.55153751
0.23060295 14.03338051 1.91034567 0.13661261 0.82682532 0.71487606
0.76220101 14.30731583 1.88057530 0.45153916 0.84296513 0.70373559
0.26691636 13.41253948 2.13719440 0.15812521 0.79024631 0.79976583
0.98884612 13.32727718 2.00697446 0.58580709 0.78522277 0.75103581
1.56878257 13.76816940 2.67227530 0.92937005 0.81119949 1.00000000
0.36824587 15.03224564 1.55242574 0.21815431 0.88567692 0.58093780
0.93243545 15.22694206 1.47259974 0.55238855 0.89714813 0.55106586
0.14271729 14.06819439 1.91525877 0.08454783 0.82887650 0.71671462
0.66970623 14.25841331 1.87303734 0.39674389 0.84008390 0.70091480
0.18275760 13.42382240 2.13879204 0.10826831 0.79091108 0.80036366
0.90385729 13.31547642 2.00425696 0.53545845 0.78452748 0.75001889
1.48058748 13.76213837 2.66920829 0.87712198 0.81084412 0.99885225
0.27398986 15.04618549 1.55376697 0.16231565 0.88649821 0.58143973
0.83629704 15.22455692 1.47175944 0.49543476 0.89700758 0.55075145
0.05452276 14.15193176 1.92739701 0.03230009 0.83381015 0.72125691
0.58327091 14.33752918 1.88364625 0.34553832 0.84474528 0.70488483
0.09816907 13.38324547 2.13208199 0.05815681 0.78852034 0.79785269
0.82005185 13.31892014 2.00395513 0.48581088 0.78473037 0.74990594
0.74092019 15.23547077 1.47238970 0.43893209 0.89765060 0.55098730
-0.03474903 14.24302864 1.94069135 -0.02058584 0.83917743 0.72623181
0.49246591 14.32111931 1.88085437 0.29174411 0.84377843 0.70384002
0.01404041 13.46454525 2.14518261 0.00831775 0.79331040 0.80275512
0.73556626 13.30999184 2.00184155 0.43576035 0.78420436 0.74911499
0.08535766 15.15576267 1.56583726 0.05056714 0.89295435 0.58595657
0.64491862 15.23386383 1.47175944 0.38205934 0.89755595 0.55075145
-0.13030601 14.84015846 2.02797127 -0.07719520 0.87435943 0.75889307
0.40253296 14.32591057 1.88113356 0.23846649 0.84406072 0.70394450
0.65292019 13.33409691 2.00486088 0.38679960 0.78562456 0.75024486
-0.01224270 16.34649277 1.69972885 -0.00725276 0.96311033 0.63606054
0.54918933 15.23761559 1.47175944 0.32534790 0.89777696 0.55075145
1.17092490 16.02082253 1.47872186 0.69367325 0.94392234 0.55335683
0.86492407 14.66641331 1.84898150 0.51239383 0.86412263 0.69191283
-0.16488364 14.20988464 2.26596451 -0.09767951 0.83722466 0.84795326
0.56886536 13.33201027 2.00395513 0.33700427 0.78550166 0.74990594
0.47802714 15.25991344 1.47386014 0.28319037 0.89909077 0.55153751
1.08822381 15.91894722 1.46790314 0.64467990 0.93791997 0.54930836
0.82896346 15.29772472 1.93399858 0.49109024 0.90131855 0.72372729
1.41791332 15.59749126 1.86941266 0.83999288 0.91898030 0.69955844
0.50673550 13.35232258 2.00667262 0.30019763 0.78669840 0.75092286
1.02700877 13.24432755 2.56033039 0.60841519 0.78033549 0.95810878
0.38229474 15.26858044 1.47449028 0.22647707 0.89960140 0.55177337
0.98335296 15.84601974 1.45988929 0.58255285 0.93362319 0.54630947
0.78500104 16.42319298 2.08579564 0.46504626 0.96762937 0.78053170
1.39457226 16.47574425 1.98134279 0.82616526 0.97072566 0.74144411
0.42256865 13.34733963 2.00546479 0.25033593 0.78640479 0.75047088
0.94281733 13.23681164 2.55764675 0.55853897 0.77989268 0.95710450
0.28759059 15.33232594 1.48100221 0.17037293 0.90335715 0.55421019
0.06521243 14.38290787 1.88839233 0.03863281 0.84741890 0.70666087
0.88225555 15.82406712 1.45708454 0.52266127 0.93232983 0.54525989
0.68275309 16.45156479 2.08901405 0.40447304 0.96930099 0.78173608
1.21362174 15.51124668 1.85618460 0.71896750 0.91389889 0.69460827
0.33922860 13.36949444 2.00848413 0.20096405 0.78771013 0.75160074
0.85776764 13.21308994 2.55189610 0.50815427 0.77849501 0.95495254
0.19229251 15.40940189 1.48898458 0.11391693 0.90789837 0.55719727
-0.02520188 14.51176071 1.90653920 -0.01492997 0.85501075 0.71345162
0.78243029 15.82134724 1.45628309 0.46352330 0.93216956 0.54495996
0.55232114 15.65925121 1.98120058 0.32720321 0.92261910 0.74139088
1.11425471 15.49284649 1.85287750 0.66010100 0.91281480 0.69337076
0.25538239 13.37926865 2.00969195 0.15129231 0.78828603 0.75205272
0.77573752 13.23585606 2.55534649 0.45955840 0.77983636 0.95624375
1.49019992 13.11843777 2.42302036 0.88281649 0.77291828 0.90672559
0.09775603 15.71460533 1.52112424 0.05791212 0.92588049 0.56922436
0.68334001 15.83390427 1.45708454 0.40482074 0.93290937 0.54525989
0.45435965 15.67826176 1.98334610 0.26916939 0.92373919 0.74219376
1.01582932 15.48370647 1.85084248 0.60179234 0.91227627 0.69260919
0.17156832 13.39840126 2.01240921 0.10163961 0.78941327 0.75306958
0.71284360 13.22956371 2.55342960 0.42229912 0.77946562 0.95552641
1.43958247 13.22694206 2.44204855 0.85282999 0.77931118 0.91384619
0.61012089 15.87473106 1.46089101 0.36144465 0.93531483 0.54668432
0.38019976 15.66834068 1.98173690 0.22523597 0.92315465 0.74159157
0.94371498 15.50218105 1.85262322 0.55907071 0.91336477 0.69327557
0.10886515 13.44453144 2.01935363 0.06449333 0.79213119 0.75566828
0.62952572 13.22985935 2.55266285 0.37294036 0.77948308 0.95523947
1.35298872 13.20247936 2.43582773 0.80153054 0.77786988 0.91151828
0.51177740 15.92399788 1.46549904 0.30318451 0.93821758 0.54840869
0.28144830 15.65258503 1.97932327 0.16673414 0.92222637 0.74068838
0.90163928 16.49813843 1.97981644 0.53414446 0.97204506 0.74087292
0.02452720 13.48646832 2.02569437 0.01453027 0.79460204 0.75804102
0.54576445 13.21786308 2.54959583 0.32331896 0.77877623 0.95409173
1.26522994 13.16179657 2.42667961 0.74954098 0.77547288 0.90809494
0.41347435 15.99851608 1.47271144 0.24494833 0.94260806 0.55110770
0.17157701 14.54620171 1.82940352 0.10164476 0.85703993 0.68458647
0.79697889 16.48366356 1.97727251 0.47214210 0.97119224 0.73992097
-0.06078354 13.68010902 2.05528378 -0.03600907 0.80601108 0.76911378
0.46276960 13.22299290 2.54997921 0.27415156 0.77907848 0.95423520
1.17785728 13.11857605 2.41716552 0.69778013 0.77292639 0.90453464
0.31469163 16.09629822 1.48232806 0.18642798 0.94836926 0.55470634
0.69279337 16.47447205 1.97549188 0.41042104 0.97065067 0.73925465
1.09257674 13.09241199 2.41094470 0.64725864 0.77138489 0.90220672
-0.01161600 14.72756481 1.85380900 -0.00688149 0.86772555 0.69371933
1.00905979 13.08333683 2.40801716 0.59778196 0.77085018 0.90111119
0.47920546 16.26971626 1.94827247 0.28388840 0.95858675 0.72906876
0.94768506 13.09186840 2.40874910 0.56142265 0.77135283 0.90138507
0.38748237 15.69273186 1.87399161 0.22955030 0.92459172 0.70127189
0.86514294 13.09364033 2.40801716 0.51252347 0.77145725 0.90111119
0.28817165 15.65915585 1.86941266 0.17071715 0.92261350 0.69955844
0.06961992 13.68630600 2.63892174 0.04124387 0.80637622 0.98751867
0.78165317 13.07919216 2.40435791 0.46306291 0.77060598 0.89974183
-0.01636396 13.68254757 2.63815522 -0.00969425 0.80615473 0.98723185
0.69902724 13.07599258 2.40289426 0.41411409 0.77041745 0.89919412
-0.10261463 13.71358013 2.64428902 -0.06079043 0.80798316 0.98952717
0.61733347 13.08994579 2.40472388 0.36571750 0.77123958 0.89987880
-0.00778030 14.77903461 1.75621068 -0.00460917 0.87075812 0.65719676
-0.10752649 16.04629517 1.91876364 -0.06370029 0.94542313 0.71802616
0.47329351 13.09397793 2.40435791 0.28038609 0.77147716 0.89974183
0.39212394 13.13206768 2.41094470 0.23230003 0.77372134 0.90220672
0.30960551 13.13427258 2.41094470 0.18341489 0.77385122 0.90220672
0.22748218 13.15758324 2.41496992 0.13476382 0.77522469 0.90371299
0.14527552 13.19610882 2.42192245 0.08606337 0.77749455 0.90631473
0.06255675 13.22821999 2.42777729 0.03705955 0.77938646 0.90850568
0.00040311 13.34634209 2.44973302 0.00023881 0.78634602 0.91672182
