-3.10679841 -2.00644064 1.59047651 -0.78146935 -0.52212656 0.86507428
-3.45610499 -1.99602973 1.68323183 -0.86933225 -0.51941741 0.91552472
-2.67766833 -2.13480997 1.32391143 -0.67352802 -0.55553150 0.72008717
-3.64558697 -2.26629567 1.59758365 -0.91699368 -0.58974743 0.86893994
-2.85289097 -1.85964775 1.46161056 -0.71760267 -0.48392734 0.79498297
-3.42120624 -1.99760640 1.67056859 -0.86055404 -0.51982766 0.90863705
-2.65988493 -2.14806271 1.32169688 -0.66905487 -0.55898023 0.71888268
-3.60920429 -2.27509642 1.58762527 -0.90784216 -0.59203762 0.86352348
-2.82289529 -1.86531544 1.45194566 -0.71005774 -0.48540223 0.78972614
-3.37213063 -1.99771976 1.65236521 -0.84820980 -0.51985717 0.89873606
-3.20802331 -2.37615371 1.52037704 -0.80693102 -0.61833525 0.82694656
-3.59640837 -2.29874277 1.58833659 -0.90462351 -0.59819096 0.86391038
-2.80506039 -1.87890351 1.44872403 -0.70557159 -0.48893818 0.78797382
-3.34529901 -2.01042676 1.64524209 -0.84146065 -0.52316386 0.89486176
-2.92224264 -2.19519448 1.38888788 -0.73504710 -0.57124507 0.75542843
-3.54749107 -2.29876542 1.57268786 -0.89231908 -0.59819686 0.85539889
-3.30113530 -2.01244998 1.62941313 -0.83035195 -0.52369034 0.88625222
-2.85478616 -2.17318273 1.36273527 -0.71807939 -0.56551707 0.74120378
-3.52986288 -2.31894183 1.57126534 -0.88788497 -0.60344726 0.85462517
-2.79324269 -1.92237878 1.45516729 -0.70259905 -0.50025153 0.79147840
-3.28215623 -2.02932119 1.62624729 -0.82557803 -0.52808064 0.88453031
-3.92011213 -2.05424738 1.81414461 -0.98604643 -0.53456712 0.98672932
-2.79957986 -2.15944839 1.34239435 -0.70419306 -0.56194305 0.73014021
-3.51987529 -2.34420538 1.57339919 -0.88537276 -0.61002147 0.85578579
-2.85586739 -1.99270642 1.49543786 -0.71835136 -0.51855260 0.81338191
-3.23499322 -2.02861834 1.60883546 -0.81371486 -0.52789778 0.87505984
-3.81125402 -2.02726007 1.76862490 -0.95866477 -0.52754432 0.96197075
-2.76869941 -2.15670538 1.33222401 -0.69642556 -0.56122923 0.72460848
-3.48096418 -2.34185004 1.56059575 -0.87558526 -0.60940856 0.84882188
-2.83005333 -1.99444544 1.48657835 -0.71185821 -0.51900512 0.80856311
-3.18336701 -2.01751947 1.58746624 -0.80072904 -0.52500957 0.86343694
-3.75303340 -2.01874232 1.74547935 -0.94402027 -0.52532780 0.94938171
-2.74774671 -2.16832972 1.32859170 -0.69115520 -0.56425422 0.72263283
-3.46925974 -2.36579633 1.56201828 -0.87264115 -0.61563998 0.84959561
-2.86197019 -2.04436827 1.51074076 -0.71988642 -0.53199631 0.82170528
-3.15977407 -2.03058887 1.58192611 -0.79479462 -0.52841055 0.86042362
-3.67727995 -2.00749493 1.71539009 -0.92496556 -0.52240092 0.93301588
-2.70189905 -2.16014099 1.31260955 -0.67962289 -0.56212330 0.71393996
-3.43900156 -2.37684512 1.55490530 -0.86503017 -0.61851519 0.84572679
-2.86383557 -2.07312989 1.51879478 -0.72035563 -0.53948081 0.82608593
-3.11761117 -2.03150988 1.56688857 -0.78418916 -0.52865022 0.85224462
-3.61952448 -2.00530028 1.69378757 -0.91043806 -0.52182984 0.92126608
-2.67226863 -2.16426849 1.30461848 -0.67216980 -0.56319737 0.70959353
-3.42094803 -2.39624619 1.55348265 -0.86048907 -0.62356383 0.84495300
-2.83458471 -2.07907915 1.50993526 -0.71299803 -0.54102898 0.82126719
-3.02634549 -1.99985349 1.52652454 -0.76123261 -0.52041245 0.83029026
-3.56354737 -2.00337243 1.67295659 -0.89635783 -0.52132815 0.90993589
-2.64558887 -2.17045641 1.29808033 -0.66545892 -0.56480759 0.70603740
-3.38152122 -2.40026259 1.54210174 -0.85057181 -0.62460899 0.83876282
-2.84048438 -2.11115408 1.52040565 -0.71448201 -0.54937565 0.82696211
-2.89577937 -1.94077718 1.46558297 -0.72839063 -0.50503927 0.79714358
-3.53171158 -2.01465559 1.66369832 -0.88835001 -0.52426434 0.90490025
-2.61893725 -2.17639470 1.29154229 -0.65875506 -0.56635290 0.70248133
-3.35276461 -2.41157126 1.53570008 -0.84333855 -0.62755179 0.83528090
-2.86793280 -2.16002893 1.54295719 -0.72138625 -0.56209415 0.83922809
-2.83929443 -1.92925894 1.44263089 -0.71418267 -0.50204194 0.78465974
-3.48713684 -2.01815963 1.64826798 -0.87713790 -0.52517617 0.89650756
-2.58856750 -2.17206383 1.28137183 -0.65111601 -0.56522590 0.69694948
-3.34437704 -2.42955613 1.53712261 -0.84122878 -0.63223189 0.83605462
-2.84031248 -2.16012216 1.53329229 -0.71443874 -0.56211841 0.83397126
-2.84081483 -1.94983041 1.44817102 -0.71456510 -0.50739515 0.78767306
-3.45694470 -2.02235246 1.63823819 -0.86954349 -0.52626723 0.89105231
-2.56202483 -2.17750192 1.27483368 -0.64443958 -0.56664103 0.69339335
-3.34554458 -2.46279192 1.54494703 -0.84152246 -0.64088070 0.84031039
-2.81946516 -2.17229772 1.52926517 -0.70919490 -0.56528676 0.83178091
-2.93297052 -2.03939915 1.50278103 -0.73774552 -0.53070319 0.81737596
-3.41885781 -2.02883673 1.62589395 -0.85996330 -0.52795458 0.88433814
-3.85199952 -2.03568935 1.74059868 -0.96891373 -0.52973783 0.94672704
-2.52841854 -2.17665720 1.26466322 -0.63598645 -0.56642121 0.68786156
-3.35986185 -2.50626183 1.55917311 -0.84512377 -0.65219265 0.84804809
-2.80145073 -2.18656611 1.52684891 -0.70466363 -0.56899977 0.83046669
-2.91406941 -2.05358934 1.49961531 -0.73299122 -0.53439587 0.81565404
-3.37452292 -2.03108382 1.61046350 -0.84881151 -0.52853936 0.87594539
-3.76060820 -2.01819086 1.70434630 -0.94592559 -0.52518427 0.92700905
-2.50763273 -2.18642068 1.26103091 -0.63075805 -0.56896192 0.68588591
-3.37376356 -2.55000806 1.57339919 -0.84862053 -0.66357654 0.85578579
-2.80766988 -2.22013545 1.53812468 -0.70622796 -0.57773536 0.83659965
-2.86659122 -2.04750323 1.48141193 -0.72104877 -0.53281212 0.80575311
-3.33657598 -2.03673315 1.59811926 -0.83926654 -0.53000945 0.86923122
-3.71524453 -2.02421570 1.68924117 -0.93451500 -0.52675211 0.91879326
-2.47699404 -2.18743539 1.25231338 -0.62305135 -0.56922597 0.68114436
-3.32810259 -2.54828405 1.55917311 -0.83713514 -0.66312790 0.84804809
-2.77944231 -2.22620702 1.53007054 -0.69912773 -0.57931536 0.83221895
-2.83872890 -2.05479097 1.47349739 -0.71404040 -0.53470856 0.80144829
-3.29556441 -2.04002762 1.58423185 -0.82895064 -0.53086674 0.86167777
-3.66508007 -2.02708530 1.67187023 -0.92189687 -0.52749884 0.90934503
-2.45482183 -2.19555378 1.24795461 -0.61747426 -0.57133859 0.67877358
-3.28259778 -2.54608798 1.54494703 -0.82568908 -0.66255647 0.84031039
-2.79086995 -2.26453352 1.54456806 -0.70200223 -0.58928889 0.84010428
-2.84212303 -2.08444095 1.48220336 -0.71489418 -0.54242420 0.80618358
-3.25775957 -2.04486632 1.57188761 -0.81944144 -0.53212589 0.85496360
-3.61826634 -2.03120279 1.65600979 -0.91012156 -0.52857029 0.90071839
-2.43888521 -2.20213652 1.24504876 -0.61346561 -0.57305157 0.67719305
-3.26030159 -2.55341005 1.53996789 -0.82008082 -0.66446185 0.83760220
-2.78157711 -2.27882814 1.54537344 -0.69966471 -0.59300870 0.84054232
-2.93306184 -2.17156959 1.53602195 -0.73776847 -0.56509727 0.83545595
-3.25274611 -2.06318498 1.57420218 -0.81818032 -0.53689289 0.85622251
-3.55858827 -2.02013755 1.63259685 -0.89511043 -0.52569085 0.88798392
-2.41946912 -2.21242142 1.24214303 -0.60858178 -0.57572800 0.67561263
-2.77421474 -2.30214500 1.54940045 -0.69781286 -0.59907633 0.84273267
-2.91640878 -2.18776774 1.53443909 -0.73357964 -0.56931245 0.83459502
-3.97558570 -2.45594931 1.64758325 -1.00000000 -0.63910007 0.89613515
-3.23662519 -2.08156919 1.57265913 -0.81412536 -0.54167694 0.85538328
-3.54904389 -2.04428935 1.63410735 -0.89270967 -0.53197575 0.88880545
-2.78257513 -2.83563280 1.54167879 -0.69991577 -0.73790336 0.83853275
-2.41377068 -2.23512506 1.24650168 -0.60714847 -0.58163601 0.67798334
-2.76387954 -2.32308769 1.55181670 -0.69521320 -0.60452616 0.84404689
-2.90847921 -2.21046162 1.53760493 -0.73158509 -0.57521796 0.83631694
-3.90759897 -2.44768548 1.62521648 -0.98289895 -0.63694966 0.88396966
-3.15108848 -2.05411267 1.53639770 -0.79260987 -0.53453207 0.83566034
-3.46717811 -2.02671051 1.60163128 -0.87211758 -0.52740133 0.87114143
-2.73639655 -2.82354784 1.52543843 -0.68830025 -0.73475850 0.82969946
-2.43659163 -2.28443408 1.26611614 -0.61288869 -0.59446752 0.68865180
-2.70192456 -2.19533086 1.28887701 -0.67962933 -0.57128060 0.70103163
-2.76587582 -2.35474181 1.56148160 -0.69571531 -0.61276335 0.84930366
-2.90037942 -2.23314214 1.54077065 -0.72954768 -0.58112001 0.83803880
-3.86996841 -2.45796704 1.61572766 -0.97343355 -0.63962513 0.87880862
-3.09823895 -2.04720402 1.51633823 -0.77931637 -0.53273422 0.82474983
-3.42561769 -2.03159809 1.58803666 -0.86166364 -0.52867317 0.86374724
-2.76206136 -2.88656926 1.55053711 -0.69475585 -0.75115830 0.84335089
-2.67945957 -2.20508671 1.28460920 -0.67397857 -0.57381928 0.69871032
-2.75240564 -2.37327695 1.56228709 -0.69232708 -0.61758667 0.84974182
-2.86883664 -2.23786235 1.53127325 -0.72161359 -0.58234835 0.83287311
-3.86391306 -2.48838878 1.61979437 -0.97191042 -0.64754164 0.88102055
-3.08073282 -2.06352448 1.51402366 -0.77491295 -0.53698123 0.82349092
-3.38731742 -2.03793693 1.57595253 -0.85202980 -0.53032273 0.85717458
-2.63840461 -2.19897914 1.27109444 -0.66365182 -0.57222998 0.69135952
-2.73332334 -2.38688827 1.55987084 -0.68752718 -0.62112868 0.84842759
-2.85761404 -2.25810504 1.53285623 -0.71879071 -0.58761603 0.83373410
-3.80735660 -2.48568940 1.60217202 -0.95768446 -0.64683920 0.87143558
-3.03120542 -2.05776429 1.49550724 -0.76245505 -0.53548229 0.81341964
-3.33955884 -2.03813648 1.55933678 -0.84001684 -0.53037465 0.84813708
-2.75542164 -2.94403458 1.56530094 -0.69308573 -0.76611221 0.85138106
-2.61947441 -2.20411611 1.26682663 -0.65889019 -0.57356673 0.68903822
-3.37877440 -2.57084918 1.54086983 -0.84988093 -0.66899997 0.83809274
-2.75073957 -2.42532635 1.57678449 -0.69190800 -0.63113123 0.85762709
-2.85270977 -2.27609611 1.53602195 -0.71755713 -0.59229773 0.83545595
-3.80029893 -2.50673270 1.60420537 -0.95590919 -0.65231520 0.87254155
-3.00934744 -2.06360960 1.48933506 -0.75695699 -0.53700340 0.81006253
-3.32359242 -2.04999518 1.55631578 -0.83600068 -0.53346056 0.84649396
-2.71804881 -2.94071794 1.55422807 -0.68368512 -0.76524913 0.84535843
-2.82594800 -2.77215815 1.50730073 -0.71082556 -0.72138560 0.81983423
-2.58434224 -2.20221806 1.25615704 -0.65005320 -0.57307279 0.68323493
-3.39981437 -2.62046599 1.55827630 -0.85517323 -0.68191147 0.84756029
-2.72729421 -2.43520069 1.57195199 -0.68601066 -0.63370079 0.85499865
-2.84409213 -2.29856133 1.53918779 -0.71538949 -0.59814376 0.83717787
-3.75016499 -2.50739741 1.58929431 -0.94329876 -0.65248817 0.86443126
-2.96764541 -2.06230855 1.47467613 -0.74646747 -0.53666484 0.80208945
-3.27284265 -2.04746366 1.53818953 -0.82323533 -0.53280181 0.83663493
-2.72817779 -2.98946095 1.57120657 -0.68623292 -0.77793330 0.85459316
-2.81910419 -2.80031061 1.51311243 -0.70910412 -0.72871161 0.82299525
-2.57749295 -2.22456121 1.25971353 -0.64833039 -0.57888705 0.68516934
-2.72680068 -2.46587777 1.58081150 -0.68588650 -0.64168376 0.85981739
-2.83816004 -2.32331920 1.54393649 -0.71389735 -0.60458636 0.83976072
-3.74054790 -2.53516126 1.59200537 -0.94087970 -0.65971303 0.86590582
-2.93509531 -2.06699133 1.46464646 -0.73828000 -0.53788340 0.79663420
-3.24422359 -2.05814934 1.53063703 -0.81603664 -0.53558248 0.83252704
-2.81451797 -3.12444425 1.63395298 -0.70795053 -0.81305939 0.88872153
-2.80277419 -2.81928301 1.51383889 -0.70499653 -0.73364872 0.82339036
-2.53126502 -2.21222496 1.24335349 -0.63670242 -0.57567686 0.67627096
-2.70856690 -2.48047423 1.57920074 -0.68130010 -0.64548212 0.85894132
-2.81640410 -2.33528352 1.53997922 -0.70842493 -0.60769981 0.83760834
-3.69516873 -2.53823781 1.57912755 -0.92946523 -0.66051364 0.85890150
-2.89662099 -2.06702566 1.45153058 -0.72860235 -0.53789234 0.78950036
-3.19840908 -2.05762672 1.51477659 -0.80451268 -0.53544647 0.82390040
-2.82800436 -3.17972660 1.65388429 -0.71134281 -0.82744521 0.89956236
-2.79419041 -2.84609866 1.51892412 -0.70283741 -0.74062681 0.82615632
-2.50617766 -2.21810699 1.23766303 -0.63039207 -0.57720751 0.67317587
-2.70628190 -2.50996614 1.58725488 -0.68072534 -0.65315664 0.86332202
-2.81298018 -2.36232042 1.54631090 -0.70756370 -0.61473548 0.84105223
-3.67145085 -2.55599451 1.57573867 -0.92349935 -0.66513437 0.85705823
-2.86570811 -2.07210755 1.44227242 -0.72082663 -0.53921479 0.78446478
-3.16518283 -2.06463790 1.50495827 -0.79615510 -0.53727096 0.81856012
-2.81894851 -3.21005511 1.66052806 -0.70906496 -0.83533746 0.90317595
-2.79320312 -2.88090491 1.52836812 -0.70258909 -0.74968427 0.83129299
-2.47696400 -2.21999311 1.22983873 -0.62304378 -0.57769835 0.66892016
-2.70506001 -2.54078722 1.59611440 -0.68041795 -0.66117704 0.86814076
-2.79667616 -2.37876582 1.54551935 -0.70346266 -0.61901498 0.84062165
-3.65685105 -2.58010411 1.57641649 -0.91982698 -0.67140830 0.85742688
-2.82743573 -2.07138777 1.42915654 -0.71119982 -0.53902745 0.77733094
-3.12424469 -2.06624722 1.49136364 -0.78585774 -0.53768975 0.81116593
-2.48526430 -2.69161224 1.18026412 -0.62513161 -0.70042557 0.64195609
-2.77831244 -3.19373035 1.64502597 -0.69884354 -0.83108938 0.89474422
-2.78608394 -2.90072227 1.53200042 -0.70079833 -0.75484127 0.83326864
-2.46096134 -2.22659063 1.22699356 -0.61901855 -0.57941514 0.66737270
-2.69569993 -2.55604005 1.59772515 -0.67806357 -0.66514623 0.86901689
-2.79943633 -2.40380716 1.55343390 -0.70415694 -0.62553138 0.84492648
-3.61563182 -2.57642746 1.56353867 -0.90945894 -0.67045152 0.85042256
-2.80139685 -2.07252192 1.42066991 -0.70465010 -0.53932261 0.77271497
-3.09747386 -2.06972194 1.48305571 -0.77912390 -0.53859395 0.80664712
-2.46224165 -2.69214535 1.17522526 -0.61934060 -0.70056427 0.63921541
-2.75337362 -3.20546055 1.64207315 -0.69257057 -0.83414185 0.89313817
-2.43184805 -2.22802591 1.21916914 -0.61169553 -0.57978868 0.66311693
-2.68746781 -2.58057785 1.60255766 -0.67599291 -0.67153156 0.87164533
-2.77870727 -2.41655827 1.55026805 -0.69894284 -0.62884957 0.84320456
-3.60697460 -2.60463691 1.56692755 -0.90728134 -0.67779237 0.85226578
-2.80889916 -2.10569715 1.43147111 -0.70653719 -0.54795563 0.77858984
-3.06132412 -2.07369065 1.47172689 -0.77003098 -0.53962672 0.80048531
-2.77630758 -2.96392822 1.54725599 -0.69833928 -0.77128905 0.84156626
-2.43006277 -2.25477982 1.22557092 -0.61124647 -0.58675069 0.66659892
-2.68425560 -2.61024618 1.61061180 -0.67518497 -0.67925203 0.87602603
-2.78285909 -2.45085883 1.56134844 -0.69998717 -0.63777542 0.84923124
-3.58145761 -2.62054014 1.56286097 -0.90086287 -0.68193078 0.85005397
-2.79268742 -2.12105536 1.42992806 -0.70245939 -0.55195224 0.77775055
-2.99766374 -2.05857086 1.44680333 -0.75401813 -0.53569216 0.78692913
-2.49337912 -2.97509766 1.50550723 -0.62717277 -0.77419561 0.81885874
-2.79197764 -3.01807642 1.56687045 -0.70228082 -0.78537977 0.85223472
-2.41584778 -2.27000380 1.22557092 -0.60767090 -0.59071237 0.66659892
-2.68337083 -2.64255881 1.62027669 -0.67496240 -0.68766057 0.88128287
-2.77015996 -2.47072554 1.56293130 -0.69679290 -0.64294523 0.85009217
-3.57697272 -2.65201187 1.56828320 -0.89973480 -0.69012052 0.85300314
-2.79240799 -2.14876366 1.43687177 -0.70238906 -0.55916262 0.78152728
-2.95873022 -2.05952501 1.43396401 -0.74422497 -0.53594047 0.77994573
-2.52173519 -3.04823661 1.53503501 -0.63430530 -0.79322821 0.83491915
-2.75274253 -3.01364660 1.55524707 -0.69241184 -0.78422701 0.84591269
-2.42711568 -2.30977750 1.23908567 -0.61050516 -0.60106248 0.67394966
-2.67960691 -2.67236328 1.62833083 -0.67401564 -0.69541645 0.88566357
-2.76416969 -2.49664783 1.56847143 -0.69528615 -0.64969087 0.85310555
-3.54224777 -2.66078997 1.56014979 -0.89100021 -0.69240481 0.84857929
-2.79044127 -2.17540908 1.44304395 -0.70189440 -0.56609643 0.78488439
-2.91078854 -2.05371785 1.41659307 -0.73216599 -0.53442931 0.77049756
-2.41386557 -2.77597976 1.18530309 -0.60717231 -0.72238010 0.64469683
-2.50837493 -3.07124925 1.53872597 -0.63094473 -0.79921669 0.83692670
-2.84293199 -3.15072227 1.61844909 -0.71509767 -0.81989759 0.88028884
-2.41656923 -2.32889748 1.24121964 -0.60785240 -0.60603797 0.67511034
-2.61023951 -2.63552952 1.59530890 -0.65656728 -0.68583143 0.86770266
-2.76068664 -2.52505660 1.57559454 -0.69441003 -0.65708357 0.85697985
-3.50904655 -2.67038369 1.55269420 -0.88264894 -0.69490135 0.84452415
-3.85530257 -2.64099860 1.59752607 -0.96974456 -0.68725461 0.86890858
-2.87617970 -2.27238083 1.49627876 -0.72346061 -0.59133095 0.81383926
-2.89026427 -2.06662369 1.41281676 -0.72700340 -0.53778774 0.76844358
-2.52175188 -3.11786294 1.55644262 -0.63430953 -0.81134677 0.84656292
-2.87799001 -3.21941876 1.64750743 -0.72391599 -0.83777416 0.89609390
-2.75960660 -2.54794717 1.58192611 -0.69413835 -0.66304028 0.86042362
-3.48899031 -2.68112278 1.54930532 -0.87760413 -0.69769591 0.84268087
-3.83814287 -2.65593410 1.59554672 -0.96542829 -0.69114119 0.86783201
-2.89990425 -2.31371784 1.51479518 -0.72942817 -0.60208786 0.82391053
-2.84280539 -2.05333018 1.39393532 -0.71506578 -0.53432840 0.75817376
-2.85398602 -3.23326445 1.64532804 -0.71787810 -0.84137714 0.89490849
-2.49957299 -2.23799586 1.21014738 -0.62873077 -0.58238310 0.65820992
-2.69256449 -2.78038454 1.66618514 -0.67727494 -0.72352636 0.90625286
-2.74354315 -2.56523585 1.58192611 -0.69009787 -0.66753924 0.86042362
-3.47355509 -2.70415449 1.54998314 -0.87372160 -0.70368934 0.84304959
-3.81207657 -2.67353320 1.59158802 -0.95887166 -0.69572091 0.86567885
-2.91817021 -2.35874963 1.53254008 -0.73402274 -0.61380625 0.83356214
-2.82834721 -2.07006645 1.39318001 -0.71142906 -0.53868359 0.75776297
-2.78160095 -3.66108680 1.52215171 -0.69967073 -0.95270735 0.82791179
-2.83976936 -3.25812745 1.64896035 -0.71430212 -0.84784710 0.89688414
-2.68384981 -2.80655503 1.67182302 -0.67508286 -0.73033655 0.90931934
-2.73407388 -2.58870125 1.58588338 -0.68771601 -0.67364550 0.86257601
-3.45502377 -2.72475386 1.54930532 -0.86906034 -0.70904982 0.84268087
-3.77667880 -2.68438768 1.58367062 -0.94996792 -0.69854552 0.86137247
-2.87202239 -2.35115218 1.51556671 -0.72241491 -0.61182922 0.82433015
-2.79287648 -2.07137918 1.38185120 -0.70250690 -0.53902525 0.75160110
-2.74837494 -3.66480732 1.51637650 -0.69131321 -0.95367551 0.82477063
-2.50676346 -3.22227859 1.58523226 -0.63053942 -0.83851832 0.86222190
-2.84735107 -3.30825853 1.66566896 -0.71620923 -0.86089247 0.90597212
-2.68241143 -2.84075093 1.68229342 -0.67472106 -0.73923522 0.91501433
-2.72708321 -2.61467671 1.59142351 -0.68595761 -0.68040496 0.86558938
-3.44076490 -2.74877095 1.55066085 -0.86547369 -0.71529967 0.84341818
-3.75666404 -2.70587063 1.58235097 -0.94493347 -0.70413595 0.86065471
-2.86284876 -2.37389326 1.51865280 -0.72010744 -0.61774701 0.82600874
-2.79170251 -2.09771729 1.38789320 -0.70221162 -0.54587907 0.75488740
-2.49996495 -3.25572395 1.59409058 -0.62882936 -0.84722167 0.86703998
-2.49650002 -2.94139433 1.46807194 -0.62795782 -0.76542515 0.79849732
-2.66326833 -2.85620356 1.68148804 -0.66990590 -0.74325639 0.91457623
-2.72119832 -2.64193869 1.59775507 -0.68447733 -0.68749923 0.86903316
-3.41176820 -2.76081228 1.54523873 -0.85817999 -0.71843314 0.84046906
-3.73346901 -2.72499537 1.57971191 -0.93909913 -0.70911270 0.85921931
-2.84225082 -2.38705659 1.51556671 -0.71492630 -0.62117249 0.82433015
-2.73850679 -2.08516097 1.36750126 -0.68883103 -0.54261160 0.74379605
-2.50065231 -3.29961872 1.60811627 -0.62900221 -0.85864419 0.87466872
-2.57070494 -3.06650805 1.52400935 -0.64662296 -0.79798293 0.82892221
-2.44254255 -2.30010366 1.21014738 -0.61438560 -0.59854513 0.65820992
-2.66992950 -2.89994407 1.69759619 -0.67158145 -0.75463873 0.92333764
-2.71507788 -2.66922927 1.60408676 -0.68293786 -0.69460094 0.87247699
-3.38130665 -2.77139854 1.53913867 -0.85051787 -0.72118795 0.83715117
-3.70561314 -2.74058771 1.57509339 -0.93209237 -0.71317017 0.85670727
-2.82719660 -2.40486765 1.51556671 -0.71113962 -0.62580734 0.82433015
-2.70620227 -2.08773446 1.35768294 -0.68070531 -0.54328126 0.73845577
-2.49505115 -3.32479525 1.61476004 -0.62759334 -0.86519575 0.87828231
-2.54784250 -3.06859517 1.51892412 -0.64087224 -0.79852605 0.82615632
-2.82522321 -2.96098375 1.52147388 -0.71064329 -0.77052283 0.82754314
-2.42484307 -2.30517077 1.20666611 -0.60993356 -0.59986371 0.65631640
-2.64274168 -2.89754510 1.68873668 -0.66474271 -0.75401449 0.91851884
-2.74309778 -2.72188616 1.62862170 -0.68998581 -0.70830357 0.88582176
-3.36820936 -2.78730154 1.53913867 -0.84722346 -0.72532630 0.83715117
-3.67748094 -2.74678826 1.56849551 -0.92501616 -0.71478373 0.85311860
-2.82419205 -2.42542267 1.52019584 -0.71038389 -0.63115627 0.82684797
-2.74183249 -2.13547444 1.38109589 -0.68966758 -0.55570441 0.75119030
-2.47630978 -3.34340477 1.61623633 -0.62287921 -0.87003845 0.87908524
-2.81421375 -2.98687768 1.52574170 -0.70787400 -0.77726108 0.82986444
-2.64640856 -2.93869185 1.70323408 -0.66566509 -0.76472193 0.92640412
-3.39228678 -2.84365654 1.55879426 -0.85327977 -0.73999131 0.84784204
-3.67676592 -2.78229928 1.57575309 -0.92483628 -0.72402459 0.85706609
-2.80751133 -2.44190097 1.51942432 -0.70618808 -0.63544434 0.82642835
-2.58600092 -3.53961349 1.70481968 -0.65047044 -0.92109692 0.92726654
-2.68248367 -3.31241536 1.62571371 -0.67473924 -0.86197418 0.88424009
-2.81692123 -3.02787256 1.53783393 -0.70855504 -0.78792900 0.83644152
-2.65933728 -2.99099255 1.72417486 -0.66891712 -0.77833188 0.93779397
-2.72032666 -2.76786995 1.63574469 -0.68425810 -0.72026974 0.88969606
-3.39721322 -2.88450527 1.56963873 -0.85451895 -0.75062120 0.85374039
-3.64718461 -2.79620910 1.57047486 -0.91739553 -0.72764426 0.85419518
-2.80038071 -2.46685600 1.52405345 -0.70439452 -0.64193827 0.82894617
-2.67990041 -2.14221454 1.36296976 -0.67408943 -0.55745840 0.74133134
-2.67006016 -3.84282422 1.54974437 -0.67161429 -1.00000000 0.84291971
-2.56587005 -3.55881739 1.70629609 -0.64540678 -0.92609423 0.92806959
-2.68385839 -3.35675192 1.63951635 -0.67508501 -0.87351167 0.89174747
-2.79280972 -3.03998089 1.53498876 -0.70249015 -0.79107988 0.83489400
-2.67651510 -3.04909754 1.74833715 -0.67323792 -0.79345226 0.95093608
-2.71059871 -2.79277539 1.64049339 -0.68181115 -0.72675073 0.89227891
-3.37333822 -2.90086007 1.56692755 -0.84851354 -0.75487709 0.85226578
-3.61907005 -2.81100893 1.56585634 -0.91032374 -0.73149556 0.85168314
-2.79030657 -2.48934603 1.52713943 -0.70186049 -0.64779079 0.83062470
-2.52418900 -3.54751706 1.69300854 -0.63492256 -0.92315364 0.92084235
-2.70220160 -3.42309356 1.66421604 -0.67969900 -0.89077544 0.90518188
-2.76491046 -3.04773426 1.53000963 -0.69547248 -0.79309750 0.83218580
-2.68472171 -3.09780931 1.76686168 -0.67530221 -0.80612826 0.96101171
-2.70960975 -2.82690334 1.65078235 -0.68156242 -0.73563170 0.89787513
-3.59984756 -2.83253169 1.56519663 -0.90548861 -0.73709637 0.85132432
-2.76916099 -2.50185108 1.52405345 -0.69654167 -0.65104491 0.82894617
-2.44579387 -3.25755787 1.31631398 -0.61520338 -0.84769893 0.71595484
-2.49548364 -3.55414963 1.68857944 -0.62770212 -0.92487955 0.91843331
-2.63685656 -3.38435459 1.63661063 -0.66326243 -0.88069463 0.89016706
-2.74570656 -3.06504631 1.53000963 -0.69064200 -0.79760253 0.83218580
-2.65573835 -3.10344219 1.76041842 -0.66801184 -0.80759412 0.95750719
-2.71718478 -2.87041974 1.66661131 -0.68346781 -0.74695575 0.90648466
-3.56864476 -2.84456205 1.55925846 -0.89763999 -0.74022692 0.84809452
-2.77370524 -2.53799534 1.53562617 -0.69768471 -0.66045052 0.83524066
-2.45868564 -3.53677654 1.67455375 -0.61844617 -0.92035866 0.91080463
-2.62660527 -3.40409231 1.64024282 -0.66068387 -0.88583088 0.89214259
-2.73740101 -3.08497238 1.53356612 -0.68855292 -0.80278778 0.83412021
-2.61166644 -3.08086324 1.74028313 -0.65692621 -0.80171847 0.94655544
-2.71247101 -2.89252567 1.67215145 -0.68228209 -0.75270832 0.90949798
-3.54191566 -2.85075235 1.55332041 -0.89091671 -0.74183780 0.84486473
-2.76441169 -2.55355644 1.53716922 -0.69534701 -0.66449994 0.83607996
-2.90674400 -2.43517876 1.51024508 -0.73114860 -0.63369507 0.82143569
-2.41762066 -3.52447462 1.66126621 -0.60811687 -0.91715741 0.90357745
-2.54609108 -3.34372187 1.60246694 -0.64043170 -0.87012094 0.87159598
-2.83310246 -3.23483801 1.60042882 -0.71262521 -0.84178662 0.87048745
-2.57357121 -3.07465601 1.72739649 -0.64734393 -0.80010319 0.93954629
-2.67667532 -2.89073396 1.66107118 -0.67327821 -0.75224203 0.90347135
-3.52393413 -2.87295032 1.55332041 -0.88639373 -0.74761426 0.84486473
-2.75635695 -2.57848215 1.54179835 -0.69332099 -0.67098624 0.83859777
-2.87578273 -2.44029784 1.50193715 -0.72336078 -0.63502717 0.81691694
-2.39853168 -3.54422832 1.66348076 -0.60331529 -0.92229778 0.90478194
-2.55207348 -3.39527297 1.61990201 -0.64193648 -0.88353586 0.88107908
-2.83582520 -3.27954841 1.61394358 -0.71331006 -0.85342139 0.87783819
-2.49393392 -3.01707888 1.68551505 -0.62731230 -0.78512019 0.91676658
-2.70208359 -2.95471358 1.68877196 -0.67966932 -0.76889116 0.91853803
-3.51311922 -2.90101337 1.55661941 -0.88367337 -0.75491703 0.84665912
-2.74543238 -2.60085464 1.54488444 -0.69057304 -0.67680812 0.84027636
-2.85757136 -2.45591974 1.50042665 -0.71877998 -0.63909239 0.81609535
-2.36289382 -3.53906822 1.65388429 -0.59435111 -0.92095500 0.89956236
-2.63460708 -3.54992342 1.68746281 -0.66269660 -0.92377979 0.91782600
-2.83206201 -3.31728339 1.62390184 -0.71236348 -0.86324102 0.88325459
-2.44157577 -2.99138427 1.66215813 -0.61414242 -0.77843380 0.90406257
-2.70327187 -2.99334335 1.70143509 -0.67996818 -0.77894360 0.92542565
-3.48319316 -2.91339087 1.55134106 -0.87614590 -0.75813794 0.84378815
-2.73698449 -2.62576032 1.54951358 -0.68844813 -0.68328923 0.84279418
-2.85190797 -2.48228407 1.50571346 -0.71735543 -0.64595306 0.81897092
-2.69782066 -3.82067156 1.51660955 -0.67859703 -0.99423534 0.82489741
-2.32132649 -3.52425766 1.63985860 -0.58389544 -0.91710091 0.89193362
-2.58233452 -3.52595544 1.66784835 -0.64954817 -0.91754276 0.90715748
-2.81475735 -3.33931661 1.62603581 -0.70801073 -0.86897457 0.88441527
-2.52999592 -3.14122701 1.73786688 -0.63638318 -0.81742668 0.94524121
-2.70039248 -3.02800989 1.71172404 -0.67924392 -0.78796470 0.93102187
-2.47194457 -2.30842304 1.18262720 -0.62178123 -0.60071003 0.64324141
-3.46626520 -2.93643284 1.55200088 -0.87188792 -0.76413405 0.84414703
-2.72833180 -2.65066242 1.55414259 -0.68627167 -0.68976939 0.84531194
-2.83067203 -2.49528551 1.50269246 -0.71201384 -0.64933634 0.81732774
-2.07398129 -3.18853569 1.47450304 -0.52167940 -0.82973760 0.80199528
-2.56562233 -3.54963684 1.67148066 -0.64534450 -0.92370522 0.90913314
-2.55472922 -3.06702900 1.48306346 -0.64260447 -0.79811847 0.80665135
-2.24416900 -2.81898022 1.54859507 -0.56448764 -0.73356992 0.84229457
-2.70450807 -3.07099199 1.72676158 -0.68027914 -0.79914975 0.93920094
-2.44515753 -2.31219935 1.17652714 -0.61504334 -0.60169274 0.63992357
-3.44199324 -2.95326185 1.54936171 -0.86578268 -0.76851338 0.84271157
-2.71554875 -2.67165589 1.55645716 -0.68305629 -0.69523239 0.84657085
-2.80244470 -2.50198913 1.49589515 -0.70491368 -0.65108079 0.81363064
-2.02999687 -3.15279365 1.45309544 -0.51061583 -0.82043660 0.79035151
-2.53904343 -3.54809499 1.66494250 -0.63865894 -0.92330402 0.90557700
-2.54734111 -3.08772135 1.48733127 -0.64074612 -0.80350316 0.80897266
-2.69000626 -3.08370256 1.72676158 -0.67663145 -0.80245733 0.93920094
-2.45047283 -2.33938575 1.18466055 -0.61638033 -0.60876733 0.64434737
-3.41944265 -2.96207047 1.54540300 -0.86011040 -0.77080560 0.84055841
-2.83900476 -2.55830073 1.52232921 -0.71410984 -0.66573453 0.82800835
-1.99928045 -3.14816642 1.44497526 -0.50288951 -0.81923246 0.78593487
-2.50155306 -3.54273844 1.65477204 -0.62922883 -0.92191011 0.90004522
-1.85920274 -2.38351703 1.29327953 -0.46765506 -0.62025136 0.70342618
-2.64405489 -3.07005787 1.70934963 -0.66507304 -0.79890668 0.92973042
-2.41689634 -2.33631301 1.17517161 -0.60793465 -0.60796767 0.63918626
-3.40218878 -2.98473573 1.54606283 -0.85577047 -0.77670366 0.84091729
-2.71706533 -2.73292208 1.57497370 -0.68343776 -0.71117538 0.85664219
-2.81325269 -2.56740093 1.51704240 -0.70763224 -0.66810262 0.82513279
-1.97554862 -3.15434337 1.44202256 -0.49692014 -0.82083988 0.78432888
-2.46101332 -3.53248000 1.64242220 -0.61903161 -0.91924059 0.89332801
-2.71435213 -3.37837696 1.61323225 -0.68275529 -0.87913907 0.87745130
-1.84640419 -2.39806747 1.29489028 -0.46443576 -0.62403780 0.70430231
-2.61394143 -3.07407117 1.70222664 -0.65749842 -0.79995102 0.92585617
-2.41018939 -2.35939884 1.17923832 -0.60624760 -0.61397523 0.64139819
-3.37203169 -2.99607182 1.54078448 -0.84818488 -0.77965361 0.83804631
-2.70241189 -2.75258684 1.57651675 -0.67975187 -0.71629268 0.85748142
-2.80253267 -2.59002495 1.52006340 -0.70493579 -0.67398995 0.82677597
-1.92374492 -3.11432910 1.41766214 -0.48388970 -0.81042713 0.77107900
-2.43558121 -3.54328132 1.64024282 -0.61263454 -0.92205137 0.89214259
-2.69884515 -3.40271473 1.61678886 -0.67885470 -0.88547236 0.87938577
-1.83459401 -2.41401625 1.29730654 -0.46146509 -0.62818807 0.70561653
-2.48645973 -2.96296692 1.63020456 -0.62543231 -0.77103889 0.88668269
-2.39000416 -2.36916494 1.17652714 -0.60117030 -0.61651659 0.63992357
-3.34186697 -3.00714731 1.53550625 -0.84059739 -0.78253573 0.83517545
-2.69400549 -2.77883315 1.58191729 -0.67763740 -0.72312266 0.86041886
-2.77125645 -2.59374213 1.51175559 -0.69706875 -0.67495728 0.82225728
-1.87635553 -3.08016181 1.39625454 -0.47196957 -0.80153596 0.75943524
-2.40905762 -3.55236554 1.63733709 -0.60596293 -0.92441529 0.89056218
-2.70490265 -3.45505667 1.63386011 -0.68037838 -0.89909309 0.88867098
-1.82374477 -2.43138266 1.30052817 -0.45873612 -0.63270724 0.70736879
-2.49727535 -3.01373553 1.64999080 -0.62815279 -0.78425014 0.89744461
-2.37507105 -2.38413501 1.17652714 -0.59741414 -0.62041217 0.63992357
-3.35933924 -3.06098509 1.55266070 -0.84499228 -0.79654568 0.84450591
-2.68791342 -2.80776095 1.58886099 -0.67610502 -0.73065037 0.86419559
-2.77246690 -2.62757063 1.52157390 -0.69737321 -0.68376029 0.82759756
-1.83042061 -3.04712272 1.37558508 -0.46041533 -0.79293835 0.74819291
-2.35851622 -3.52574849 1.61772263 -0.59324998 -0.91748887 0.87989366
-2.68882132 -3.47940540 1.63741672 -0.67633337 -0.90542924 0.89060545
-1.80303514 -2.43540049 1.29650116 -0.45352691 -0.63375276 0.70517850
-2.44551945 -2.98973107 1.62783027 -0.61513436 -0.77800357 0.88539129
-2.37578177 -2.41520262 1.18466055 -0.59759289 -0.62849677 0.64434737
-2.67652178 -2.83133149 1.59271860 -0.67323959 -0.73678404 0.86629379
-2.75455976 -2.64366341 1.52081871 -0.69286889 -0.68794805 0.82718676
-1.81604111 -3.05571437 1.37558508 -0.45679837 -0.79517412 0.74819291
-2.10355115 -3.18061590 1.45063686 -0.52911729 -0.82767665 0.78901428
-2.63400483 -3.44138885 1.61323225 -0.66254508 -0.89553636 0.87745130
-1.80333507 -2.46019053 1.30536067 -0.45360237 -0.64020377 0.70999724
-2.40231109 -2.96569562 1.60804403 -0.60426593 -0.77174896 0.87462938
-2.39439106 -2.45754790 1.20024943 -0.60227376 -0.63951612 0.65282631
-2.70704651 -2.89128256 1.61972177 -0.68091768 -0.75238478 0.88098103
-2.73271298 -2.64764404 1.51553190 -0.68737370 -0.68898392 0.82431126
-1.79680586 -3.06706452 1.37558508 -0.45196003 -0.79812771 0.74819291
-2.06299663 -3.16266584 1.43610775 -0.51891643 -0.82300562 0.78111172
-2.52163053 -3.33663535 1.55561662 -0.63427901 -0.86827683 0.84611368
-1.80059838 -2.48935699 1.31502569 -0.45291400 -0.64779359 0.71525413
-2.37785602 -2.97358942 1.60408676 -0.59811467 -0.77380311 0.87247699
-2.38279247 -2.47663450 1.20228279 -0.59935635 -0.64448291 0.65393227
-2.77316308 -2.72022676 1.54800797 -0.69754833 -0.70787179 0.84197527
-1.77381849 -3.07183361 1.37263227 -0.44617790 -0.79936874 0.74658686
-2.03393435 -3.16151094 1.42956960 -0.51160622 -0.82270509 0.77755558
-2.60720706 -3.49677205 1.62390184 -0.65580451 -0.90994847 0.88325459
-2.04412580 -2.86888933 1.51315689 -0.51416969 -0.74655753 0.82301944
-2.35912561 -2.98847127 1.60408676 -0.59340328 -0.77767575 0.87247699
-2.37491202 -2.49978781 1.20634949 -0.59737414 -0.65050799 0.65614420
-2.58885288 -2.83471227 1.56880152 -0.65118778 -0.73766381 0.85328507
-2.72696137 -2.70903659 1.53139222 -0.68592697 -0.70495981 0.83293778
-1.76085341 -3.09426332 1.37779963 -0.44291672 -0.80520552 0.74939746
-1.99993467 -3.15227628 1.41939914 -0.50305408 -0.82030195 0.77202380
-2.61710954 -3.55689454 1.64452970 -0.65829533 -0.92559385 0.89447427
-2.10333395 -2.99294376 1.57275736 -0.52906269 -0.77883965 0.85543668
-2.37834811 -2.53535819 1.21651614 -0.59823841 -0.65976429 0.66167390
-2.46785927 -2.39418507 1.16602635 -0.62075365 -0.62302750 0.63421208
-2.66803956 -2.95969129 1.62975156 -0.67110604 -0.77018648 0.88643634
-1.74497652 -3.11177182 1.38075244 -0.43892312 -0.80976170 0.75100350
-1.98307979 -3.16950274 1.42157853 -0.49881449 -0.82478476 0.77320915
-2.58161330 -3.55505705 1.63599408 -0.64936680 -0.92511570 0.88983166
-2.66928482 -3.31119871 1.54365480 -0.67141926 -0.86165762 0.83960754
-2.07517433 -2.99250889 1.56550872 -0.52197951 -0.77872646 0.85149407
-1.87710321 -2.44663763 1.29225528 -0.47215766 -0.63667697 0.70286912
-2.37634802 -2.56551814 1.22397172 -0.59773535 -0.66761267 0.66572905
-2.45412207 -2.41095901 1.16668618 -0.61729825 -0.62739247 0.63457096
-2.69818234 -3.03177691 1.66061223 -0.67868799 -0.78894496 0.90322173
-2.72922421 -2.77990150 1.55253947 -0.68649614 -0.72340065 0.84443998
-1.74674213 -3.16184330 1.39846909 -0.43936723 -0.82279158 0.76063973
-1.91081345 -3.09813285 1.38307619 -0.48063695 -0.80621248 0.75226742
-2.54732585 -3.55443907 1.62816978 -0.64074230 -0.92495489 0.88557595
-2.61554122 -3.28698492 1.52415967 -0.65790087 -0.85535657 0.82900393
-2.05428052 -3.00245523 1.56389785 -0.51672399 -0.78131473 0.85061789
-1.85386419 -2.44818521 1.28671515 -0.46631223 -0.63707966 0.69985580
-2.36522889 -2.58598185 1.22668278 -0.59493846 -0.67293787 0.66720366
-2.42950082 -2.41706538 1.16206765 -0.61110514 -0.62898153 0.63205892
-2.69845724 -3.07094431 1.67295659 -0.67875713 -0.79913735 0.90993589
-2.67541599 -2.75995421 1.53139222 -0.67296147 -0.71820986 0.83293778
-1.87268281 -3.06905937 1.36564112 -0.47104576 -0.79864681 0.74278432
-2.52517486 -3.55875611 1.62461317 -0.63517052 -0.92607832 0.88364148
-2.57550311 -3.26846790 1.50953817 -0.64782983 -0.85053796 0.82105118
-2.03094602 -2.99840951 1.55664921 -0.51085454 -0.78026193 0.84667528
-1.87009716 -2.49344826 1.30650139 -0.47039539 -0.64885825 0.71061766
-2.33920860 -2.58167958 1.21922719 -0.58839345 -0.67181832 0.66314846
-2.68636465 -3.08642220 1.67449963 -0.67571545 -0.80316508 0.91077518
-1.84851456 -3.07280898 1.36200881 -0.46496660 -0.79962260 0.74080867
-2.49531007 -3.56379867 1.61963403 -0.62765849 -0.92739052 0.88093328
-2.00803232 -3.00499988 1.55342758 -0.50509095 -0.78197694 0.84492302
-1.86100793 -2.51396370 1.31125009 -0.46810913 -0.65419692 0.71320057
-2.32792711 -2.60196471 1.22193837 -0.58555573 -0.67709696 0.66462314
-2.40544105 -2.44630933 1.16338718 -0.60505325 -0.63659155 0.63277662
-2.56050301 -2.97816133 1.60583436 -0.64405680 -0.77499288 0.87342757
-2.70128798 -2.84803438 1.56462359 -0.67946917 -0.74113053 0.85101265
-1.82629240 -3.07957077 1.35982943 -0.45937693 -0.80138218 0.73962331
-2.45809507 -3.55780649 1.60967577 -0.61829758 -0.92583120 0.87551689
-1.98511624 -3.01142097 1.55020583 -0.49932674 -0.78364784 0.84317070
-2.56774807 -3.50125504 1.83439875 -0.64587921 -0.91111505 0.99774575
-2.37546706 -2.44656086 1.15612960 -0.59751374 -0.63665700 0.62882912
-2.59752154 -3.06059504 1.64209580 -0.65336829 -0.79644418 0.89315045
-2.70879889 -2.89185190 1.57972872 -0.68135846 -0.75253296 0.85922843
-1.90067351 -3.64665556 1.59704328 -0.47808641 -0.94895196 0.86864603
-1.81165457 -3.09900141 1.36346173 -0.45569500 -0.80643851 0.74159890
-2.43360114 -3.57008195 1.60825312 -0.61213648 -0.92902559 0.87474310
-1.96417737 -3.02075362 1.54859507 -0.49405986 -0.78607643 0.84229457
-2.52618909 -3.49062800 1.82015264 -0.63542563 -0.90834963 0.98999715
-2.75455475 -3.16402221 1.47542751 -0.69286764 -0.82335854 0.80249810
-2.38502884 -2.48718309 1.16866553 -0.59991884 -0.64722788 0.63564754
-2.49342895 -2.97459412 1.58654642 -0.62718529 -0.77406460 0.86293668
-2.70322013 -2.92234492 1.58728135 -0.67995518 -0.76046801 0.86333638
-1.78745019 -3.10227680 1.35982943 -0.44960675 -0.80729085 0.73962331
-2.39454889 -3.56040621 1.59687233 -0.60231352 -0.92650771 0.86855304
-1.94222009 -3.02839541 1.54617882 -0.48853683 -0.78806502 0.84098035
-2.47519517 -3.46621132 1.79878354 -0.62259889 -0.90199578 0.97837430
-2.71876478 -3.16263986 1.46661639 -0.68386519 -0.82299882 0.79770565
-2.40984821 -2.54437971 1.18911886 -0.60616183 -0.66211194 0.64677227
-2.47001386 -2.98449135 1.58346033 -0.62129557 -0.77664012 0.86125809
-2.68731713 -2.94199395 1.58879185 -0.67595500 -0.76558119 0.86415797
-1.78650892 -3.14574909 1.37435865 -0.44937000 -0.81860346 0.74752587
-2.37315702 -3.57694364 1.59758365 -0.59693271 -0.93081117 0.86893994
-1.92315388 -3.04053903 1.54617882 -0.48374102 -0.79122514 0.84098035
-2.45656300 -3.48618388 1.80115783 -0.61791223 -0.90719318 0.97966570
-2.69399738 -3.17389798 1.46390522 -0.67763537 -0.82592851 0.79623103
-2.38213491 -2.54712796 1.18318081 -0.59919095 -0.66282707 0.64354253
-2.46977305 -3.02291155 1.59580469 -0.62123501 -0.78663802 0.86797231
-2.75110531 -3.04916263 1.63863885 -0.69199997 -0.79346919 0.89127022
-1.77406156 -3.16987944 1.38017035 -0.44623905 -0.82488275 0.75068688
-2.13114190 -3.25290251 1.44394159 -0.53605735 -0.84648746 0.78537261
-1.91841245 -3.07594323 1.55825996 -0.48254839 -0.80043817 0.84755141
-2.40716171 -3.46247149 1.78058016 -0.60548604 -0.90102261 0.96847332
-2.68000984 -3.19800234 1.46729410 -0.67411697 -0.83220106 0.79807425
-2.38413024 -2.58135867 1.19241774 -0.59969282 -0.67173475 0.64856660
-2.42771196 -3.00952506 1.58037424 -0.61065519 -0.78315449 0.85957956
-2.75542879 -3.09254384 1.65298879 -0.69308752 -0.80475807 0.89907527
-1.77915692 -3.21395969 1.39615238 -0.44752070 -0.83635354 0.75937968
-2.05728054 -3.17163658 1.40268588 -0.51747859 -0.82534003 0.76293331
-1.86293054 -3.01773047 1.52362728 -0.46859273 -0.78528976 0.82871437
-2.17165732 -3.15860844 1.61516702 -0.54624838 -0.82194978 0.87850368
-2.69238830 -3.24403143 1.48288310 -0.67723060 -0.84417897 0.80655324
-2.38091683 -2.60226417 1.19703627 -0.59888452 -0.67717493 0.65107864
-2.46270108 -3.08318090 1.61354959 -0.61945617 -0.80232161 0.87762392
-2.72357368 -3.08613992 1.64241517 -0.68507481 -0.80309165 0.89332420
-2.02432680 -3.16396046 1.39343894 -0.50918961 -0.82334250 0.75790381
-1.80244756 -2.96033168 1.48818922 -0.45337912 -0.77035314 0.80943930
-2.00317407 -2.95561171 1.50198960 -0.50386894 -0.76912487 0.81694543
-2.78695130 -3.40261960 1.54862761 -0.70101655 -0.88544762 0.84231228
-2.38362598 -2.63807678 1.20693302 -0.59956598 -0.68649429 0.65646160
-2.45122552 -3.10877728 1.61895025 -0.61656964 -0.80898243 0.88056141
-2.71147037 -3.11153245 1.64694679 -0.68203044 -0.80969942 0.89578897
-1.99155140 -3.15599632 1.38419199 -0.50094539 -0.82127005 0.75287431
-1.78287888 -2.97002316 1.48738372 -0.44845691 -0.77287507 0.80900121
-2.02265859 -3.02441812 1.53127325 -0.50876999 -0.78703004 0.83287311
-2.79374957 -3.45530987 1.56489420 -0.70272654 -0.89915895 0.85115981
-2.44628048 -3.14312220 1.62898004 -0.61532581 -0.81791985 0.88601667
-2.72588038 -3.16764688 1.66809392 -0.68565506 -0.82430178 0.90729105
-1.96972466 -3.16526246 1.38276935 -0.49545521 -0.82368129 0.75210053
-1.75772119 -2.97010016 1.48174584 -0.44212887 -0.77289516 0.80593473
-1.98525560 -3.00957251 1.51702714 -0.49936178 -0.78316683 0.82512450
-2.76614881 -3.46541524 1.56150532 -0.69578397 -0.90178865 0.84931660
-2.45551658 -3.19662333 1.64903951 -0.61764902 -0.83184218 0.89692724
-2.56603169 -3.02168155 1.58048403 -0.64544743 -0.78631794 0.85963929
-1.94592226 -3.17118192 1.37992418 -0.48946807 -0.82522172 0.75055301
-1.73993802 -2.98267245 1.48255134 -0.43765578 -0.77616680 0.80637282
-1.97641075 -3.03732514 1.52494168 -0.49713701 -0.79038876 0.82942933
-2.75474072 -3.49607635 1.56760538 -0.69291443 -0.90976745 0.85263449
-2.95087838 -3.38414431 1.53352690 -0.74224997 -0.88063991 0.83409888
-2.47524977 -3.26512265 1.67681420 -0.62261260 -0.84966743 0.91203409
-2.45002937 -2.92329335 1.51930809 -0.61626881 -0.76071483 0.82636511
-1.87993443 -3.10632610 1.34578145 -0.47286981 -0.80834460 0.73198247
-1.72116303 -2.99354577 1.48255134 -0.43293321 -0.77899629 0.80637282
-1.97129810 -3.07124567 1.53602195 -0.49585098 -0.79921573 0.83545595
-2.73846221 -3.52076840 1.57099426 -0.68881983 -0.91619295 0.85447770
-2.93574858 -3.40974426 1.53682578 -0.73844427 -0.88730162 0.83589315
-2.62599039 -3.51193905 1.79717112 -0.66052920 -0.91389531 0.97749728
-2.51003551 -3.03238058 1.56915522 -0.63136244 -0.78910208 0.85347742
-2.43523264 -3.30575109 1.21163988 -0.61254686 -0.86023998 0.65902168
-1.85671389 -3.10066891 1.33937979 -0.46702901 -0.80687243 0.72850055
-1.72763610 -3.03834558 1.50107574 -0.43456140 -0.79065430 0.81644839
-1.95580983 -3.07895637 1.53523052 -0.49195513 -0.80122226 0.83502549
-2.73325491 -3.54859328 1.57777202 -0.68751001 -0.92343366 0.85816419
-2.92457461 -3.42926478 1.53946495 -0.73563367 -0.89238137 0.83732861
-2.44356346 -3.29809380 1.67990029 -0.61464238 -0.85824740 0.91371268
-2.50635147 -3.05700970 1.57595253 -0.63043576 -0.79551119 0.85717458
-2.41514707 -3.31098342 1.20931566 -0.60749465 -0.86160159 0.65775752
-1.82401931 -3.08966351 1.32942152 -0.45880517 -0.80400854 0.72308415
-2.10852766 -3.20337319 1.38838935 -0.53036904 -0.83359867 0.75515729
-1.72887945 -3.08599162 1.51960027 -0.43487415 -0.80305302 0.82652408
-1.94724691 -3.10824609 1.54393649 -0.48980126 -0.80884421 0.83976072
-2.72222471 -3.58072710 1.58454978 -0.68473554 -0.93179572 0.86185068
-2.56450033 -3.50920844 1.78096926 -0.64506227 -0.91318476 0.96868497
-2.50585461 -3.09563231 1.58803666 -0.63031077 -0.80556178 0.86374724
-2.40539932 -3.34167957 1.21512640 -0.60504276 -0.86958951 0.66091800
-1.80177760 -3.09620023 1.32728755 -0.45321059 -0.80570954 0.72192347
-2.06777287 -3.18521643 1.37446427 -0.52011782 -0.82887381 0.74758333
-1.72258759 -3.12090993 1.53168142 -0.43329152 -0.81213963 0.83309513
-1.91988707 -3.10796165 1.53760493 -0.48291931 -0.80877018 0.83631694
-2.88003778 -3.46429801 1.53880513 -0.72443104 -0.90149790 0.83696973
-2.54132843 -3.52375078 1.78019774 -0.63923371 -0.91696900 0.96826535
-2.48519135 -3.10987520 1.58728135 -0.62511325 -0.80926812 0.86333638
-1.79886210 -3.13674092 1.34009111 -0.45247725 -0.81625926 0.72888744
-2.03242755 -3.17454267 1.36402035 -0.51122719 -0.82609624 0.74190277
-1.73150098 -3.18490767 1.55825996 -0.43553355 -0.82879347 0.84755141
-2.85821438 -3.48232532 1.53880513 -0.71894169 -0.90618908 0.83696973
-2.51063514 -3.52758193 1.77402556 -0.63151330 -0.91796601 0.96490824
-2.47483778 -3.13701320 1.59332347 -0.62250900 -0.81633013 0.86662275
-2.38066816 -3.39680243 1.22442353 -0.59882200 -0.88393384 0.66597480
-1.78640223 -3.16104150 1.34578145 -0.44934314 -0.82258290 0.73198247
-2.01748896 -3.19514942 1.36750162 -0.50746959 -0.83145863 0.74379623
-1.72513878 -3.22162223 1.57114661 -0.43393323 -0.83834755 0.85456055
-1.81674075 -3.02669501 1.48457778 -0.45697436 -0.78762257 0.80747503
-2.82552052 -3.48706150 1.53286707 -0.71071804 -0.90742153 0.83374000
-2.47578096 -3.52510715 1.76476729 -0.62274623 -0.91732198 0.95987260
-2.46882224 -3.16996455 1.60238647 -0.62099588 -0.82490492 0.87155223
-2.36468244 -3.41959023 1.22732890 -0.59480101 -0.88986379 0.66755509
-1.78271043 -3.20169020 1.35858500 -0.44841453 -0.83316070 0.73894644
-1.98737776 -3.19190049 1.36053908 -0.49989560 -0.83061320 0.74000925
-1.72514307 -3.27137303 1.59047651 -0.43393433 -0.85129398 0.86507428
-1.79579878 -3.03489947 1.48299479 -0.45170671 -0.78975755 0.80661404
-2.81304359 -3.51649761 1.53814542 -0.70757967 -0.91508156 0.83661091
-2.46089005 -3.55124426 1.77016795 -0.61900061 -0.92412353 0.96281004
-2.44203925 -3.17663908 1.59785497 -0.61425900 -0.82664180 0.86908746
-2.35921192 -3.45817208 1.23604500 -0.59342498 -0.89990377 0.67229581
-1.76581800 -3.20677066 1.35716236 -0.44416550 -0.83448279 0.73817265
-1.96140122 -3.18373036 1.35288024 -0.49336156 -0.82848710 0.73584354
-1.74236453 -3.34295559 1.62188756 -0.43826613 -0.86992157 0.88215905
-1.76648510 -3.01805234 1.47033167 -0.44433329 -0.78537351 0.79972643
-2.79054570 -3.52234197 1.53484643 -0.70192063 -0.91660243 0.83481658
-2.43479800 -3.54906321 1.76322436 -0.61243755 -0.92355597 0.95903337
-2.62465644 -3.44497705 1.73002517 -0.66019362 -0.89647013 0.94097602
-1.94430494 -3.20078254 1.35496902 -0.48906127 -0.83292454 0.73697966
-1.77508759 -3.45999265 1.67423928 -0.44649714 -0.90037757 0.91063356
-1.76510167 -3.05921841 1.48536921 -0.44398531 -0.79608595 0.80790550
-2.76601958 -3.53684187 1.53352690 -0.69575149 -0.92037565 0.83409888
-2.39396405 -3.53669810 1.74933696 -0.60216635 -0.92033827 0.95147985
-2.51560116 -3.34636045 1.67111504 -0.63276243 -0.87080759 0.90893430
-1.89207900 -3.16002846 1.33199251 -0.47592458 -0.82231927 0.72448254
-1.74677825 -3.45797086 1.66779602 -0.43937632 -0.89985144 0.90712905
-1.75226498 -3.08138824 1.49090934 -0.44075644 -0.80185509 0.81091881
-2.76811290 -3.58542609 1.54738235 -0.69627804 -0.93301851 0.84163499
-2.35643458 -3.52857924 1.73776412 -0.59272641 -0.91822553 0.94518530
-2.44676638 -3.29837966 1.63863885 -0.61544800 -0.85832179 0.89127022
-1.84140515 -3.12035608 1.30971229 -0.46317834 -0.81199551 0.71236414
-1.71211267 -3.44258308 1.65490937 -0.43065670 -0.89584714 0.90011990
-1.74466157 -3.11309981 1.50119817 -0.43884391 -0.81010729 0.81651497
-2.78927279 -3.65961599 1.57245421 -0.70160049 -0.95232457 0.85527182
-2.33320975 -3.54176974 1.73699272 -0.58688456 -0.92165804 0.94476575
-2.57027125 -3.50872397 1.73757768 -0.64651388 -0.91305870 0.94508392
-1.83223283 -3.14963293 1.31737113 -0.46087116 -0.81961411 0.71652985
-1.68009830 -3.43184257 1.64443910 -0.42260396 -0.89305216 0.89442503
-1.75556564 -3.17849541 1.52810752 -0.44158667 -0.82712483 0.83115125
-2.76165724 -3.67105436 1.56981504 -0.69465417 -0.95530117 0.85383630
-2.05543256 -3.15903687 1.53948379 -0.51701379 -0.82206124 0.83733886
-2.54271483 -3.51732564 1.73380136 -0.63958246 -0.91529703 0.94302994
-1.82088172 -3.17567444 1.32363737 -0.45801598 -0.82639074 0.71993810
-1.64357221 -3.41091585 1.62913620 -0.41341636 -0.88760650 0.88610160
-1.74975097 -3.21519756 1.54077065 -0.44012406 -0.83667570 0.83803880
-2.73287582 -3.68077922 1.56651616 -0.68741465 -0.95783180 0.85204202
-2.01281500 -3.13604856 1.52173889 -0.50629395 -0.81607908 0.82768726
-2.52272987 -3.53623748 1.73531187 -0.63455552 -0.92021841 0.94385153
-1.60880852 -3.37885237 1.60980642 -0.40467209 -0.87926280 0.87558800
-1.74864984 -3.24920845 1.55343390 -0.43984711 -0.84552616 0.84492648
-1.98330200 -3.12205505 1.51016605 -0.49887040 -0.81243765 0.82139271
-2.49528313 -3.53301001 1.72775936 -0.62765169 -0.91937852 0.93974364
-1.58984959 -3.39388013 1.61222255 -0.39990324 -0.88317341 0.87690216
-1.74992990 -3.30058265 1.57322013 -0.44016910 -0.85889506 0.85568839
-1.96170449 -3.13131666 1.50862300 -0.49343786 -0.81484777 0.82055342
-2.46770573 -3.54104662 1.72398305 -0.62071502 -0.92146987 0.93768966
-1.56849396 -3.40380239 1.61222255 -0.39453155 -0.88575542 0.87690216
-1.80131412 -3.44788551 1.63970196 -0.45309404 -0.89722699 0.89184844
-2.06402898 -3.20392919 1.33716071 -0.51917607 -0.83374333 0.72729355
-1.93814683 -3.13727999 1.50553691 -0.48751226 -0.81639957 0.81887490
-2.42005348 -3.51997709 1.70585692 -0.60872877 -0.91598701 0.92783070
-1.54483652 -3.40857577 1.60980642 -0.38858086 -0.88699758 0.87558800
-1.77961504 -3.45913529 1.63970196 -0.44763595 -0.90015447 0.89184844
-2.02484608 -3.18655705 1.32428288 -0.50932020 -0.82922268 0.72028923
-2.69254017 -3.81024051 1.59488690 -0.67726880 -0.99152088 0.86747313
-1.85942209 -3.05136561 1.45770276 -0.46771023 -0.79404247 0.79285747
-2.39579558 -3.53205776 1.70434630 -0.60262710 -0.91913068 0.92700905
-1.51750064 -3.40480566 1.60336304 -0.38170493 -0.88601649 0.87208337
-1.75784564 -3.47024870 1.63970196 -0.44216016 -0.90304643 0.89184844
-2.00379395 -3.19761658 1.32360506 -0.50402486 -0.83210069 0.71992052
-1.82797706 -3.04235649 1.44767296 -0.45980069 -0.79169804 0.78740215
-2.36110902 -3.52863097 1.69528329 -0.59390217 -0.91823900 0.92207962
-1.48301756 -3.38402009 1.58886564 -0.37303123 -0.88060755 0.86419809
