6.99331951 -5.91000652 2.04481411 0.68639624 -0.98586839 0.74300975
7.00330925 -5.84351873 2.03684211 0.68737674 -0.97477734 0.74011302
6.96448183 -5.73756409 2.01469755 0.68356580 -0.95710272 0.73206651
6.95946693 -5.66055727 2.00273943 0.68307358 -0.94425696 0.72772139
6.65952063 -5.61453199 2.43955255 0.65363377 -0.93657929 0.88644308
6.93585110 -5.58743620 1.98812413 0.68075567 -0.93205935 0.72241074
6.57910776 -5.47684431 2.39692354 0.64574122 -0.91361117 0.87095326
6.93717766 -5.51711655 1.97838056 0.68088591 -0.92032909 0.71887028
6.56275654 -5.39398575 2.37834191 0.64413637 -0.89978921 0.86420143
6.62046766 -5.37198305 2.38708615 0.64980072 -0.89611888 0.86737877
6.61647987 -5.30029917 2.37342310 0.64940929 -0.88416106 0.86241412
6.61639023 -5.23244810 2.36139965 0.64940053 -0.87284255 0.85804522
6.61821175 -5.18347168 2.35320187 0.64957929 -0.86467266 0.85506648
7.13350725 -5.95442152 2.02194285 0.70015568 -0.99327743 0.73469919
6.62015200 -5.11832523 2.34227133 0.64976972 -0.85380536 0.85109472
7.00931787 -5.17289448 1.94383514 0.68796647 -0.86290824 0.70631772
7.13166857 -5.87710810 2.01070738 0.69997525 -0.98038054 0.73061663
6.70550203 -5.69907856 2.39498615 0.65814686 -0.95068282 0.87024933
7.00062275 -5.09899378 1.93232000 0.68711305 -0.85058063 0.70213354
7.12460518 -5.79634714 1.99817538 0.69928193 -0.96690851 0.72606295
6.61774731 -4.98511934 2.31877089 0.64953375 -0.83158481 0.84255552
6.64684629 -5.57730436 2.36091948 0.65238976 -0.93036926 0.85787076
7.01983166 -5.04583025 1.92877686 0.68899840 -0.84171224 0.70084614
6.61336422 -4.91712666 2.30620074 0.64910352 -0.82024270 0.83798796
6.60470915 -5.47129583 2.33324027 0.64825404 -0.91268557 0.84781313
7.04980326 -5.00049925 1.92833400 0.69194013 -0.83415037 0.70068520
6.63169765 -4.86640167 2.30182862 0.65090293 -0.81178111 0.83639932
6.67917013 -5.46273851 2.34761214 0.65556240 -0.91125810 0.85303533
7.08108282 -4.95610571 1.92833400 0.69501024 -0.82674497 0.70068520
6.53293800 -4.74718904 2.25919986 0.64120966 -0.79189485 0.82090962
6.67942047 -5.41051388 2.33856320 0.65558696 -0.90254635 0.84974730
7.12041664 -4.93375206 1.93276286 0.69887084 -0.82301605 0.70229447
6.65347958 -4.77084589 2.29089808 0.65304083 -0.79584116 0.83242756
6.62762451 -5.29960680 2.30822229 0.65050316 -0.88404554 0.83872253
7.11902237 -4.86697769 1.92390513 0.69873399 -0.81187719 0.69907594
6.71321583 -4.74998617 2.30128217 0.65890396 -0.79236144 0.83620077
8.36693287 -5.93433046 1.75348949 0.82121676 -0.98992598 0.63715315
7.16889620 -4.83519316 1.92921984 0.70362914 -0.80657512 0.70100707
6.64208937 -5.17549276 2.29012442 0.65192288 -0.86334169 0.83214647
7.18287182 -4.77928877 1.92479086 0.70500082 -0.79724950 0.69939774
6.65007162 -5.11479282 2.28160787 0.65270638 -0.85321611 0.82905185
7.18663025 -4.71700191 1.91770470 0.70536971 -0.78685921 0.69682288
6.62383604 -5.02846956 2.26138067 0.65013134 -0.83881623 0.82170200
7.20792770 -4.66647387 1.91549015 0.70746011 -0.77843046 0.69601822
6.65683985 -4.98791170 2.26191282 0.65337068 -0.83205062 0.82189536
6.66506004 -5.68205118 2.31229067 0.65417749 -0.94784242 0.84020084
7.24039841 -4.62318516 1.91637599 0.71064711 -0.77120936 0.69634008
6.65399837 -4.93689394 2.25286388 0.65309179 -0.82354015 0.81860733
6.65922594 -5.62323523 2.30090165 0.65360487 -0.93803114 0.83606249
7.28687191 -4.60458374 1.92301929 0.71520847 -0.76810640 0.69875401
6.68643904 -4.89613152 2.25339627 0.65627581 -0.81674045 0.81880081
6.66023254 -5.55291080 2.28899503 0.65370363 -0.92630005 0.83173609
7.26758623 -4.52890873 1.91017556 0.71331561 -0.75548279 0.69408709
6.70459175 -4.84495878 2.24913788 0.65805751 -0.80820417 0.81725347
6.65912485 -5.48157215 2.27657056 0.65359491 -0.91439980 0.82722145
7.27592897 -4.47095060 1.90486085 0.71413445 -0.74581456 0.69215590
7.29742718 -5.71850395 1.94860303 0.71624446 -0.95392323 0.70805019
6.73333406 -4.80161381 2.24860573 0.66087860 -0.80097365 0.81706011
6.66038990 -5.41289711 2.26518154 0.65371913 -0.90294391 0.82308310
7.28982496 -5.63912964 1.93689072 0.71549833 -0.94068253 0.70379442
6.75550079 -4.75364590 2.24594426 0.66305429 -0.79297197 0.81609303
6.66860390 -5.35045099 2.25638103 0.65452528 -0.89252704 0.81988537
7.27840090 -5.55771065 1.92434180 0.71437705 -0.92710072 0.69923460
6.66264248 -5.27735329 2.24292135 0.65394020 -0.88033336 0.81499457
7.28501701 -5.49074364 1.91681254 0.71502644 -0.91592973 0.69649875
7.27313137 -5.42836189 1.90677333 0.71385986 -0.90552366 0.69285083
6.75550079 -5.84181643 2.27588129 0.66305429 -0.97449338 0.82697099
7.29132223 -5.37099266 1.90259039 0.71564531 -0.89595366 0.69133091
6.69439888 -5.11700964 2.22324944 0.65705711 -0.85358590 0.80784655
6.75680065 -5.76900005 2.26385927 0.66318184 -0.96234667 0.82260263
7.33126307 -5.32965994 1.90426362 0.71956551 -0.88905883 0.69193894
6.68161392 -5.04121304 2.20823669 0.65580225 -0.84094203 0.80239147
6.75006580 -5.69014263 2.24933267 0.66252083 -0.94919217 0.81732422
7.32958889 -5.25848866 1.89506114 0.71940118 -0.87718648 0.68859506
6.60760546 -4.92092848 2.17303419 0.64853829 -0.82087690 0.78960019
6.77231598 -5.63644028 2.24482417 0.66470468 -0.94023389 0.81568599
7.36088514 -5.21120548 1.89464283 0.72247291 -0.86929905 0.68844306
6.68517637 -4.91352320 2.18856478 0.65615189 -0.81964165 0.79524344
6.72845984 -5.52844429 2.21827555 0.66040021 -0.92221874 0.80603921
7.37742424 -5.15368938 1.89045978 0.72409624 -0.85970455 0.68692309
6.71096754 -5.46113157 2.20374870 0.65868330 -0.91099006 0.80076069
7.38390684 -5.10666990 1.88585854 0.72473252 -0.85186106 0.68525118
6.67283058 -5.36047983 2.17970467 0.65494013 -0.89419997 0.79202402
7.40937471 -5.05578041 1.88418543 0.72723216 -0.84337205 0.68464327
6.78328371 -4.80730200 2.19322371 0.66578114 -0.80192250 0.79693633
6.67458057 -5.29310608 2.16918516 0.65511191 -0.88296115 0.78820157
7.41012192 -4.98844481 1.87623775 0.72730553 -0.83213955 0.68175536
6.82604170 -4.77341270 2.19736528 0.66997784 -0.79626930 0.79844123
6.67727041 -5.22712088 2.15916681 0.65537596 -0.87195390 0.78456128
7.44621420 -4.94502258 1.87749267 0.73084795 -0.82489616 0.68221134
6.81608009 -4.70309877 2.18442321 0.66900015 -0.78454000 0.79373854
6.69774723 -5.17556238 2.15515947 0.65738571 -0.86335325 0.78310519
8.56612301 -5.85996294 1.64575899 0.84076732 -0.97752047 0.59800792
7.46402979 -4.88959551 1.87414622 0.73259658 -0.81565017 0.68099535
6.83589840 -4.65368032 2.18131709 0.67094529 -0.77629632 0.79260987
6.72398710 -5.12866545 2.15315580 0.65996116 -0.85553026 0.78237712
7.49789476 -4.84471655 1.87498283 0.73592043 -0.80816376 0.68129933
6.79126310 -5.12970257 2.16718149 0.66656435 -0.85570323 0.78747356
7.10513401 -5.81153631 2.75206900 0.69737089 -0.96944225 1.00000000
8.66126919 -5.78619814 1.65182996 0.85010594 -0.96521550 0.60021389
7.50249100 -4.79778099 1.87038159 0.73637158 -0.80033427 0.67962742
6.73193550 -5.01843214 2.13762712 0.66074133 -0.83714187 0.77673459
6.74144840 -5.67772961 2.15888619 0.66167504 -0.94712150 0.78445935
6.60603619 -5.33634090 2.54346323 0.64838427 -0.89017332 0.92420042
7.52751827 -4.74742842 1.86912668 0.73882800 -0.79193479 0.67917144
6.73998165 -4.95876646 2.13011336 0.66153103 -0.82718879 0.77400434
6.62597895 -5.51027918 2.11010385 0.65034163 -0.91918856 0.76673365
6.59746075 -5.26142025 2.52719307 0.64754260 -0.87767553 0.91828841
6.74598074 -4.89805746 2.12209868 0.66211987 -0.81706172 0.77109212
6.77769613 -5.56432343 2.14777732 0.66523272 -0.92820382 0.78042275
6.63038874 -5.21986389 2.52719307 0.65077448 -0.87074339 0.91828841
6.75512171 -5.47532368 2.12942362 0.66301703 -0.91335750 0.77375370
6.64337444 -5.16288233 2.51963925 0.65204901 -0.86123806 0.91554362
8.96767807 -5.66979504 1.68314385 0.88018006 -0.94579792 0.61159217
9.35063362 -5.78507948 1.46643162 0.91776729 -0.96502888 0.53284699
6.75295353 -5.40375519 2.11783171 0.66280425 -0.90141892 0.76954162
6.63156700 -5.08736610 2.50278807 0.65089011 -0.84864098 0.90942055
8.99977016 -5.61125517 1.68250477 0.88332993 -0.93603271 0.61135995
9.35075569 -5.72446918 1.46180749 0.91777927 -0.95491832 0.53116673
6.81693363 -4.77185583 2.11809134 0.66908389 -0.79600960 0.76963598
6.69300508 -5.30456829 2.09078407 0.65692031 -0.88487321 0.75971353
6.69363403 -5.08490801 2.51731491 0.65698200 -0.84823090 0.91469908
7.94273567 -5.99472141 1.90936267 0.77958167 -1.00000000 0.69379169
9.31360245 -5.62176466 1.44938028 0.91413265 -0.93778580 0.52665114
6.68791723 -5.23260403 2.07870913 0.65642095 -0.87286860 0.75532597
6.64415407 -4.98210096 2.48651791 0.65212554 -0.83108133 0.90350854
6.74349022 -5.65110588 2.54351830 0.66187543 -0.94268030 0.92422038
7.88880491 -5.87687206 1.88712704 0.77428836 -0.98034114 0.68571210
9.25169468 -5.50563145 1.43290687 0.90805638 -0.91841322 0.52066529
6.69296265 -5.16919231 2.07001519 0.65691614 -0.86229068 0.75216687
6.98106575 -5.77670860 2.62057686 0.68519354 -0.96363252 0.95222062
8.73592281 -5.89468050 1.57551265 0.85743320 -0.98331183 0.57248300
7.87964201 -5.79356432 1.87600923 0.77338904 -0.96644431 0.68167233
9.23825645 -5.41944551 1.42481470 0.90673739 -0.90403628 0.51772493
6.69283772 -5.10240602 2.05987239 0.65690386 -0.85114980 0.74848139
6.79616690 -5.55130959 2.53676867 0.66704565 -0.92603296 0.92176783
8.69224739 -5.78583813 1.56071794 0.85314649 -0.96515548 0.56710714
9.42466450 -4.72200441 1.14768302 0.92503339 -0.78769374 0.41702554
7.87929249 -5.71750259 1.86719167 0.77335471 -0.95375615 0.67846835
9.24296856 -5.34450817 1.41990161 0.90719992 -0.89153570 0.51593971
6.71855021 -5.05560017 2.05794024 0.65942752 -0.84334195 0.74777931
6.65494728 -5.36592531 2.47039700 0.65318489 -0.89510834 0.89765084
8.52112007 -4.96764517 1.56236196 0.83635026 -0.82866991 0.56770450
7.87829971 -5.64167452 1.85837412 0.77325726 -0.94110703 0.67526436
9.25054741 -5.27167940 1.41556644 0.90794379 -0.87938690 0.51436442
6.64404249 -4.93485546 2.02509665 0.65211457 -0.82320011 0.73584515
6.69602489 -5.32999945 2.47320938 0.65721667 -0.88911545 0.89867276
8.52131462 -4.89636612 1.55661035 0.83636940 -0.81677961 0.56561458
7.91762733 -5.61354208 1.86144102 0.77711731 -0.93641418 0.67637879
9.24594688 -5.21156549 1.41065335 0.90749222 -0.86935908 0.51257920
9.26825905 -5.67148972 1.39256370 0.90968215 -0.94608063 0.50600612
6.76120186 -4.97225380 2.05407643 0.66361380 -0.82943869 0.74637532
6.62027121 -5.21853685 2.43552375 0.64978147 -0.87052202 0.88497919
9.24040699 -5.13230181 1.40429521 0.90694851 -0.85613686 0.51026887
9.27999783 -5.59877682 1.38865507 0.91083431 -0.93395114 0.50458586
6.77657509 -4.91831207 2.04924655 0.66512269 -0.82044047 0.74462032
6.69979763 -5.21348906 2.45296025 0.65758699 -0.86967993 0.89131498
8.51255322 -4.76777315 1.54510736 0.83550942 -0.79532856 0.56143481
9.26204491 -5.06846189 1.40256119 0.90907228 -0.84548748 0.50963885
9.27248764 -5.51496935 1.38167548 0.91009724 -0.91997093 0.50204974
6.77731276 -4.85423756 2.04006958 0.66519511 -0.80975199 0.74128574
6.77648163 -5.20530128 2.46927214 0.66511351 -0.86831415 0.89724207
8.52330589 -4.70373964 1.54159248 0.83656484 -0.78464693 0.56015766
7.99115801 -5.44238138 1.85415697 0.78433436 -0.90786225 0.67373198
9.30068302 -5.01390982 1.40371728 0.91286463 -0.83638746 0.51005888
9.26258564 -5.43047380 1.37441683 0.90912533 -0.90587592 0.49941221
6.81244183 -4.81490803 2.04151845 0.66864306 -0.80319130 0.74181223
6.69455719 -5.07537985 2.42708659 0.65707260 -0.84664148 0.88191342
10.18845844 -5.53503656 1.84258878 1.00000000 -0.92331839 0.66952854
7.96808910 -5.35386896 1.84073889 0.78207016 -0.89309722 0.66885638
9.32850266 -4.95352411 1.40313923 0.91559511 -0.82631433 0.50984883
9.26740456 -5.35526848 1.36967063 0.90959829 -0.89333069 0.49768761
6.84096527 -4.77090311 2.04103541 0.67144263 -0.79585069 0.74163669
9.36470890 -4.89755535 1.40400624 0.91914874 -0.81697798 0.51016390
9.25101757 -5.26841736 1.36157441 0.90798992 -0.87884271 0.49474573
9.20263386 -5.71549749 1.32681036 0.90324104 -0.95342171 0.48211378
6.84998655 -4.71357489 2.03475666 0.67232805 -0.78628755 0.73935527
8.55800533 -4.51472712 1.53200662 0.83997059 -0.75311708 0.55667448
9.40176201 -4.86061478 1.40631831 0.92278552 -0.81081581 0.51100403
9.25850487 -5.21501207 1.35878253 0.90872478 -0.86993402 0.49373126
9.37484837 -5.76103926 1.34987497 0.92014396 -0.96101868 0.49049461
6.85766268 -4.67144442 2.03040957 0.67308146 -0.77925962 0.73777568
8.61949158 -4.49526215 1.53935587 0.84600550 -0.74987006 0.55934495
9.42505455 -4.79786825 1.40516222 0.92507172 -0.80034882 0.51058394
9.25995350 -5.13937807 1.35375726 0.90886700 -0.85731727 0.49190527
9.39728546 -5.69383049 1.34772944 0.92234617 -0.94980735 0.48971498
6.91269445 -4.64552212 2.03813744 0.67848289 -0.77493542 0.74058372
9.28500271 -4.65375900 1.37741768 0.91132557 -0.77630949 0.50050259
9.25213909 -5.05916452 1.34733605 0.90810001 -0.84393656 0.48957205
9.30171585 -5.55665541 1.32707858 0.91296595 -0.92692471 0.48221123
9.48460102 -4.67905378 1.40516222 0.93091619 -0.78052896 0.51058394
9.24716759 -4.98113823 1.34147322 0.90761203 -0.83092070 0.48744172
9.29028320 -5.47103453 1.31983733 0.91184384 -0.91264200 0.47958004
9.58330727 -4.65294600 1.41643345 0.94060427 -0.77617383 0.51467949
9.25731087 -4.91175938 1.33812296 0.90860760 -0.81934738 0.48622435
9.29187202 -5.39371109 1.31474173 0.91199982 -0.89974344 0.47772849
9.67669582 -4.62323189 1.42683780 0.94977033 -0.77121711 0.51846004
9.23713970 -4.82679987 1.33002675 0.90662777 -0.80517501 0.48328248
9.32385635 -5.33424139 1.31447351 0.91513908 -0.88982308 0.47763100
9.73778248 -4.59608984 1.43319583 0.95576602 -0.76668948 0.52077031
8.69235229 -4.72207785 1.47678065 0.85315675 -0.78770596 0.53660744
9.81856728 -4.55888653 1.44157708 0.96369511 -0.76048344 0.52381575
9.27797413 -5.17368364 1.29838192 0.91063571 -0.86303985 0.47178394
8.73229790 -4.67298794 1.47859228 0.85707742 -0.77951711 0.53726572
9.91187859 -4.52657986 1.45198131 0.97285360 -0.75509429 0.52759624
9.34215641 -4.67805338 1.33365607 0.91693521 -0.78036207 0.48460126
9.18162251 -5.04490995 1.27853572 0.90117878 -0.84155869 0.46457255
9.88423538 -4.87330532 1.41433990 0.97014040 -0.81293273 0.51391876
9.26897240 -5.01720381 1.28711784 0.90975219 -0.83693695 0.46769097
8.78857613 -4.56197405 1.47829032 0.86260116 -0.76099849 0.53715599
9.93246174 -4.81978369 1.41713178 0.97487384 -0.80400461 0.51493323
9.28630829 -4.95143366 1.28497231 0.91145372 -0.82596558 0.46691138
8.86279011 -4.53015327 1.48614061 0.86988527 -0.75569040 0.54000849
9.27332401 -4.87003660 1.27826750 0.91017932 -0.81238747 0.46447510
9.28787994 -4.80351114 1.27585375 0.91160798 -0.80129015 0.46359801
9.36517334 -4.78755045 1.28416777 0.91919434 -0.79862767 0.46661904
9.29435825 -5.17298937 1.22505164 0.91224384 -0.86292404 0.44513842
9.42992687 -4.67211866 1.28497231 0.92554992 -0.77937210 0.46691138
9.35833549 -4.70008516 1.20393753 0.91852319 -0.78403729 0.43746632
