13.45555592 -5.02121639 2.46868110 0.75847286 -0.85363734 0.92487335
15.36579323 -5.70308065 1.86148977 0.86615056 -0.96955842 0.69739354
13.46542645 -4.99456596 2.39352822 0.75902927 -0.84910661 0.89671785
16.00863838 -5.71304274 1.93563271 0.90238696 -0.97125202 0.72517067
13.46505356 -4.89835644 2.38786173 0.75900823 -0.83275038 0.89459497
13.46015549 -4.82482910 2.38286185 0.75873214 -0.82025027 0.89272177
15.76816750 -5.43292475 1.89662290 0.88883191 -0.92363024 0.71055591
13.46231174 -4.73031569 2.37786198 0.75885367 -0.80418241 0.89084864
15.81328297 -5.33753920 1.89807665 0.89137501 -0.90741414 0.71110052
14.49839783 -5.88214254 2.14559698 0.81725657 -1.00000000 0.80383223
13.50108528 -4.64885998 2.37952876 0.76103932 -0.79033446 0.89147305
16.12559319 -5.32995176 1.93393660 0.90897954 -0.90612423 0.72453523
14.38239861 -5.73033476 2.12160945 0.81071782 -0.97419173 0.79484546
13.54123402 -4.56773710 2.38152862 0.76330245 -0.77654308 0.89222229
16.88247299 -5.46174240 2.02673626 0.95164388 -0.92852944 0.75930190
14.34067249 -5.60967779 2.10947108 0.80836576 -0.95367932 0.79029793
13.58089638 -4.48629284 2.38352847 0.76553816 -0.76269704 0.89297152
16.93539047 -5.36152983 2.02915931 0.95462680 -0.91149265 0.76020968
16.02341270 -5.68691826 1.84041202 0.90321976 -0.96681070 0.68949693
14.33681870 -5.50461721 2.10340190 0.80814856 -0.93581837 0.78802413
13.64257526 -4.41184330 2.38952827 0.76901489 -0.75004017 0.89521933
16.76516342 -5.22108984 2.00420260 0.94503129 -0.88761699 0.75085986
14.29963875 -5.41325760 2.09357572 0.80605274 -0.92028672 0.78434283
13.68951130 -4.35591412 2.39419484 0.77166063 -0.74053186 0.89696759
16.98381996 -5.17211437 2.02794790 0.95735669 -0.87929088 0.75975585
15.81257820 -5.41670990 1.80688107 0.89133525 -0.92087364 0.67693478
14.28511047 -5.30545425 2.08606148 0.80523384 -0.90195948 0.78152770
13.84835529 -4.31103039 2.41752768 0.78061450 -0.73290139 0.90570909
16.93223190 -5.04047441 2.01728678 0.95444876 -0.85691130 0.75576174
14.31630325 -5.21491909 2.08577251 0.80699211 -0.88656795 0.78141946
13.96002674 -4.24989700 2.43252730 0.78690928 -0.72250831 0.91132855
15.23972225 -4.43474483 1.79825032 0.85904408 -0.75393361 0.67370135
14.27793217 -5.09966469 2.07479024 0.80482918 -0.86697400 0.77730501
16.99996567 -4.82892609 2.01801372 0.95826679 -0.82094681 0.75603408
16.98941422 -5.46572208 1.93869233 0.95767206 -0.92920601 0.72631693
14.29474258 -5.00464249 2.07247829 0.80577677 -0.85081965 0.77643883
14.80574989 -5.80753517 2.10280466 0.83458161 -0.98731631 0.78780037
16.98212814 -4.70881128 2.01195621 0.95726132 -0.80052656 0.75376469
16.97417068 -5.34330225 1.93267989 0.95681280 -0.90839386 0.72406441
15.42167377 -5.53904772 1.70419943 0.86930048 -0.94167179 0.63846588
14.29219532 -4.90321350 2.06727624 0.80563319 -0.83357608 0.77448994
14.68862534 -5.65513706 2.07963252 0.82797945 -0.96140766 0.77911913
16.99347115 -5.26148510 1.93198621 0.95790070 -0.89448446 0.72380453
15.49259090 -5.48217010 1.70956397 0.87329799 -0.93200225 0.64047563
14.30013561 -4.83076191 2.06496406 0.80608076 -0.82125890 0.77362370
14.69845581 -5.57950926 2.07712007 0.82853359 -0.94855052 0.77817786
15.45158768 -5.35876417 1.70062304 0.87098670 -0.91102248 0.63712597
14.30201054 -4.73153114 2.06062913 0.80618644 -0.80438906 0.77199966
14.65345764 -5.45722246 2.06511497 0.82599711 -0.92776102 0.77368021
13.67343235 -5.41959715 2.21228862 0.77075428 -0.92136449 0.82881778
16.91868401 -4.37805462 1.99402630 0.95368505 -0.74429590 0.74704736
15.44730091 -5.24883223 1.69615245 0.87074506 -0.89233339 0.63545114
14.32392311 -4.63914728 2.05947304 0.80742162 -0.78868324 0.77156651
14.66886425 -5.35822582 2.06232333 0.82686555 -0.91093099 0.77263439
13.66670132 -5.31774950 2.20564604 0.77037489 -0.90404975 0.82632917
16.79951096 -4.23495626 1.97561169 0.94696742 -0.71996832 0.74014848
15.43364048 -4.45948839 1.73126304 0.86997503 -0.75814015 0.64860505
15.42337799 -5.13291407 1.68944669 0.86939657 -0.87262660 0.63293886
14.35656357 -4.55024719 2.06005096 0.80926156 -0.77356970 0.77178305
14.67801476 -5.25724077 2.05869389 0.82738137 -0.89376289 0.77127463
13.62969494 -5.20487499 2.19417262 0.76828885 -0.88486040 0.82203072
17.02057648 -4.17688084 2.00008368 0.95942861 -0.71009517 0.74931675
15.40806293 -5.02057171 1.68385863 0.86853325 -0.85352772 0.63084531
14.39810658 -4.46403742 2.06207395 0.81160325 -0.75891352 0.77254093
14.67713737 -5.15305996 2.05366850 0.82733190 -0.87605155 0.76939189
13.64732647 -5.11356449 2.19175720 0.76928276 -0.86933708 0.82112581
17.45983315 -4.16803598 2.05193520 0.98418897 -0.70859146 0.76874250
15.41846752 -4.91704512 1.68139982 0.86911976 -0.83592755 0.62992418
14.47513199 -4.38834620 2.06958818 0.81594509 -0.74604553 0.77535611
14.67553234 -5.04909801 2.04864335 0.82724142 -0.85837734 0.76750928
15.06427765 -5.81217337 2.04583502 0.84915453 -0.98810482 0.76645714
13.67733097 -5.02703094 2.19145536 0.77097404 -0.85462582 0.82101274
17.74032593 -4.14641857 2.08464527 1.00000000 -0.70491636 0.78099710
15.41490746 -4.83603764 1.67827046 0.86891907 -0.82215583 0.62875175
14.52221394 -4.32796240 2.07363439 0.81859905 -0.73577994 0.77687198
14.66728973 -4.96904087 2.04389715 0.82677680 -0.84476715 0.76573116
13.66556740 -4.94968033 2.18571854 0.77031094 -0.84147573 0.81886345
15.42978287 -4.73444319 1.67648232 0.86975759 -0.80488414 0.62808186
14.76391411 -4.29886627 2.10629201 0.83222342 -0.73083341 0.78910691
14.69822121 -4.87678623 2.04389715 0.82852036 -0.82908332 0.76573116
13.64239407 -4.84445763 2.17696261 0.76900470 -0.82358724 0.81558311
15.47636509 -4.64251995 1.67849398 0.87238336 -0.78925663 0.62883550
14.98486710 -4.26097441 2.13577080 0.84467822 -0.72439158 0.80015093
14.70033169 -4.77512407 2.03970957 0.82863933 -0.81180012 0.76416230
13.68376160 -4.76255989 2.17877412 0.77133656 -0.80966413 0.81626177
15.48805809 -4.54017782 1.67648232 0.87304246 -0.77185786 0.62808186
15.21354866 -4.22258091 2.16640544 0.85756874 -0.71786445 0.81162798
14.71495247 -4.67784595 2.03747606 0.82946348 -0.79526228 0.76332551
13.67600727 -4.66367388 2.17273545 0.77089942 -0.79285294 0.81399947
15.58317661 -4.46183825 1.68430567 0.87840420 -0.75853962 0.63101280
15.48246002 -4.19229078 2.20310926 0.87272692 -0.71271491 0.82537878
14.67978287 -4.56521654 2.02798367 0.82748103 -0.77611458 0.75976926
13.73128128 -4.58645916 2.17696261 0.77401519 -0.77972597 0.81558311
15.99385548 -4.47037077 1.72901070 0.90155363 -0.75999022 0.64776123
15.76689529 -4.16280794 2.24212503 0.88876021 -0.70770264 0.83999574
14.75742054 -4.48793793 2.03524256 0.83185732 -0.76297677 0.76248872
15.71050644 -5.41747761 2.10966492 0.88558161 -0.92100412 0.79037052
13.74292278 -4.49453831 2.17424512 0.77467138 -0.76409882 0.81456506
16.03163910 -4.15166569 2.27911806 0.90368348 -0.70580840 0.85385489
14.78409576 -4.42005491 2.03608012 0.83336103 -0.75143623 0.76280254
15.77153301 -5.35544825 2.11476064 0.88902158 -0.91045874 0.79227960
13.76959419 -4.43155146 2.17515087 0.77617484 -0.75339067 0.81490439
16.36452484 -4.12793112 2.32535911 0.92244780 -0.70177341 0.87117881
14.88188362 -4.34771776 2.04640985 0.83887321 -0.73913848 0.76667249
15.87072086 -5.27805805 2.12414718 0.89461267 -0.89730197 0.79579622
16.18108559 -4.14044189 2.66920996 0.91210759 -0.70390028 1.00000000
16.68235970 -4.35270262 1.80031526 0.94036376 -0.73998588 0.67447495
16.70734596 -4.10252285 2.37304497 0.94177222 -0.69745386 0.88904393
15.91111183 -5.18068123 2.12522006 0.89688951 -0.88074732 0.79619819
16.85966873 -4.28581619 1.81775022 0.95035845 -0.72861481 0.68100685
15.27671051 -4.25594187 2.09638357 0.86112911 -0.72353601 0.78539479
16.78777695 -5.34856796 2.24510217 0.94630599 -0.90928906 0.84111112
16.00335693 -5.75530624 2.04188681 0.90208924 -0.97843707 0.76497799
15.49610043 -4.21258783 2.12458110 0.87349582 -0.71616554 0.79595876
16.79455185 -5.23475647 2.24134755 0.94668788 -0.88994044 0.83970445
15.77103710 -4.18143082 2.16087484 0.88899362 -0.71086866 0.80955595
16.04196548 -4.89079905 2.13031578 0.90426552 -0.83146560 0.79810721
16.04922867 -4.17468739 2.19856453 0.90467495 -0.70972222 0.82367611
16.80097389 -5.29532528 1.63499129 0.94704992 -0.90023750 0.61253756
16.05723763 -4.81288195 2.12924290 0.90512639 -0.81821918 0.79770529
16.70645905 -5.15052652 1.62156820 0.94172221 -0.87562084 0.60750866
16.65844154 -5.02142811 1.61315370 0.93901551 -0.85367334 0.60435623
16.64383507 -4.90321922 1.60834539 0.93819219 -0.83357710 0.60255486
15.09295368 -4.21688128 1.98146880 0.85077095 -0.71689546 0.74234283
16.66857529 -4.79690266 1.60774434 0.93958676 -0.81550264 0.60232967
16.02952194 -4.09784603 2.49278402 0.90356410 -0.69665873 0.93390334
16.71563339 -4.69690132 1.60954738 0.94223934 -0.79850179 0.60300517
15.74638844 -4.18602514 2.06568122 0.88760424 -0.71164972 0.77389234
16.79706764 -4.63441658 1.61575818 0.94682974 -0.78787899 0.60533202
16.10741806 -4.20037842 2.11341953 0.90795505 -0.71408987 0.79177719
16.93157196 -4.55710936 1.62677717 0.95441157 -0.77473629 0.60946018
16.36791420 -4.15834618 2.14613914 0.92263889 -0.70694411 0.80403537
17.18128777 -4.50846577 1.64981687 0.96848774 -0.76646662 0.61809182
16.68624496 -4.12741232 2.18690443 0.94058275 -0.70168519 0.81930774
16.08491707 -4.50276995 2.00296569 0.90668666 -0.76549828 0.75039643
15.99045944 -4.36801195 1.98668492 0.90136224 -0.74258858 0.74429697
16.50939751 -4.20521164 2.04570246 0.93061411 -0.71491152 0.76640749
16.77224922 -4.16042185 2.07699203 0.94543076 -0.70729703 0.77812988
17.07951927 -4.12325096 2.11413240 0.96275115 -0.70097774 0.79204422
17.42558861 -4.09149361 2.15636063 0.98225868 -0.69557881 0.80786473
