-0.77447546 2.56432080 1.14186215 -0.19812101 0.67285883 0.59625477
-0.66267222 2.61540508 1.12605071 -0.16952027 0.68626297 0.58799839
-0.47295555 3.05224991 1.07689381 -0.12098825 0.80088782 0.56232977
-0.34150869 3.15373445 1.07299662 -0.08736242 0.82751662 0.56029475
-0.46778893 2.69340491 1.10666156 -0.11966656 0.70672959 0.57787383
-0.35279712 2.75093627 1.09485316 -0.09025014 0.72182536 0.57170773
-1.30356491 3.17828155 0.94098586 -0.33346903 0.83395761 0.49136171
-1.29118919 3.61417079 1.02486432 -0.33030319 0.94833171 0.53516114
-1.25677395 2.86647964 1.02484202 -0.32149932 0.75214309 0.53514951
-1.22520387 3.18748450 1.09775245 -0.31342328 0.83637238 0.57322168
-1.01209068 3.31362724 1.08705640 -0.25890610 0.86947131 0.56763643
-0.88964349 3.48283648 1.09427166 -0.22758250 0.91387057 0.57140410
-1.11533272 2.67128468 1.11352611 -0.28531677 0.70092535 0.58145833
-1.01128602 2.76787472 1.11283314 -0.25870025 0.72626990 0.58109647
-0.81480503 2.85910082 1.09540200 -0.20843785 0.75020695 0.57199436
-0.69374365 2.94447255 1.08760607 -0.17746875 0.77260786 0.56792349
-0.79555404 2.57510877 1.14911079 -0.20351319 0.67568952 0.60003984
-0.67954099 2.61297083 1.12684214 -0.17383552 0.68562424 0.58841169
-0.48837957 3.02695084 1.06876040 -0.12493391 0.79424953 0.55808270
-0.35989615 3.13838673 1.06837809 -0.09206617 0.82348949 0.55788308
-0.48538408 2.69403958 1.10820460 -0.12416763 0.70689613 0.57867956
-0.36820555 2.73396850 1.08881104 -0.09419182 0.71737313 0.56855267
-1.32726741 3.17888308 0.94371849 -0.33953246 0.83411545 0.49278861
-1.28070259 3.51342964 0.99771738 -0.32762057 0.92189801 0.52098560
-1.26223588 2.83092690 1.01457500 -0.32289654 0.74281430 0.52978832
-1.23907232 3.16377878 1.09208369 -0.31697100 0.83015221 0.57026160
-1.03404641 3.31082845 1.08828902 -0.26452267 0.86873692 0.56828010
-0.92097658 3.51414561 1.10626161 -0.23559792 0.92208588 0.57766497
-1.13431156 2.66934085 1.11574066 -0.29017180 0.70041531 0.58261472
-1.03184891 2.77021909 1.11646545 -0.26396051 0.72688502 0.58299321
-0.83382481 2.85750651 1.09682465 -0.21330336 0.74978864 0.57273722
-0.71609300 2.95648170 1.09387243 -0.18318601 0.77575898 0.57119560
-0.81115365 2.56831789 1.14830542 -0.20750377 0.67390764 0.59961933
-0.69594526 2.60864973 1.12684214 -0.17803195 0.68449044 0.58841169
-0.50771236 3.02567601 1.06943822 -0.12987950 0.79391503 0.55843663
-0.38175610 3.15482140 1.07497597 -0.09765823 0.82780182 0.56132829
-0.50054127 2.68188024 1.10434711 -0.12804504 0.70370555 0.57666528
-0.38611174 2.73710775 1.09107685 -0.09877246 0.71819687 0.56973583
-1.32585526 3.12102795 0.92841583 -0.33917120 0.81893468 0.48479792
-1.29282618 3.47815251 0.98973298 -0.33072194 0.91264153 0.51681632
-1.28317237 2.82982039 1.01714182 -0.32825238 0.74252397 0.53112864
-1.25892639 3.15593123 1.09208369 -0.32204992 0.82809305 0.57026160
-1.05659616 3.30969334 1.09013796 -0.27029118 0.86843908 0.56924558
-0.94400829 3.51198030 1.10746062 -0.24148974 0.92151773 0.57829106
-1.14463699 2.65885973 1.11352611 -0.29281318 0.69766515 0.58145833
-1.03842545 2.74784994 1.10920084 -0.26564288 0.72101551 0.57919979
-0.83966112 2.82851005 1.08686638 -0.21479636 0.74218017 0.56753725
-0.72476393 2.93119740 1.08551729 -0.18540415 0.76912457 0.56683278
-0.82382017 2.56620574 1.14911079 -0.21074404 0.67335343 0.60003984
-0.70776200 2.60356522 1.12605071 -0.18105483 0.68315631 0.58799839
-0.52196485 3.02324986 1.06943822 -0.13352548 0.79327846 0.55843663
-0.39460573 3.13611460 1.06903791 -0.10094533 0.82289332 0.55822760
-0.51677960 2.69758797 1.11206222 -0.13219902 0.70782715 0.58069390
-0.39646745 2.71691346 1.08352423 -0.10142159 0.71289802 0.56579202
-1.32358265 3.07596874 0.91639233 -0.33858985 0.80711150 0.47851950
-1.29512596 3.43406224 0.97855484 -0.33131024 0.90107256 0.51097935
-1.27965856 2.78770041 1.00366628 -0.32735348 0.73147202 0.52409202
-1.22120333 3.01766205 1.04484415 -0.31239986 0.79181224 0.54559416
-1.06919217 3.29564571 1.08705640 -0.27351341 0.86475313 0.56763643
-0.95363617 3.48168993 1.09906769 -0.24395268 0.91356975 0.57390845
-1.17041218 2.67198372 1.12238443 -0.29940683 0.70110881 0.58608395
-1.06093085 2.75521898 1.11501253 -0.27140006 0.72294915 0.58223450
-0.86241615 2.83924150 1.09326804 -0.22061740 0.74499601 0.57088006
-0.74586201 2.93750739 1.08969486 -0.19080131 0.77078027 0.56901419
-0.83934414 2.55924368 1.14830542 -0.21471527 0.67152667 0.59961933
-0.72362703 2.59729385 1.12525928 -0.18511331 0.68151075 0.58758515
-0.54198223 3.02546048 1.07147157 -0.13864619 0.79385847 0.55949843
-0.41477343 3.13732004 1.07035744 -0.10610450 0.82320964 0.55891663
-0.53148705 2.68344378 1.10743308 -0.13596138 0.70411581 0.57827669
-0.41565317 2.72903132 1.08956635 -0.10632955 0.71607769 0.56894708
-1.34757650 3.07813811 0.91967148 -0.34472778 0.80768073 0.48023179
-1.30168092 3.38618374 0.96684438 -0.33298710 0.88850963 0.50486445
-1.28333759 2.75051475 0.99275762 -0.32829463 0.72171474 0.51839572
-1.24085188 3.01168919 1.04547405 -0.31742623 0.79024500 0.54592305
-1.09475088 3.30328321 1.09198701 -0.28005168 0.86675715 0.57021111
-0.97902995 3.48850894 1.10326421 -0.25044873 0.91535896 0.57609981
-1.18410432 2.65780663 1.11943161 -0.30290946 0.69738883 0.58454204
-1.07554722 2.74154139 1.11210668 -0.27513912 0.71936023 0.58071715
-0.88363880 2.84445453 1.09753597 -0.22604643 0.74636388 0.57310867
-0.76706791 2.94366765 1.09387243 -0.19622606 0.77239668 0.57119560
-0.85956925 2.56603956 1.15394330 -0.21988912 0.67330986 0.60256326
-0.73845971 2.58738589 1.12288487 -0.18890770 0.67891097 0.58634526
-0.56062526 3.02014756 1.07079375 -0.14341532 0.79246444 0.55914444
-0.43151122 3.11219049 1.06244004 -0.11038624 0.81661582 0.55478233
-0.54987019 2.68727112 1.11051917 -0.14066403 0.70512009 0.57988816
-0.43445301 2.73735237 1.09409785 -0.11113879 0.71826106 0.57131332
-1.30837905 3.34015870 0.95566624 -0.33470058 0.87643296 0.49902746
-1.29236269 2.72533631 0.98634070 -0.33060336 0.71510816 0.51504499
-1.25251830 2.98628259 1.03917539 -0.32041064 0.78357852 0.54263407
-1.11672509 3.29993677 1.09321964 -0.28567296 0.86587906 0.57085478
-0.99937910 3.47677851 1.10146570 -0.25565431 0.91228104 0.57516068
-1.20311701 2.65537739 1.12164617 -0.30777314 0.69675142 0.58569843
-1.10158443 2.75728583 1.12155068 -0.28179979 0.72349143 0.58564860
-0.90149349 2.83884621 1.09753597 -0.23061389 0.74489230 0.57310867
-0.78460413 2.93516111 1.09247983 -0.20071205 0.77016461 0.57046843
-0.87325358 2.55367756 1.15072167 -0.22338974 0.67006612 0.60088104
-0.75972044 2.60036349 1.13079941 -0.19434649 0.68231618 0.59047806
-0.58105928 3.02394748 1.07350481 -0.14864260 0.79346150 0.56056011
-0.45649487 3.14869189 1.07629550 -0.11677739 0.82619351 0.56201732
-0.56398147 2.67114568 1.10511851 -0.14427388 0.70088893 0.57706809
-0.45077854 2.72908068 1.09183216 -0.11531508 0.71609062 0.57013023
-1.32722712 3.32648826 0.95406938 -0.33952215 0.87284595 0.49819362
-1.30028832 2.69845319 0.97928208 -0.33263084 0.70805418 0.51135910
-1.26244640 2.95734787 1.03161716 -0.32295039 0.77598625 0.53868735
-1.13617361 3.28926563 1.09198701 -0.29064816 0.86307901 0.57021111
-1.02278936 3.47593093 1.10326421 -0.26164296 0.91205859 0.57609981
-1.22056699 2.64944839 1.12238443 -0.31223708 0.69519567 0.58608395
-1.11129332 2.73127103 1.11355960 -0.28428346 0.71666533 0.58147585
-0.91460007 2.81893396 1.09184551 -0.23396672 0.73966748 0.57013720
-0.80303073 2.93017340 1.09247983 -0.20542583 0.76885587 0.57046843
-0.88620037 2.53952122 1.14669454 -0.22670171 0.66635162 0.59877813
-0.77553099 2.59377503 1.13000798 -0.19839104 0.68058741 0.59006482
-0.59853226 3.01286435 1.07079375 -0.15311243 0.79055339 0.55914444
-0.47329196 3.12520790 1.06903791 -0.12107431 0.82003146 0.55822760
-0.58440703 2.68374920 1.11206222 -0.14949900 0.70419598 0.58069390
-0.47001579 2.73898673 1.09711897 -0.12023623 0.71868992 0.57289088
-1.34380865 3.30734229 0.95087564 -0.34376392 0.86782217 0.49652591
-1.31383932 2.68344760 0.97671533 -0.33609739 0.70411682 0.51001883
-1.27355099 2.93189907 1.02531850 -0.32579109 0.76930869 0.53539830
-1.15746105 3.28385282 1.09260333 -0.29609376 0.86165875 0.57053292
-1.04460895 3.46943593 1.10326421 -0.26722470 0.91035438 0.57609981
-1.24279010 2.65347171 1.12755179 -0.31792206 0.69625139 0.58878225
-1.12983477 2.72768760 1.11501253 -0.28902659 0.71572506 0.58223450
-0.93649513 2.82552361 1.09682465 -0.23956777 0.74139655 0.57273722
-0.82043594 2.92145300 1.09108734 -0.20987831 0.76656771 0.56974131
-0.90276611 2.53562284 1.14750004 -0.23093945 0.66532874 0.59919876
-0.79390872 2.59589267 1.13317382 -0.20309229 0.68114305 0.59171796
-0.61745071 3.00904417 1.07079375 -0.15795201 0.78955096 0.55914444
-0.49320117 3.12403917 1.06969762 -0.12616734 0.81972480 0.55857211
-0.60292685 2.68721390 1.11514831 -0.15423661 0.70510507 0.58230543
-0.48970655 2.75058413 1.10316098 -0.12527338 0.72173297 0.57604593
-1.37401032 3.32204700 0.95779544 -0.35148990 0.87168062 0.50013930
-1.27606845 2.88727546 1.01209140 -0.32643509 0.75759977 0.52849144
-1.18134224 3.28544879 1.09568489 -0.30220288 0.86207753 0.57214206
-1.06638730 3.46280408 1.10326421 -0.27279589 0.90861422 0.57609981
-1.25043273 2.63754177 1.12312257 -0.31987715 0.69207150 0.58646941
-1.14196670 2.72061014 1.11428607 -0.29213011 0.71386802 0.58185518
-0.95345080 2.83168364 1.10109246 -0.24390526 0.74301291 0.57496578
-0.83872372 2.93380904 1.09735370 -0.21455656 0.76980984 0.57301348
-0.91597515 2.53477430 1.14911079 -0.23431849 0.66510606 0.60003984
-0.80666500 2.59388065 1.13396525 -0.20635551 0.68061513 0.59213120
-0.63242179 3.00977898 1.07214928 -0.16178182 0.78974378 0.55985230
-0.50529635 3.10489130 1.06375957 -0.12926145 0.81470054 0.55547136
-0.61600900 2.68613839 1.11591983 -0.15758321 0.70482290 0.58270830
-0.49914372 2.72818112 1.09485316 -0.12768753 0.71585459 0.57170773
-1.34480560 3.20682144 0.92532557 -0.34401897 0.84144628 0.48318425
-1.27284479 2.84300423 0.99823451 -0.32561043 0.74598330 0.52125567
-1.19614875 3.27806187 1.09506857 -0.30599058 0.86013925 0.57182026
-1.08493316 3.46503639 1.10566211 -0.27754018 0.90919995 0.57735193
-1.26779854 2.63130188 1.12386084 -0.32431954 0.69043416 0.58685488
-1.16263890 2.72197437 1.11791837 -0.29741833 0.71422601 0.58375186
-0.97060424 2.82387352 1.10038114 -0.24829333 0.74096358 0.57459432
-0.85302341 2.91405845 1.09178364 -0.21821460 0.76462740 0.57010490
-0.92994571 2.52383041 1.14669454 -0.23789234 0.66223449 0.59877813
-0.82186013 2.58525205 1.13238227 -0.21024263 0.67835104 0.59130460
-0.64844567 2.99289179 1.06740487 -0.16588093 0.78531271 0.55737484
-0.53024769 3.13519955 1.07563567 -0.13564433 0.82265323 0.56167281
-0.62850440 2.66428781 1.10820460 -0.16077968 0.69908947 0.57867956
-0.51428717 2.71405888 1.09032166 -0.13156143 0.71214902 0.56934148
-1.36343539 3.19475341 0.92426097 -0.34878471 0.83827972 0.48262835
-1.27905405 2.80895996 0.98878664 -0.32719883 0.73705035 0.51632220
-1.21470022 3.26514339 1.09321964 -0.31073630 0.85674953 0.57085478
-1.10439765 3.45086932 1.10326421 -0.28251946 0.90548265 0.57609981
-1.27767491 2.60997462 1.11795521 -0.32684603 0.68483806 0.58377111
-1.18044949 2.71632957 1.11864483 -0.30197451 0.71274483 0.58413124
-0.98832792 2.81771922 1.10038114 -0.25282729 0.73934871 0.57459432
-0.87341994 2.91583967 1.09456861 -0.22343230 0.76509482 0.57155913
-0.95169485 2.53331709 1.15394330 -0.24345607 0.66472369 0.60256326
-0.84196782 2.59229469 1.13792253 -0.21538644 0.68019897 0.59419763
-0.67061502 3.00342798 1.07282710 -0.17155214 0.78807735 0.56020623
-0.54553121 3.10574317 1.06639874 -0.13955405 0.81492406 0.55684948
-0.65061098 2.68176532 1.11746287 -0.16643484 0.70367545 0.58351403
-0.53715777 2.74171233 1.10316098 -0.13741203 0.71940506 0.57604593
-1.29117513 2.78877354 0.98437756 -0.33029959 0.73175359 0.51401985
-1.24204135 3.27519774 1.09938288 -0.31773052 0.85938770 0.57407308
-1.12838936 3.45112967 1.10566211 -0.28865683 0.90555096 0.57735193
-1.28901231 2.59194446 1.11352611 -0.32974631 0.68010712 0.58145833
-1.19600987 2.70544028 1.11719191 -0.30595505 0.70988756 0.58337253
-1.00344563 2.80443144 1.09753597 -0.25669459 0.73586208 0.57310867
-0.88903695 2.90131283 1.09108734 -0.22742735 0.76128304 0.56974131
-0.95891726 2.50512671 1.14347291 -0.24530365 0.65732676 0.59709591
-0.85428166 2.57472038 1.13238227 -0.21853648 0.67558759 0.59130460
-0.68903911 2.99732399 1.07214928 -0.17626527 0.78647566 0.55985230
-0.56927651 3.12642932 1.07497597 -0.14562842 0.82035196 0.56132829
-0.66515064 2.66868901 1.11360526 -0.17015429 0.70024431 0.58149970
-0.55012274 2.71647072 1.09409785 -0.14072864 0.71278185 0.57131332
-1.31106269 2.78577423 0.98626715 -0.33538708 0.73096657 0.51500654
-1.30394018 3.60969186 0.99375486 -0.33356506 0.94715649 0.51891649
-1.25493813 3.24785089 1.09260333 -0.32102966 0.85221207 0.57053292
-1.14945674 3.44215846 1.10506260 -0.29404616 0.90319699 0.57703888
-1.29932404 2.57222199 1.10835874 -0.33238417 0.67493206 0.57876003
-1.21975672 2.71321464 1.12373006 -0.31202981 0.71192747 0.58678663
-1.02365744 2.80507755 1.10038114 -0.26186505 0.73603165 0.57459432
-0.91054010 2.90642667 1.09526491 -0.23292813 0.76262492 0.57192278
-0.86986583 2.56755805 1.13159084 -0.22252312 0.67370826 0.59089136
-0.70963883 3.00024843 1.07486045 -0.18153495 0.78724301 0.56126803
-0.58316302 3.09121251 1.06375957 -0.14918077 0.81111133 0.55547136
-0.68661225 2.68229866 1.12132049 -0.17564444 0.70381534 0.58552837
-0.57083648 2.73111510 1.10165048 -0.14602748 0.71662444 0.57525712
-1.33661783 2.79465961 0.99256575 -0.34192443 0.73329806 0.51829553
-1.27249110 3.23283648 1.09013796 -0.32551995 0.84827244 0.56924558
-1.17106164 3.43486834 1.10506260 -0.29957297 0.90128410 0.57703888
-1.23372769 2.69869733 1.12082422 -0.31560376 0.70811826 0.58526927
-1.03860700 2.79160070 1.09753597 -0.26568934 0.73249543 0.57310867
-0.92710418 2.89528012 1.09317613 -0.23716544 0.75970012 0.57083201
-0.98963237 2.49118280 1.14266753 -0.25316098 0.65366799 0.59667534
-0.89126617 2.57770467 1.13871396 -0.22799760 0.67637068 0.59461087
-0.72756249 2.99207973 1.07350481 -0.18612005 0.78509963 0.56056011
-0.60851842 3.11902881 1.07497597 -0.15566702 0.81841016 0.56132829
-0.70056057 2.66724467 1.11669135 -0.17921261 0.69986528 0.58311117
-0.58647698 2.72022200 1.09862947 -0.15002853 0.71376616 0.57367963
-1.34514678 2.76736665 0.98563731 -0.34410623 0.72613657 0.51467770
-1.31200755 3.49555612 0.96580005 -0.33562878 0.91720814 0.50431913
-1.26332760 3.15254092 1.06486881 -0.32317582 0.82720345 0.55605060
-1.18953562 3.41841483 1.10206521 -0.30429885 0.89696681 0.57547373
-1.24951565 2.69963908 1.12373006 -0.31964254 0.70836538 0.58678663
-1.05175054 2.78667521 1.09753597 -0.26905161 0.73120302 0.57310867
-0.94414693 2.90159941 1.09735370 -0.24152520 0.76135826 0.57301348
-0.99578685 2.47294855 1.13622427 -0.25473538 0.64888346 0.59331083
-0.90697604 2.58390141 1.14346266 -0.23201640 0.67799664 0.59709054
-0.74258471 2.99226427 1.07486045 -0.18996294 0.78514802 0.56126803
-0.62213445 3.11056566 1.07299662 -0.15915017 0.81618947 0.56029475
-0.71508300 2.67102933 1.11977744 -0.18292764 0.70085835 0.58472264
-0.60121715 2.72648478 1.10240579 -0.15379925 0.71540946 0.57565159
-1.57084394 2.85508871 1.06847703 -0.40184253 0.74915421 0.55793470
-1.36313236 2.77125001 0.98941648 -0.34870720 0.72715557 0.51665109
-1.31731045 3.46050835 0.95751715 -0.33698535 0.90801185 0.49999395
-1.25128496 3.08148956 1.04206491 -0.32009515 0.80856013 0.54414290
-1.21688926 3.44521832 1.11285615 -0.31129628 0.90399987 0.58110851
-1.26567149 2.69004345 1.12300360 -0.32377541 0.70584756 0.58640730
-1.07470214 2.79393220 1.10322642 -0.27492294 0.73310721 0.57608008
-0.95888275 2.88491130 1.09317613 -0.24529482 0.75697941 0.57083201
-1.02474487 2.49872422 1.15152705 -0.26214322 0.65564680 0.60130155
-0.91955507 2.56774926 1.13871396 -0.23523428 0.67375845 0.59461087
-0.75898737 2.97843814 1.07147157 -0.19415896 0.78152019 0.55949843
-0.64055616 3.10104084 1.07101727 -0.16386269 0.81369025 0.55926120
-0.72884262 2.65582895 1.11514831 -0.18644753 0.69686991 0.58230543
-0.61635131 2.71360898 1.09862947 -0.15767077 0.71203095 0.57367963
-1.61956859 2.89954925 1.08965278 -0.41430694 0.76082033 0.56899220
-1.39307737 2.78818417 0.99886435 -0.35636753 0.73159891 0.52158457
-1.32839990 3.42520475 0.94975191 -0.33982217 0.89874846 0.49593914
-1.25660646 3.04024339 1.03035474 -0.32145646 0.79773742 0.53802812
-1.23469150 3.42671275 1.10925913 -0.31585032 0.89914411 0.57923019
-1.28730261 2.69215703 1.12736237 -0.32930893 0.70640212 0.58868331
-1.09501100 2.79406738 1.10607159 -0.28011823 0.73314267 0.57756573
-0.98053402 2.88950610 1.09735370 -0.25083351 0.75818509 0.57301348
-1.05406559 2.52423215 1.16682982 -0.26964384 0.66233987 0.60929233
-0.94122553 2.57749009 1.14583695 -0.24077787 0.67631435 0.59833032
-0.77817446 2.97542787 1.07214928 -0.19906726 0.78073031 0.55985230
-0.65506601 3.07291722 1.06244004 -0.16757450 0.80631077 0.55478233
-0.75115383 2.67069554 1.12363505 -0.19215503 0.70077080 0.58673698
-0.63543081 2.71871448 1.10240579 -0.16255155 0.71337062 0.57565159
-1.65569425 2.92051744 1.10184491 -0.42354837 0.76632220 0.57535869
-1.54540181 3.04940295 1.09901214 -0.39533409 0.80014080 0.57387948
-1.34917498 3.41499782 0.94923425 -0.34513670 0.89607024 0.49566883
-1.27044344 3.02004361 1.02604055 -0.32499614 0.79243714 0.53577536
-1.26073396 3.43144965 1.11345565 -0.32251233 0.90038705 0.58142155
-1.28492165 2.64365911 1.10992730 -0.32869986 0.69367665 0.57957911
-1.10479283 2.76808763 1.09824729 -0.28262055 0.72632575 0.57348007
-0.99505895 2.87263417 1.09317613 -0.25454918 0.75375801 0.57083201
-1.06116271 2.49740601 1.15716493 -0.27145937 0.65530092 0.60424554
-0.95300508 2.55944324 1.14029682 -0.24379124 0.67157900 0.59543741
-0.79635459 2.96866560 1.07147157 -0.20371798 0.77895594 0.55949843
-0.68261969 3.10751987 1.07629550 -0.17462310 0.81539029 0.56201732
-0.76163459 2.64469147 1.11437678 -0.19483614 0.69394749 0.58190256
-0.64998227 2.70384598 1.09787416 -0.16627401 0.70946920 0.57328522
-1.68641973 2.93132782 1.11018682 -0.43140835 0.76915878 0.57971466
-1.58170438 3.07349110 1.11160934 -0.40462080 0.80646139 0.58045745
-1.36987424 3.40466523 0.94871658 -0.35043186 0.89335901 0.49539849
-1.27420127 2.97711253 1.01371408 -0.32595745 0.78117234 0.52933872
-1.26314950 3.37153578 1.09607017 -0.32313025 0.88466609 0.57234323
-1.41865396 2.57225299 1.13050449 -0.36291033 0.67494017 0.59032404
-1.30150676 2.63553357 1.10992730 -0.33294255 0.69154453 0.57957911
-1.13146603 2.78354049 1.10749424 -0.28944388 0.73038048 0.57830864
-1.02044392 2.88758779 1.10153127 -0.26104298 0.75768173 0.57519490
-1.08865821 2.51748681 1.17005146 -0.27849308 0.66056997 0.61097461
-0.97609568 2.57234716 1.14900279 -0.24969812 0.67496490 0.59998345
-0.81805700 2.97446918 1.07553816 -0.20926975 0.78047878 0.56162190
-0.69808239 3.08472824 1.06969762 -0.17857866 0.80940992 0.55857211
-0.78732872 2.66987562 1.12749267 -0.20140904 0.70055562 0.58875138
-0.66954410 2.71051502 1.10240579 -0.17127819 0.71121913 0.57565159
-1.69419229 2.90274167 1.10312819 -0.43339667 0.76165801 0.57602876
-1.60359216 3.06855488 1.11349893 -0.41021997 0.80516613 0.58144414
-1.39123917 3.39599085 0.94871658 -0.35589728 0.89108294 0.49539849
-1.27901149 2.93773413 1.00262034 -0.32718796 0.77083975 0.52354586
-1.24072313 3.24742126 1.05710280 -0.31739330 0.85209936 0.55199534
-1.43846416 2.56975126 1.13345730 -0.36797807 0.67428374 0.59186596
-1.32875276 2.64903092 1.11937129 -0.33991244 0.69508618 0.58451056
-1.14166880 2.75915313 1.10038114 -0.29205391 0.72398138 0.57459432
-1.03295028 2.86520743 1.09526491 -0.26424226 0.75180930 0.57192278
-1.09770834 2.49556541 1.16280282 -0.28080824 0.65481794 0.60718954
-0.99093938 2.56272745 1.14741993 -0.25349534 0.67244077 0.59915692
-0.83568531 2.96565509 1.07418263 -0.21377930 0.77816600 0.56091404
-0.71411872 3.06554914 1.06441939 -0.18268096 0.80437744 0.55581594
-0.79699147 2.64196229 1.11746287 -0.20388091 0.69323140 0.58351403
-0.68434989 2.69726300 1.09862947 -0.17506570 0.70774192 0.57367963
-1.72799659 2.91802526 1.11339521 -0.44204426 0.76566827 0.58138996
-1.62108099 3.05505466 1.11223924 -0.41469383 0.80162376 0.58078635
-1.28650367 2.90535307 0.99399179 -0.32910457 0.76234317 0.51904023
-1.25496686 3.22352266 1.05170727 -0.32103702 0.84582853 0.54917794
-1.45797145 2.57583451 1.13936293 -0.37296829 0.67587996 0.59494972
-1.32957482 2.61939621 1.10920084 -0.34012273 0.68731022 0.57919979
-1.15686190 2.75889921 1.10251510 -0.29594049 0.72391480 0.57570863
-1.04707313 2.86207294 1.09596109 -0.26785508 0.75098681 0.57228631
-1.11551559 2.50369787 1.16924608 -0.28536355 0.65695184 0.61055404
-1.00695181 2.56831884 1.15216863 -0.25759152 0.67390788 0.60163659
-0.84858966 2.95807362 1.07282710 -0.21708040 0.77617669 0.56020623
-0.72813165 3.06031013 1.06375957 -0.18626565 0.80300277 0.55547136
-0.81442052 2.65401721 1.12440658 -0.20833948 0.69639450 0.58713990
-0.70065904 2.70837784 1.10467148 -0.17923780 0.71065837 0.57683468
-1.74467599 2.91470814 1.11532032 -0.44631106 0.76479787 0.58239526
-1.64167404 3.05912638 1.11664832 -0.41996181 0.80269217 0.58308870
-1.31913888 3.59258580 0.95545405 -0.33745307 0.94266796 0.49891666
-1.27333248 2.84040189 0.97303689 -0.32573518 0.74530047 0.50809801
-1.26048136 3.19266915 1.04331434 -0.32244772 0.83773279 0.54479533
-1.47600067 2.56983399 1.14083922 -0.37758037 0.67430544 0.59572065
-1.34179485 2.60267997 1.10556853 -0.34324878 0.68292403 0.57730305
-1.17790020 2.76014709 1.10607159 -0.30132237 0.72424221 0.57756573
-1.06760919 2.86248159 1.09874618 -0.27310848 0.75109404 0.57374060
-1.12661743 2.48666859 1.16441357 -0.28820357 0.65248346 0.60803062
-1.01972616 2.55338764 1.14821136 -0.26085937 0.66999006 0.59957021
-0.86661679 2.95088148 1.07214928 -0.22169197 0.77428949 0.55985230
-0.75214916 3.07588005 1.07101727 -0.19240965 0.80708820 0.55926120
-0.82599258 2.63303924 1.11746287 -0.21129976 0.69089007 0.58351403
-0.71581411 2.69674873 1.10165048 -0.18311466 0.70760697 0.57525712
-1.77288270 2.91982150 1.12173724 -0.45352671 0.76613963 0.58574599
-1.67164230 3.06881785 1.12420654 -0.42762810 0.80523515 0.58703542
-1.34636974 3.59694505 0.95896053 -0.34441909 0.94381183 0.50074768
-1.29355550 2.83752346 0.97488582 -0.33090851 0.74454522 0.50906348
-1.26508772 3.14564776 1.03012526 -0.32362607 0.82539475 0.53790832
-1.50253379 2.57810426 1.14895940 -0.38436791 0.67647552 0.59996080
-1.36409080 2.60579562 1.11065376 -0.34895235 0.68374151 0.57995844
-1.20429230 2.77320576 1.11460721 -0.30807382 0.72766870 0.58202285
-1.08753705 2.86098790 1.10083497 -0.27820629 0.75070208 0.57483131
-1.15155900 2.49942446 1.17407858 -0.29458395 0.65583050 0.61307746
-1.03710794 2.55034304 1.14979422 -0.26530585 0.66919118 0.60039675
-0.88790774 2.95437026 1.07553816 -0.22713847 0.77520496 0.56162190
-0.76787484 3.05642104 1.06573892 -0.19643249 0.80198234 0.55650496
-0.84597778 2.63831496 1.12209201 -0.21641225 0.69227439 0.58593124
-0.73179746 2.68861723 1.10013998 -0.18720341 0.70547330 0.57446837
-1.78417325 2.89737535 1.11724544 -0.45641500 0.76024991 0.58340049
-1.67907667 3.03658891 1.11601841 -0.42952991 0.79677850 0.58275974
-1.37438774 3.60291648 0.96296787 -0.35158646 0.94537866 0.50284022
-1.29594302 2.79664087 0.96317571 -0.33151928 0.73381793 0.50294876
-1.27414072 3.11108661 1.02113283 -0.32594195 0.81632614 0.53321266
-1.51200438 2.55745769 1.14379203 -0.38679060 0.67105800 0.59726250
-1.38475227 2.60543060 1.11428607 -0.35423785 0.68364573 0.58185518
-1.22015941 2.76217484 1.11318469 -0.31213284 0.72477430 0.58128005
-1.10815382 2.86110950 1.10361993 -0.28348032 0.75073403 0.57628554
-1.16250825 2.48222733 1.16924608 -0.29738489 0.65131813 0.61055404
-1.05863178 2.55739403 1.15612578 -0.27081195 0.67104131 0.60370296
-0.90701771 2.95052791 1.07621598 -0.23202705 0.77419674 0.56197584
-0.79441923 3.08083534 1.07629550 -0.20322289 0.80838847 0.56201732
-0.86841094 2.65043974 1.12980723 -0.22215094 0.69545585 0.58995998
-0.75158328 2.69469047 1.10467148 -0.19226488 0.70706689 0.57683468
-1.79930377 2.88130593 1.11532032 -0.46028557 0.75603342 0.58239526
-1.71558869 3.05753422 1.12798572 -0.43887016 0.80227441 0.58900881
-1.40184176 3.60686851 0.96647429 -0.35860956 0.94641566 0.50467116
-1.31020057 2.78157949 0.96071041 -0.33516654 0.72986591 0.50166142
-1.27195644 3.05005383 1.00314784 -0.32538319 0.80031163 0.52382129
-1.53287792 2.55584478 1.14748299 -0.39213035 0.67063481 0.59918988
-1.39934826 2.59338665 1.11283314 -0.35797170 0.68048549 0.58109647
-1.23438048 2.74765444 1.11033940 -0.31577078 0.72096425 0.57979429
-1.12069631 2.84010172 1.09804988 -0.28668886 0.74522173 0.57337701
-1.18127775 2.48146248 1.17246771 -0.30218640 0.65111744 0.61223632
-1.06907380 2.53710938 1.14979422 -0.27348313 0.66571879 0.60039675
-0.92611438 2.94656205 1.07689381 -0.23691224 0.77315611 0.56232977
-0.80527884 3.04287410 1.06441939 -0.20600092 0.79842770 0.55581594
-0.88205552 2.63620353 1.12594962 -0.22564140 0.69172037 0.58794564
-0.76800376 2.68813062 1.10391629 -0.19646546 0.70534563 0.57644033
-1.84499264 2.91298938 1.13264596 -0.47197339 0.76434690 0.59144229
-1.73755479 3.05165958 1.12987530 -0.44448936 0.80073297 0.58999550
-1.33015049 2.77842450 0.96255940 -0.34026998 0.72903806 0.50262690
-1.27272952 2.99797797 0.98816043 -0.32558095 0.78664726 0.51599520
-1.55183697 2.55090714 1.14969754 -0.39698032 0.66933918 0.60034627
-1.42445374 2.60094762 1.12009776 -0.36439401 0.68246943 0.58488989
-1.25634897 2.75001407 1.11460721 -0.32139060 0.72158337 0.58202285
-1.14195657 2.84172559 1.10153127 -0.29212752 0.74564779 0.57519490
-1.19765532 2.47563338 1.17327321 -0.30637598 0.64958793 0.61265695
-1.08641636 2.53372908 1.15137708 -0.27791959 0.66483182 0.60122329
-0.94637156 2.94604802 1.07892704 -0.24209429 0.77302122 0.56339151
-0.83113962 3.06330824 1.07365632 -0.21261644 0.80378944 0.56063920
-0.89738333 2.62712598 1.12440658 -0.22956246 0.68933845 0.58713990
-0.78538549 2.68503332 1.10467148 -0.20091194 0.70453292 0.57683468
-1.86429191 2.90292740 1.13328767 -0.47691038 0.76170671 0.59177738
-1.75293422 3.03408575 1.12735593 -0.44842362 0.79612172 0.58867997
-1.35264337 2.78024459 0.96625733 -0.34602398 0.72951567 0.50455791
-1.28408444 2.97235918 0.98216540 -0.32848570 0.77992511 0.51286471
-1.27755833 3.62721682 1.13261378 -0.32681623 0.95175493 0.59142548
-1.56482482 2.54514265 1.15043581 -0.40030277 0.66782665 0.60073173
-1.45363438 2.62529516 1.13390052 -0.37185881 0.68885809 0.59209740
-1.26451731 2.73391581 1.11033940 -0.32348016 0.71735930 0.57979429
-1.16020536 2.84850001 1.10640502 -0.29679579 0.74742538 0.57773989
-1.21829653 2.48798203 1.18213272 -0.31165627 0.65282810 0.61728317
-1.10050225 2.53365135 1.15375149 -0.28152296 0.66481143 0.60246313
-0.95905256 2.93798590 1.07757151 -0.24533826 0.77090579 0.56268364
-0.84605712 3.06118059 1.07431614 -0.21643254 0.80323118 0.56098378
-0.91098821 2.62634563 1.12594962 -0.23304276 0.68913370 0.58794564
-0.79906040 2.68485999 1.10618198 -0.20441017 0.70448744 0.57762343
-1.88835549 2.90993929 1.13970459 -0.48306617 0.76354659 0.59512818
-1.77953410 3.04717207 1.13554406 -0.45522824 0.79955548 0.59295565
-1.36487818 2.77213812 0.96564102 -0.34915379 0.72738856 0.50423604
-1.28375208 2.93297267 0.97077495 -0.32840067 0.76959038 0.50691688
-1.28483021 3.59417748 1.12389767 -0.32867646 0.94308561 0.58687413
-1.58376801 2.53997207 1.15265036 -0.40514868 0.66646993 0.60188812
-1.47821724 2.63078547 1.14043868 -0.37814742 0.69029868 0.59551150
-1.28328335 2.72928905 1.11176205 -0.32828075 0.71614528 0.58053720
-1.18090665 2.84810042 1.10919011 -0.30209145 0.74732053 0.57919419
-1.23307741 2.47864509 1.18132722 -0.31543741 0.65037817 0.61686254
-1.11493993 2.52331567 1.15216863 -0.28521630 0.66209942 0.60163659
-0.97870713 2.93546438 1.07892704 -0.25036615 0.77024418 0.56339151
-0.86879349 3.06854343 1.07893467 -0.22224881 0.80516315 0.56339544
-0.92935699 2.62577462 1.12826419 -0.23774174 0.68898386 0.58915424
-0.81802011 2.68688822 1.10920310 -0.20926030 0.70501965 0.57920098
-1.91080332 2.90432239 1.14227128 -0.48880863 0.76207274 0.59646845
-1.80918407 3.05395651 1.14247251 -0.46281308 0.80133563 0.59657347
-1.38226902 2.76350760 0.96564102 -0.35360259 0.72512400 0.50423604
-1.29450560 2.90736890 0.96477997 -0.33115155 0.76287216 0.50378644
-1.30206704 3.57167816 1.11924899 -0.33308586 0.93718201 0.58444667
-1.61074018 2.54717803 1.16077054 -0.41204852 0.66836071 0.60612833
-1.49289358 2.61819601 1.13898575 -0.38190180 0.68699533 0.59475279
-1.31021452 2.74134517 1.12029767 -0.33517012 0.71930873 0.58499432
-1.19877839 2.84062433 1.10919011 -0.30666327 0.74535882 0.57919419
-1.25951624 2.49200964 1.19179761 -0.32220080 0.65388495 0.62232995
-1.13225329 2.51962233 1.15375149 -0.28964528 0.66113031 0.60246313
-0.99527764 2.92392516 1.07689381 -0.25460511 0.76721638 0.56232977
-0.88188642 3.04122400 1.07101727 -0.22559814 0.79799473 0.55926120
-0.94391906 2.61469078 1.12594962 -0.24146691 0.68607557 0.58794564
-0.83058465 2.66751838 1.10316098 -0.21247448 0.69993711 0.57604593
-1.93643582 2.90324736 1.14676309 -0.49536574 0.76179069 0.59881395
-1.82058966 3.02946782 1.13743365 -0.46573079 0.79491001 0.59394234
-1.59515154 3.13345814 1.10369706 -0.40806076 0.82219630 0.57632583
-1.30731606 2.88697600 0.96058345 -0.33442864 0.75752121 0.50159514
-1.28998983 3.47212481 1.08961415 -0.32999638 0.91105992 0.56897205
-1.63076806 2.54323912 1.16372323 -0.41717193 0.66732717 0.60767013
-1.51853704 2.62495589 1.14625025 -0.38846174 0.68876904 0.59854615
-1.32327354 2.72467923 1.11674118 -0.33851078 0.71493572 0.58313715
-1.22024488 2.84167433 1.11267138 -0.31215468 0.74563438 0.58101201
-1.27175760 2.47755671 1.18857598 -0.32533231 0.65009260 0.62064773
-1.15106630 2.51916313 1.15691733 -0.29445791 0.66100979 0.60411626
-1.01614630 2.92470741 1.07960486 -0.25994357 0.76742160 0.56374544
-0.90991217 3.06645083 1.08223355 -0.23276751 0.80461407 0.56511807
-0.96422946 2.61906981 1.13057876 -0.24666257 0.68722457 0.59036285
-0.85171902 2.67639685 1.10920310 -0.21788093 0.70226675 0.57920098
-1.96641028 2.90821671 1.15382171 -0.50303364 0.76309460 0.60249978
-1.85328925 3.04074001 1.14625168 -0.47409576 0.79786772 0.59854692
-1.62541103 3.14359450 1.11109293 -0.41580153 0.82485598 0.58018780
-1.32070839 2.86827540 0.95698649 -0.33785456 0.75261432 0.49971688
-1.23546052 3.26571083 1.02511489 -0.31604704 0.85689843 0.53529197
-1.64876258 2.53604555 1.16519964 -0.42177516 0.66543961 0.60844111
-1.54059458 2.62504292 1.15060902 -0.39410436 0.68879187 0.60082221
-1.22994351 2.81499839 1.10501254 -0.31463572 0.73863477 0.57701272
-1.29244757 2.47921991 1.19340849 -0.33062509 0.65052903 0.62317115
-1.16382551 2.50519538 1.15375149 -0.29772186 0.65734476 0.60246313
-1.02937984 2.90411019 1.07418263 -0.26332891 0.76201707 0.56091404
-0.91895902 3.02628183 1.06969762 -0.23508181 0.79407400 0.55857211
-0.97670084 2.60262299 1.12594962 -0.24985293 0.68290907 0.58794564
-0.86459911 2.65863585 1.10391629 -0.22117582 0.69760644 0.57644033
-1.99868298 2.91603565 1.16216373 -0.51128942 0.76514626 0.60685581
-1.87532461 3.03389668 1.14814126 -0.47973269 0.79607207 0.59953362
-1.64334226 3.12996078 1.10986030 -0.42038855 0.82127857 0.57954413
-1.33631086 2.85472083 0.95518798 -0.34184590 0.74905765 0.49877772
-1.25665379 3.25966549 1.02569604 -0.32146856 0.85531217 0.53559548
-1.66879773 2.53181648 1.16815245 -0.42690042 0.66432995 0.60998297
-1.55800021 2.61691880 1.15133548 -0.39855695 0.68666017 0.60120153
-1.31326616 2.62123632 1.07975328 -0.33595076 0.68779308 0.56382293
-1.25360692 2.82096124 1.11058259 -0.32068914 0.74019939 0.57992131
-1.30105388 2.45815682 1.18696511 -0.33282670 0.64500219 0.61980653
-1.18571949 2.51116633 1.16008306 -0.30332264 0.65891153 0.60576934
-1.05346942 2.91347289 1.08028269 -0.26949134 0.76447380 0.56409937
-0.94343859 3.03851485 1.07629550 -0.24134400 0.79728389 0.56201732
-1.00042343 2.61533928 1.13443625 -0.25592148 0.68624574 0.59237713
-0.88357055 2.66019773 1.10693729 -0.22602896 0.69801623 0.57801783
-1.90434003 3.03819466 1.15443993 -0.48715523 0.79719985 0.60282260
-1.67111802 3.13463807 1.11540723 -0.42749396 0.82250589 0.58244061
-1.35341251 2.84454012 0.95458847 -0.34622073 0.74638635 0.49846467
-1.27285028 3.24104238 1.02220953 -0.32561183 0.85042560 0.53377485
-1.68799436 2.53470564 1.17331982 -0.43181115 0.66508806 0.61268127
-1.56651437 2.60313582 1.14842963 -0.40073499 0.68304360 0.59968418
-1.31617999 2.59674382 1.07192898 -0.33669615 0.68136638 0.55973727
-1.22670329 2.72414041 1.07368088 -0.31380683 0.71479434 0.56065208
-1.19052076 2.49058437 1.15296006 -0.30455086 0.65351093 0.60204989
-1.06718707 2.90847611 1.08028269 -0.27300048 0.76316267 0.56409937
-0.95440578 3.02321100 1.07233679 -0.24414955 0.79326826 0.55995023
-1.01273668 2.61059594 1.13443625 -0.25907135 0.68500108 0.59237713
-0.89957225 2.66655850 1.11146879 -0.23012242 0.69968528 0.58038408
-1.92064917 3.03240561 1.15569961 -0.49132732 0.79568082 0.60348040
-1.68952119 3.13340640 1.11787248 -0.43220174 0.82218271 0.58372790
-1.42642581 2.96401072 0.99835187 -0.36489847 0.77773452 0.52131695
-1.28810906 3.23500824 1.02220953 -0.32951525 0.84884226 0.53377485
-1.71018863 2.53325152 1.17774892 -0.43748873 0.66470647 0.61499405
-1.58379948 2.59483886 1.14915609 -0.40515673 0.68086654 0.60006350
-1.34114110 2.60498214 1.07904196 -0.34308153 0.68352807 0.56345147
-1.23226118 2.69072962 1.06323707 -0.31522861 0.70602757 0.55519855
-1.32977521 2.44690681 1.18857598 -0.34017399 0.64205027 0.62064773
-1.22195268 2.51621509 1.16878903 -0.31259155 0.66023624 0.61031538
-1.08544040 2.90171337 1.08028269 -0.27766994 0.76138818 0.56409937
-0.97906375 3.03515983 1.07893467 -0.25045738 0.79640353 0.56339544
-1.03395367 2.61615872 1.13983691 -0.26449895 0.68646073 0.59519726
-0.91217667 2.64856648 1.10618198 -0.23334679 0.69496429 0.57762343
-1.96508145 3.06035328 1.17144608 -0.50269365 0.80301410 0.61170286
-1.71379066 3.13104796 1.12095404 -0.43841019 0.82156384 0.58533704
-1.53771019 3.14754200 1.06549573 -0.39336649 0.82589179 0.55637795
-1.20923126 3.44269443 1.03440630 -0.30933726 0.90333760 0.54014373
-1.71971238 2.51329422 1.17331982 -0.43992504 0.65946984 0.61268127
-1.60783327 2.59756374 1.15496778 -0.41130489 0.68158156 0.60309827
-1.35572708 2.59320331 1.07761943 -0.34681281 0.68043739 0.56270868
-1.24836349 2.68122888 1.06254077 -0.31934780 0.70353466 0.55483496
-1.36393726 2.47202897 1.20548964 -0.34891310 0.64864212 0.62947965
-1.23533607 2.50352883 1.16641474 -0.31601521 0.65690750 0.60907561
-1.10433269 2.89658999 1.08096039 -0.28250283 0.76004380 0.56445324
-0.99289966 3.01277614 1.07299662 -0.25399679 0.79053020 0.56029475
-1.04616296 2.59937048 1.13520777 -0.26762223 0.68205565 0.59277999
-0.93300927 2.65504384 1.11146879 -0.23867604 0.69666392 0.58038408
-1.97297716 3.03038335 1.16451764 -0.50471354 0.79515022 0.60808498
-1.73342967 3.12021828 1.12095404 -0.44343412 0.81872225 0.58533704
-1.60692000 3.23894334 1.10086620 -0.41107127 0.84987479 0.57484764
-1.28200388 3.10739446 0.98560184 -0.32795346 0.81535739 0.51465917
-1.23529959 3.44770122 1.03834355 -0.31600589 0.90465134 0.54219967
-1.74081707 2.51004100 1.17701077 -0.44532391 0.65861624 0.61460859
-1.63098335 2.59850383 1.16005301 -0.41722700 0.68182820 0.60575366
-1.39063907 2.61917686 1.09255683 -0.35574377 0.68725270 0.57050866
-1.25649142 2.65463042 1.05488193 -0.32142702 0.69655544 0.55083567
-1.36404181 2.43636680 1.19179761 -0.34893984 0.63928467 0.62232995
-1.25023067 2.49406958 1.16562319 -0.31982544 0.65442544 0.60866225
-1.12389636 2.89309287 1.08231592 -0.28750747 0.75912619 0.56516111
-1.02362442 3.04234290 1.08619225 -0.26185659 0.79828835 0.56718522
-1.06318653 2.59444809 1.13597929 -0.27197710 0.68076402 0.59318286
-0.95028520 2.65087700 1.11222410 -0.24309546 0.69557053 0.58077848
-2.01375031 3.05131936 1.17774475 -0.51514381 0.80064368 0.61499184
-1.75866342 3.11917758 1.12465203 -0.44988924 0.81844914 0.58726805
-1.65780747 3.29029536 1.12244809 -0.42408895 0.86334920 0.58611721
-1.29097998 3.07463884 0.97746676 -0.33024967 0.80676252 0.51041120
-1.25045073 3.42180824 1.03271890 -0.31988174 0.89785725 0.53926265
-1.76194859 2.50662136 1.18070173 -0.45072961 0.65771896 0.61653596
-1.63935733 2.57557607 1.15424132 -0.41936916 0.67581213 0.60271889
-1.40257728 2.60219121 1.08900023 -0.35879773 0.68279576 0.56865150
-1.26353371 2.62634134 1.04652691 -0.32322854 0.68913257 0.54647285
-1.40130436 2.46578979 1.21112752 -0.35847208 0.64700502 0.63242358
-1.26669800 2.48780775 1.16641474 -0.32403800 0.65278238 0.60907561
-1.14275563 2.88771939 1.08299375 -0.29233193 0.75771624 0.56551504
-1.03007793 2.99827194 1.07233679 -0.26350749 0.78672445 0.55995023
-1.08091235 2.59111238 1.13752234 -0.27651161 0.67988878 0.59398866
-0.96816891 2.64834166 1.11373460 -0.24767034 0.69490528 0.58156723
-1.78013551 3.11135817 1.12588465 -0.45538208 0.81639743 0.58791167
-1.68016779 3.28322077 1.12364709 -0.42980903 0.86149287 0.58674330
-1.29578221 3.03311825 0.96642637 -0.33147812 0.79586786 0.50464618
-1.25542510 3.36882854 1.01865709 -0.32115424 0.88395572 0.53191990
-1.78637111 2.50755525 1.18660736 -0.45697722 0.65796399 0.61961973
-1.66450739 2.57937598 1.16077948 -0.42580289 0.67680919 0.60613298
-1.43252671 2.61783147 1.09966981 -0.36645916 0.68689966 0.57422292
-1.27514052 2.60821009 1.04234934 -0.32619771 0.68437505 0.54429144
-1.39732718 2.42377162 1.19421387 -0.35745466 0.63597977 0.62359166
-1.28729475 2.48962545 1.17116344 -0.32930693 0.65325934 0.61155528
-1.15658844 2.87003851 1.07892704 -0.29587054 0.75307691 0.56339151
-1.04889619 2.99174047 1.07233679 -0.26832145 0.78501064 0.55995023
-1.10010481 2.59104252 1.14060843 -0.28142127 0.67987043 0.59560013
-0.98605818 2.64568591 1.11524510 -0.25224665 0.69420844 0.58235598
-2.85098243 3.79147863 1.57156181 -0.72931880 0.99485600 0.82063431
-1.81701136 3.12963295 1.13697839 -0.46481541 0.82119256 0.59370458
-1.71643305 3.30316114 1.13443804 -0.43908614 0.86672509 0.59237808
-1.29237735 2.97415614 0.94957519 -0.33060712 0.78039664 0.49584684
-1.26985383 3.34289360 1.01303232 -0.32484531 0.87715060 0.52898276
-1.79488111 2.49460459 1.18439269 -0.45915419 0.65456581 0.61846328
-1.67966604 2.57620645 1.16295886 -0.42968068 0.67597753 0.60727102
-1.43568540 2.59475875 1.09255683 -0.36726722 0.68084556 0.57050866
-1.29233491 2.61228967 1.04652691 -0.33059627 0.68544555 0.54647285
-1.43113172 2.45495772 1.21354377 -0.36610231 0.64416277 0.63368529
-1.29901242 2.48353171 1.17116344 -0.33230445 0.65166038 0.61155528
-1.17660701 2.88019133 1.08502710 -0.30099154 0.75574094 0.56657678
-1.06173944 2.98319912 1.07101727 -0.27160692 0.78276944 0.55926120
-1.10933721 2.57907081 1.13752234 -0.28378305 0.67672914 0.59398866
-1.00815117 2.66706371 1.12657404 -0.25789833 0.69981784 0.58827168
-2.89416218 3.81108284 1.58567894 -0.74036473 1.00000000 0.82800597
-1.82882237 3.11612940 1.13512945 -0.46783683 0.81764936 0.59273911
-1.72407305 3.27979207 1.12904263 -0.44104058 0.86059320 0.58956069
-1.29934108 2.95231271 0.94434553 -0.33238855 0.77466506 0.49311605
-1.26587844 3.28482175 0.99672067 -0.32382834 0.86191297 0.52046514
-1.80830967 2.48028851 1.18291628 -0.46258938 0.65080941 0.61769235
-1.69175076 2.55935693 1.16005301 -0.43277210 0.67155635 0.60575366
-1.47048783 2.61815763 1.10678291 -0.37617013 0.68698525 0.57793719
-1.30042088 2.58730745 1.03956425 -0.33266476 0.67889035 0.54283714
-1.32223856 2.48997617 1.17828643 -0.33824602 0.65335137 0.61527473
-1.19688201 2.87793970 1.08706045 -0.30617815 0.75515014 0.56763858
-1.09185314 3.00848794 1.08289337 -0.27931041 0.78940505 0.56546259
-1.13303947 2.58890009 1.14523757 -0.28984639 0.67930830 0.59801733
-1.02423549 2.65894389 1.12581873 -0.26201290 0.69768727 0.58787727
-2.92501926 3.80180168 1.58952904 -0.74825841 0.99756467 0.83001637
-1.83952260 3.08991289 1.12958252 -0.47057408 0.81077033 0.58984262
-1.75353789 3.28577685 1.13503754 -0.44857806 0.86216360 0.59269112
-1.31865811 2.94583225 0.94492656 -0.33733010 0.77296466 0.49341944
-1.25677657 3.19980979 0.97253436 -0.32149997 0.83960646 0.50783563
-1.83611584 2.48524261 1.19103646 -0.46970257 0.65210932 0.62193251
-1.71909511 2.56578040 1.16804409 -0.43976715 0.67324185 0.60992640
-1.51406932 2.65577936 1.12741077 -0.38731885 0.69685692 0.58870858
-1.33682942 2.61930537 1.05627441 -0.34197855 0.68728638 0.55156279
-1.34301686 2.49135733 1.18303514 -0.34356138 0.65371376 0.61775440
-1.21866465 2.87900281 1.09044933 -0.31175044 0.75542909 0.56940818
-1.10880232 2.99624395 1.08091402 -0.28364623 0.78619230 0.56442904
-1.14928353 2.58172989 1.14523757 -0.29400185 0.67742687 0.59801733
-1.04225016 2.65591335 1.12732923 -0.26662129 0.69689208 0.58866602
-2.94650722 3.78037000 1.58824575 -0.75375527 0.99194115 0.82934630
-1.88173389 3.11562634 1.14375794 -0.48137227 0.81751734 0.59724474
-1.78134608 3.28815484 1.13983357 -0.45569175 0.86278754 0.59519553
-1.33633733 2.93575215 0.94434553 -0.34185266 0.77031970 0.49311605
-1.26561975 3.16327143 0.96353483 -0.32376218 0.83001906 0.50313628
-1.86180770 2.48698306 1.19768023 -0.47627491 0.65256602 0.62540174
-1.73414552 2.55338001 1.16731763 -0.44361722 0.66998804 0.60954708
-1.54776680 2.67522550 1.14021420 -0.39593911 0.70195943 0.59539425
-1.36177301 2.62755919 1.06323707 -0.34835944 0.68945211 0.55519855
-1.36038411 2.48610473 1.18461800 -0.34800413 0.65233552 0.61858094
-1.23899651 2.87645864 1.09248269 -0.31695160 0.75476152 0.57046992
-1.13022673 2.99630094 1.08355319 -0.28912687 0.78620726 0.56580716
-1.17166674 2.58786130 1.15140975 -0.29972777 0.67903572 0.60124034
-1.05959213 2.65103674 1.12808454 -0.27105761 0.69561249 0.58906043
-2.94305801 3.72770286 1.57348680 -0.75287294 0.97812170 0.82163948
-1.90227556 3.10535836 1.14437425 -0.48662710 0.81482309 0.59756655
-1.79650915 3.26683617 1.13623655 -0.45957068 0.85719371 0.59331721
-1.35475671 2.92729759 0.94434553 -0.34656459 0.76810127 0.49311605
-1.26977277 3.11605906 0.95116043 -0.32482457 0.81763089 0.49667463
-1.88646066 2.48702478 1.20358574 -0.48258144 0.65257692 0.62848544
-1.76061904 2.55785179 1.17458224 -0.45038950 0.67116141 0.61334050
-1.56454515 2.66544795 1.14021420 -0.40023124 0.69939387 0.59539425
-1.38859630 2.63893270 1.07159209 -0.35522118 0.69243646 0.55956131
-1.50501621 2.43838048 1.22401404 -0.38500294 0.63981301 0.63915265
-1.38301980 2.49040484 1.19094968 -0.35379466 0.65346384 0.62188721
-1.25244689 2.85830617 1.08841598 -0.32039240 0.74999845 0.56834638
-1.14236832 2.97147441 1.07695532 -0.29223284 0.77969295 0.56236190
-1.18868721 2.58211899 1.15218127 -0.30408183 0.67752898 0.60164320
-1.07348454 2.63744593 1.12506342 -0.27461147 0.69204634 0.58748287
-2.99853659 3.74894285 1.59081244 -0.76706511 0.98369491 0.83068657
-1.93188012 3.10945034 1.15053749 -0.49420035 0.81589681 0.60078484
-1.82620776 3.27219534 1.14223158 -0.46716797 0.85859990 0.59644771
-1.38137829 2.93599272 0.95015627 -0.35337475 0.77038282 0.49615029
-1.28280413 3.09202456 0.94609821 -0.32815817 0.81132442 0.49403125
-1.90547633 2.47952199 1.20580041 -0.48744592 0.65060824 0.62964189
-1.78510451 2.55902076 1.18039393 -0.45665321 0.67146814 0.61637521
-1.58609605 2.66356373 1.14377081 -0.40574422 0.69889945 0.59725147
-1.42259324 2.66334939 1.08551729 -0.36391807 0.69884324 0.56683278
-1.52521861 2.43659997 1.22804117 -0.39017099 0.63934582 0.64125556
-1.40754366 2.49773097 1.19886410 -0.36006817 0.65538615 0.62601990
-1.25950074 2.82638931 1.07892704 -0.32219684 0.74162370 0.56339151
-1.16711187 2.98009944 1.08289337 -0.29856256 0.78195608 0.56546259
-1.19853508 2.56127453 1.14600909 -0.30660105 0.67205954 0.59842020
-1.08724821 2.62378550 1.12204242 -0.27813238 0.68846196 0.58590537
-2.98846936 3.68895912 1.57284510 -0.76448977 0.96795565 0.82130438
-1.85138786 3.26898313 1.14522910 -0.47360936 0.85775703 0.59801292
-1.65322781 3.44880152 1.12622190 -0.42291743 0.90494007 0.58808780
-1.30367815 3.08744884 0.94722313 -0.33349803 0.81012380 0.49461865
-1.92863047 2.48512578 1.21318233 -0.49336904 0.65207863 0.63349658
-1.80246043 2.55823159 1.18402624 -0.46109310 0.67126107 0.61827195
-1.59180927 2.64489388 1.13879168 -0.40720576 0.69400060 0.59465146
-1.43512809 2.65661597 1.08551729 -0.36712465 0.69707644 0.56683278
-1.58319235 2.50177360 1.26589549 -0.40500143 0.65644693 0.66102219
-1.41121697 2.47664976 1.19174111 -0.36100787 0.64985460 0.62230045
-1.21626794 2.69730473 1.03012705 -0.31113735 0.70775282 0.53790921
-1.18251348 2.97808480 1.08421290 -0.30250251 0.78142744 0.56615162
-1.21620476 2.56723118 1.15140975 -0.31112117 0.67362249 0.60124034
-1.10664785 2.63575864 1.12959504 -0.28309506 0.69160360 0.58984917
-3.04078174 3.71720719 1.59145415 -0.77787197 0.97536772 0.83102161
-1.86207628 3.25191784 1.14223158 -0.47634360 0.85327923 0.59644771
-1.67115045 3.44440722 1.12738407 -0.42750227 0.90378702 0.58869463
-1.31598032 3.07596374 0.94553572 -0.33664507 0.80711019 0.49373752
-1.96273875 2.49621964 1.22499347 -0.50209439 0.65498960 0.63966411
-1.81527984 2.54228544 1.18184686 -0.46437246 0.66707695 0.61713392
-1.60642719 2.63166189 1.13736904 -0.41094521 0.69052863 0.59390861
-1.44466865 2.63434649 1.07994723 -0.36956525 0.69123304 0.56392419
-1.60687375 2.50404811 1.27233887 -0.41105944 0.65704376 0.66438681
-1.42311835 2.46134758 1.18857527 -0.36405239 0.64583945 0.62064731
-1.22125185 2.66403437 1.01996040 -0.31241229 0.69902295 0.53260040
-1.20816839 2.98814416 1.09081078 -0.30906537 0.78406698 0.56959689
-1.22824931 2.55125499 1.14755213 -0.31420234 0.66943049 0.59922594
-1.11603189 2.61167216 1.12204242 -0.28549564 0.68528348 0.58590537
-3.05071545 3.68203974 1.58439553 -0.78041315 0.96614003 0.82733577
-1.70216715 3.45267081 1.13377583 -0.43543676 0.90595531 0.59203231
-1.32017529 3.03234625 0.93428630 -0.33771819 0.79566526 0.48786333
-1.97254729 2.47660565 1.22130239 -0.50460356 0.64984304 0.63773668
-1.84961975 2.55661392 1.19419658 -0.47315705 0.67083663 0.62358266
-1.62790251 2.62943053 1.14092553 -0.41643888 0.68994313 0.59576571
-1.45038342 2.60548520 1.07159209 -0.37102714 0.68366009 0.55956131
-1.62358415 2.49542999 1.27314425 -0.41533417 0.65478241 0.66480732
-1.45783293 2.48576593 1.20519578 -0.37293285 0.65224665 0.62932616
-1.24603295 2.67330813 1.02673817 -0.31875160 0.70145631 0.53613961
-1.21771979 2.95773888 1.08223355 -0.31150874 0.77608883 0.56511807
-1.24919128 2.55339718 1.15218127 -0.31955957 0.66999257 0.60164320
-1.13895524 2.61994076 1.12883973 -0.29135972 0.68745309 0.58945477
-3.07134223 3.65990734 1.58311224 -0.78568971 0.96033269 0.82666570
-1.73075533 3.45556021 1.13842452 -0.44274998 0.90671349 0.59445971
-1.34763181 3.04334736 0.94047350 -0.34474194 0.79855186 0.49109414
-1.99042213 2.46704125 1.22277880 -0.50917614 0.64733338 0.63850766
-1.85909486 2.53588271 1.18983793 -0.47558090 0.66539693 0.62130666
-1.65041733 2.62860942 1.14519334 -0.42219844 0.68972772 0.59799427
-1.47765791 2.61598468 1.07994723 -0.37800434 0.68641508 0.56392419
-1.64126801 2.48822212 1.27475500 -0.41985795 0.65289110 0.66564846
-1.25871849 2.65695214 1.02334929 -0.32199675 0.69716465 0.53437001
-1.23915434 2.95701313 1.08487272 -0.31699198 0.77589840 0.56649619
-1.25188076 2.51915503 1.13983691 -0.32024756 0.66100770 0.59519726
-1.15760493 2.61782980 1.13110554 -0.29613057 0.68689919 0.59063792
-3.09674311 3.64341354 1.58439553 -0.79218763 0.95600480 0.82733577
-1.75944674 3.45822620 1.14307308 -0.45008960 0.90741301 0.59688711
-1.89371622 2.54970288 1.20218766 -0.48443753 0.66902322 0.62775540
-1.66588652 2.61661768 1.14448214 -0.42615569 0.68658113 0.59762287
-1.54381633 2.69482613 1.11754513 -0.39492851 0.70710248 0.58355701
-1.66817677 2.49452353 1.28361464 -0.42674157 0.65454453 0.67027473
-1.48989201 2.46882963 1.20598722 -0.38113397 0.64780265 0.62973946
