-15.21532059 -6.63428259 1.31486297 -0.99232024 -0.84041727 0.56402922
-13.98957634 -6.60189772 1.21595871 -0.91237909 -0.83631480 0.52160281
-13.84907722 -6.64214754 1.20636487 -0.90321594 -0.84141356 0.51748741
-13.41705418 -6.27924252 1.66910601 -0.87504005 -0.79544151 0.71598685
-13.79454136 -6.72290516 1.20514381 -0.89965916 -0.85164374 0.51696360
-15.12484741 -6.69785976 1.22543859 -0.98641974 -0.84847105 0.52566934
-13.24387932 -6.27420378 1.64972222 -0.86374581 -0.79480320 0.70767188
-13.78413582 -6.79843950 1.20723701 -0.89898056 -0.86121231 0.51786155
-13.05583000 -6.28560686 1.62961161 -0.85148156 -0.79624772 0.69904512
-13.78565121 -6.90728474 1.21159780 -0.89907938 -0.87500060 0.51973218
-14.60390568 -6.66084576 1.18501329 -0.95244473 -0.84378219 0.50832838
-13.96593094 -6.83383894 1.75875592 -0.91083694 -0.86569661 0.75444341
-13.74907684 -6.99738979 1.21229553 -0.89669406 -0.88641489 0.52003145
-14.44596863 -6.69895411 1.17449605 -0.94214427 -0.84860969 0.50381684
-13.84910107 -6.30486345 1.63252020 -0.90321749 -0.79868710 0.70029283
-13.76851463 -7.11665678 1.21857524 -0.89796174 -0.90152341 0.52272522
-14.36570835 -6.77178860 1.17104518 -0.93690985 -0.85783625 0.50233650
-13.02889729 -6.57812500 1.64245331 -0.84972501 -0.83330333 0.70455378
-13.34740353 -6.17874956 1.57332075 -0.87049752 -0.78271127 0.67489839
-13.79757023 -7.24201250 1.22590148 -0.89985675 -0.91740322 0.52586794
-14.34446049 -6.87222338 1.17301714 -0.93552411 -0.87055910 0.50318241
-12.98892021 -6.63492155 1.64124191 -0.84711778 -0.84049821 0.70403409
-13.13993835 -6.15836525 1.55042720 -0.85696697 -0.78012902 0.66507787
-13.84418297 -7.35003281 1.23392546 -0.90289676 -0.93108702 0.52930993
-14.36216640 -6.96402979 1.17761838 -0.93667883 -0.88218892 0.50515622
-12.94521523 -6.71548510 1.64099956 -0.84426743 -0.85070384 0.70393014
-13.92566967 -7.50604630 1.24665916 -0.90821117 -0.95085049 0.53477222
-14.37716866 -7.08312654 1.18304133 -0.93765724 -0.89727587 0.50748247
-13.84881020 -7.29671669 1.77159762 -0.90319854 -0.92433304 0.75995207
-14.42512608 -7.21959305 1.19158649 -0.94078499 -0.91456318 0.51114804
-11.94924259 -6.20572948 2.24186563 -0.77931160 -0.78612900 0.96168023
-13.91989422 -7.44647980 1.78783154 -0.90783453 -0.94330472 0.76691586
-13.79214764 -6.78264523 1.65032637 -0.89950305 -0.85921150 0.70793104
-14.50038052 -7.37135601 1.20276105 -0.94569296 -0.93378818 0.51594150
-11.91874409 -6.28527212 2.24353218 -0.77732253 -0.79620534 0.96239513
-13.91467381 -7.55658579 1.79364669 -0.90749407 -0.95725268 0.76941031
-13.94309521 -6.96569014 1.67553234 -0.90934765 -0.88239926 0.71874350
-14.07069492 -6.33799839 1.59690726 -0.91766948 -0.80288458 0.68501616
-14.65758896 -7.56722069 1.22165906 -0.95594585 -0.95859993 0.52404809
-11.87379742 -6.35725069 2.24253225 -0.77439117 -0.80532342 0.96196622
-13.86692047 -7.64386463 1.79364669 -0.90437967 -0.96830899 0.76941031
-14.77300167 -7.49521589 1.78953755 -0.96347290 -0.94947851 0.76764762
-14.74571609 -6.75496197 1.68542325 -0.96169335 -0.85570467 0.72298634
-11.85963058 -6.44581652 2.24753213 -0.77346724 -0.81654274 0.96411097
-13.93125057 -7.76531553 1.80769992 -0.90857518 -0.98369414 0.77543867
-13.25595856 -6.14602661 1.50459135 -0.86453360 -0.77856600 0.64541590
-11.83431244 -6.50447369 2.24853206 -0.77181602 -0.82397330 0.96453989
-13.69915199 -7.74885035 1.78201640 -0.89343804 -0.98160839 0.76442134
-13.88588333 -7.23945332 1.68408847 -0.90561634 -0.91707903 0.72241378
-13.24223328 -6.24109173 1.50772071 -0.86363846 -0.79060864 0.64675832
-11.82251263 -6.59498978 2.25419879 -0.77104646 -0.83543968 0.96697074
-13.47814178 -7.73572254 1.75778675 -0.87902409 -0.97994536 0.75402766
-13.95256805 -7.38589573 1.69888842 -0.90996546 -0.93563002 0.72876239
-13.23858356 -6.34139299 1.51219130 -0.86340046 -0.80331457 0.64867604
-12.35878086 -6.13956594 1.87595391 -0.80602103 -0.77774757 0.80471718
-11.79973507 -6.67980051 2.25786519 -0.76956093 -0.84618336 0.96854347
-12.82927513 -7.46980762 1.67298281 -0.83670598 -0.94625986 0.71764982
-13.93565464 -7.48936510 1.70281959 -0.90886235 -0.94873732 0.73044872
-14.76284409 -7.18859625 1.70799935 -0.96281046 -0.91063654 0.73267066
-14.88583565 -6.58127832 1.58036184 -0.97083175 -0.83370274 0.67791873
-12.24404621 -6.17864656 1.86352658 -0.79853821 -0.78269821 0.79938632
-11.78149319 -6.76752377 2.26253176 -0.76837122 -0.85729593 0.97054523
-13.00412178 -7.68183231 1.70448136 -0.84810919 -0.97311866 0.73116159
-13.92671585 -7.59765863 1.70790708 -0.90827942 -0.96245575 0.73263109
-14.81708241 -7.33068848 1.72051668 -0.96634775 -0.92863649 0.73804015
-14.24705124 -6.40707207 1.51125121 -0.92917120 -0.81163466 0.64827275
-12.13107014 -6.21743441 1.85138834 -0.79117012 -0.78761178 0.79417944
-11.76943398 -6.85924244 2.26853156 -0.76758474 -0.86891466 0.97311896
-13.07981205 -7.83804750 1.72216904 -0.85304564 -0.99290770 0.73874897
-14.08566475 -7.79926586 1.73542547 -0.91864580 -0.98799491 0.74443549
-14.55581760 -6.65564442 1.55179334 -0.94930845 -0.84312332 0.66566390
-12.07948685 -6.28711891 1.84936523 -0.78780591 -0.79643929 0.79331160
-11.76178265 -6.95407963 2.27553153 -0.76708573 -0.88092846 0.97612172
-11.93149853 -6.15830851 2.13911152 -0.77815431 -0.78012180 0.91760236
-14.80109024 -7.52657700 1.72878718 -0.96530479 -0.95345128 0.74158794
-14.92160320 -6.90748930 1.59800708 -0.97316444 -0.87502652 0.68548793
-12.07947159 -6.35968971 1.85427833 -0.78780490 -0.80563235 0.79541916
-11.74582481 -7.01951981 2.27886462 -0.76604497 -0.88921827 0.97755146
-11.87086868 -6.19797039 2.13336015 -0.77420014 -0.78514612 0.91513526
-14.73233032 -7.60845613 1.72610486 -0.96082038 -0.96382356 0.74043727
-14.89591408 -7.00955391 1.60010779 -0.97148907 -0.88795584 0.68638903
-12.03927422 -6.43546104 1.85427833 -0.78518331 -0.81523097 0.79541916
-11.74706173 -7.12071466 2.28786445 -0.76612568 -0.90203744 0.98141205
-11.84389210 -6.27892637 2.13559675 -0.77244079 -0.79540145 0.91609466
-14.76338863 -7.74250603 1.73616350 -0.96284592 -0.98080468 0.74475211
-13.45839119 -6.43880796 1.43709910 -0.87773597 -0.81565493 0.61646414
-12.01772022 -6.52138996 1.85745740 -0.78377759 -0.82611626 0.79678285
-12.41834068 -6.15999746 1.81496727 -0.80990547 -0.78033578 0.77855611
-15.03790665 -6.52346563 1.51177883 -0.98074961 -0.82637918 0.64849907
-11.76766682 -7.23456526 2.30086398 -0.76746947 -0.91645980 0.98698843
-11.82331467 -6.36354065 2.13911152 -0.77109873 -0.80612022 0.91760236
-13.11033249 -7.66957903 1.62928271 -0.85503614 -0.97156644 0.69890404
-14.05846500 -6.83369684 1.51230156 -0.91687191 -0.86567861 0.64872330
-12.02500439 -6.62357664 1.86554968 -0.78425264 -0.83906102 0.80025417
-12.30682564 -6.20147038 1.80352080 -0.80263263 -0.78558946 0.77364594
-15.04211140 -6.63796377 1.51678741 -0.98102385 -0.84088355 0.65064758
-11.75715256 -7.33021879 2.30786395 -0.76678377 -0.92857701 0.98999113
-11.79002285 -6.44149971 2.14038968 -0.76892751 -0.81599593 0.91815066
-14.47797871 -7.82605648 1.71224630 -0.94423193 -0.99138868 0.73449248
-13.97956181 -6.90432453 1.50810027 -0.91172594 -0.87462562 0.64692110
-12.00213623 -6.70965147 1.86872876 -0.78276122 -0.84996480 0.80161786
-12.21821880 -6.25348234 1.79570365 -0.79685378 -0.79217827 0.77029270
-11.76758862 -7.43969297 2.31919694 -0.76746440 -0.94244498 0.99485260
-13.11341858 -7.89403439 1.64292634 -0.85523736 -1.00000000 0.70475668
-14.12554646 -7.75014114 1.67335296 -0.92124683 -0.98177189 0.71780860
-14.85737133 -7.45284510 1.61691272 -0.96897537 -0.94411105 0.69359779
-11.99241924 -6.80353212 1.87421978 -0.78212750 -0.86185741 0.80397332
-12.18572044 -6.33377075 1.79682040 -0.79473430 -0.80234903 0.77077174
-14.22655678 -6.49176598 1.43584788 -0.92783457 -0.82236356 0.61592740
-11.78043461 -7.55170965 2.33119655 -0.76830220 -0.95663500 1.00000000
-11.89208984 -6.69303131 2.17457938 -0.77558416 -0.84785938 0.93281686
-14.85225487 -7.53804159 1.62048376 -0.96864164 -0.95490354 0.69512963
-11.99624443 -6.88069963 1.88028896 -0.78237695 -0.87163281 0.80657679
-12.17503548 -6.40123367 1.79989135 -0.79403746 -0.81089509 0.77208906
-15.27000046 -7.05672932 1.55505347 -0.99588639 -0.89393193 0.66706234
-12.91507149 -6.18868208 1.79882956 -0.84230149 -0.78396946 0.77163357
-11.79012394 -6.70885849 2.16147852 -0.76893413 -0.84986436 0.92719704
-14.84351730 -7.65121222 1.62510514 -0.96807182 -0.96923977 0.69711202
-11.99379158 -6.97988796 1.88722515 -0.78221703 -0.88419783 0.80955213
-12.16429901 -6.49341536 1.80463755 -0.79333723 -0.82257247 0.77412504
-15.33307457 -6.52205229 1.41073275 -1.00000000 -0.82620013 0.60515392
-12.72457504 -6.19574022 1.77603316 -0.82987761 -0.78486359 0.76185477
-11.71698856 -6.76498938 2.15572715 -0.76416433 -0.85697490 0.92472988
-12.07178020 -6.12316751 2.03324270 -0.78730333 -0.77567023 0.87218845
-13.93468189 -7.29525852 1.52259457 -0.90879893 -0.92414832 0.65313864
-11.98204994 -7.07427311 1.89271629 -0.78145123 -0.89615434 0.81190765
-12.16159630 -6.59041882 1.81077957 -0.79316097 -0.83486068 0.77675974
-13.89690399 -6.63345194 1.41180634 -0.90633512 -0.84031200 0.60561448
-12.56645775 -6.21651602 1.75806427 -0.81956542 -0.78749543 0.75414675
-11.79850197 -6.91150904 2.17905259 -0.76948053 -0.87553573 0.93473566
-11.91522121 -6.13840914 2.01301312 -0.77709275 -0.77760100 0.86351067
-13.15554905 -7.62525749 1.57142544 -0.85798508 -0.96595192 0.67408538
-13.92723274 -7.40315628 1.52721596 -0.90831310 -0.93781656 0.65512109
-11.97298717 -7.17082405 1.89878535 -0.78086019 -0.90838522 0.81451106
-12.14599705 -6.68098068 1.81496727 -0.79214358 -0.84633285 0.77855611
-13.87642193 -6.73108721 1.41421056 -0.90499932 -0.85268027 0.60664576
-12.47583199 -6.26946735 1.75028670 -0.81365496 -0.79420322 0.75081044
-11.77519226 -6.99763775 2.18288708 -0.76796031 -0.88644630 0.93638057
-11.84836578 -6.19853210 2.00818229 -0.77273256 -0.78521729 0.86143845
-13.93649292 -7.52067089 1.53393805 -0.90891707 -0.95270306 0.65800458
-11.97839165 -7.27680874 1.90745556 -0.78121263 -0.92181110 0.81823027
-12.12454700 -6.76871777 1.81831741 -0.79074466 -0.85744721 0.77999318
-13.98369217 -6.89223576 1.43103957 -0.91199529 -0.87309420 0.61386484
-12.42031765 -6.33959866 1.74787295 -0.81003439 -0.80308729 0.74977505
-11.76984692 -7.09498549 2.19023609 -0.76761168 -0.89877814 0.93953300
-11.84064007 -6.28950119 2.01361704 -0.77222872 -0.79674107 0.86376977
-11.96610165 -7.37273836 1.91323566 -0.78041112 -0.93396330 0.82070971
-12.12834167 -6.87105370 1.82585537 -0.79099214 -0.87041092 0.78322667
-12.39782238 -6.42665911 1.75055480 -0.80856729 -0.81411594 0.75092542
-13.17263412 -6.23266172 1.72975445 -0.85909933 -0.78954071 0.74200284
-11.82701206 -6.37781000 2.01814604 -0.77133989 -0.80792785 0.86571252
-11.99164963 -7.46678972 1.92363989 -0.78207731 -0.94587755 0.82517278
-12.13022614 -6.94776678 1.83143902 -0.79111505 -0.88012874 0.78562188
-12.44281864 -6.52469778 1.76208711 -0.81150186 -0.82653528 0.75587237
-13.00705147 -6.22973394 1.71042109 -0.84830028 -0.78916985 0.73370951
-11.83678150 -6.45518398 2.02509046 -0.77197707 -0.81772941 0.86869144
-11.99465275 -7.57375765 1.93231010 -0.78227317 -0.95942801 0.82889199
-12.12232113 -7.04468966 1.83730185 -0.79059952 -0.89240676 0.78813684
-15.23645782 -7.84202862 1.58670807 -0.99369878 -0.99341202 0.68064106
-12.38934135 -6.59621143 1.76020980 -0.80801415 -0.83559448 0.75506711
-12.83913708 -6.24901199 1.69210529 -0.83734918 -0.79161197 0.72585267
-11.61541843 -7.27837038 2.18448472 -0.75754005 -0.92200893 0.93706590
-11.81157017 -6.53802252 2.02780771 -0.77033281 -0.82822323 0.86985701
-13.22986412 -7.54799795 1.47007895 -0.86283177 -0.95616484 0.63061130
-12.13757992 -7.15583324 1.84707332 -0.79159468 -0.90648621 0.79232842
-13.37152195 -6.98604107 1.38035214 -0.87207049 -0.88497728 0.59212172
-12.37901115 -6.69093370 1.76503730 -0.80734044 -0.84759367 0.75713789
-12.74445629 -6.30237770 1.68421924 -0.83117419 -0.79837221 0.72246987
-11.73260880 -7.45521355 2.21579838 -0.76518303 -0.94441110 0.95049828
-11.79958534 -6.62852430 2.03294063 -0.76955116 -0.83968776 0.87205887
-12.13320637 -7.25629091 1.85377371 -0.79130942 -0.91921198 0.79520267
-13.36425304 -7.08955145 1.38455939 -0.87159646 -0.89808977 0.59392649
-13.56445694 -6.56907940 1.26279926 -0.88465345 -0.83215743 0.54169577
-12.35408878 -6.77813911 1.76771915 -0.80571502 -0.85864067 0.75828832
-12.72766685 -6.39387226 1.68752635 -0.83007926 -0.80996257 0.72388852
-11.74854279 -7.56950998 2.22794056 -0.76622224 -0.95888990 0.95570689
-11.80411911 -6.72889853 2.04109287 -0.76984686 -0.85240299 0.87555587
-12.14329910 -7.36619759 1.86298668 -0.79196763 -0.93313473 0.79915470
-13.50861073 -6.64716244 1.26131797 -0.88101125 -0.84204882 0.54106033
-12.35105038 -6.87786245 1.77388763 -0.80551690 -0.87127346 0.76093441
-12.69254684 -6.47641277 1.68828952 -0.82778877 -0.82041860 0.72421587
-11.78901386 -6.81872988 2.04592371 -0.76886171 -0.86378264 0.87762815
-12.11365891 -7.45270395 1.86577857 -0.79003459 -0.94409317 0.80035233
-14.16568375 -7.74590635 1.48693597 -0.92386454 -0.98123544 0.63784242
-13.49509811 -6.74611664 1.26428044 -0.88012993 -0.85458416 0.54233110
-12.34724522 -6.97781467 1.78005600 -0.80526870 -0.88393515 0.76358038
-12.65689182 -6.55876493 1.68905258 -0.82546341 -0.83085084 0.72454321
-11.77153778 -6.90763855 2.05045271 -0.76772195 -0.87504542 0.87957090
-12.17772198 -7.57125854 1.88225031 -0.79421264 -0.95911139 0.80741811
-13.47916222 -6.81770325 1.26594675 -0.87909061 -0.86365259 0.54304594
-12.34517670 -7.05366468 1.78488350 -0.80513382 -0.89354372 0.76565123
-12.65397739 -6.63303185 1.69312286 -0.82527333 -0.84025878 0.72628921
-11.77459717 -6.98416185 2.05679345 -0.76792145 -0.88473922 0.88229090
-13.46442032 -6.91678143 1.26890910 -0.87812918 -0.87620360 0.54431665
-12.34001732 -7.15401125 1.79105198 -0.80479729 -0.90625542 0.76829731
-12.62782383 -6.72077322 1.69541228 -0.82356763 -0.85137367 0.72727126
-11.78304482 -7.08952522 2.06615329 -0.76847243 -0.89808643 0.88630593
-13.38693237 -7.62237358 1.41240740 -0.87307554 -0.96558654 0.60587227
-13.45249844 -7.01778030 1.27224183 -0.87735164 -0.88899791 0.54574627
-12.35968685 -7.26967859 1.80124331 -0.80608016 -0.92090791 0.77266902
-12.60979939 -6.81315041 1.69897366 -0.82239211 -0.86307585 0.72879899
-11.75853825 -7.17574883 2.06977654 -0.76687413 -0.90900904 0.88786018
-13.45040417 -7.12448072 1.27668536 -0.87721509 -0.90251452 0.54765236
-12.36648369 -7.37874889 1.80955720 -0.80652344 -0.93472469 0.77623534
-12.60503769 -6.91317749 1.70457017 -0.82208157 -0.87574708 0.73119968
-11.77884388 -7.28996992 2.08155179 -0.76819843 -0.92347836 0.89291131
-13.45978451 -7.23801661 1.28242493 -0.87782687 -0.91689700 0.55011445
-12.37239552 -7.48819017 1.81787121 -0.80690897 -0.94858849 0.77980179
-12.61859703 -7.02399921 1.71296501 -0.82296586 -0.88978577 0.73480076
-11.76968193 -7.38690233 2.08819437 -0.76760089 -0.93575758 0.89576077
-13.46126938 -7.34814310 1.28742397 -0.87792367 -0.93084764 0.55225885
-12.39091969 -7.60630989 1.82833076 -0.80811709 -0.96355164 0.78428853
-12.60187244 -7.11871719 1.71703517 -0.82187510 -0.90178442 0.73654670
-11.75475693 -7.48082924 2.09393096 -0.76662749 -0.94765604 0.89822155
-13.50151539 -7.45277882 1.29538536 -0.88054848 -0.94410264 0.55567402
-12.62163067 -7.20844650 1.72492111 -0.82316369 -0.91315114 0.73992950
-11.74767017 -7.55427647 2.09906387 -0.76616532 -0.95696014 0.90042341
-12.63964748 -7.32431984 1.73433340 -0.82433873 -0.92782974 0.74396706
-12.66868496 -7.44772339 1.74552643 -0.82623255 -0.94346225 0.74876845
-12.70519352 -7.57684803 1.75799143 -0.82861358 -0.95981950 0.75411552
