12.19853210 -0.62045127 2.35139203 0.74376959 -0.48807135 0.86383671
14.56100368 0.55790854 1.50012088 0.88781434 0.43887275 0.55110312
16.24991226 0.02584939 1.57763100 0.99079061 0.02033414 0.57957822
12.81037426 0.67377585 1.73405170 0.78107488 0.53001857 0.63704288
12.90400314 0.20710427 1.68012202 0.78678364 0.16291635 0.61723059
13.79828358 -0.48957220 1.25152993 0.84130973 -0.38511673 0.45977765
13.52872276 -0.77832997 1.59874547 0.82487410 -0.61226493 0.58733505
12.21391678 0.59981900 1.94515753 0.74470764 0.47184119 0.71459734
12.31591892 -0.05932536 1.84695017 0.75092691 -0.04666766 0.67851865
12.16382122 0.19691423 2.45802832 0.74165320 0.15490046 0.90301192
12.13943481 -0.54110187 2.33912396 0.74016631 -0.42565200 0.85932976
14.33286381 0.63906467 1.47486258 0.87390423 0.50271338 0.54182392
12.82761765 0.75556642 1.73723078 0.78212625 0.59435821 0.63821077
12.89848709 0.28809568 1.67956364 0.78644729 0.22662738 0.61702543
13.92242718 -0.40622905 1.26375103 0.84887904 -0.31955573 0.46426734
12.22764683 0.67756152 1.94803333 0.74554479 0.53299654 0.71565384
12.30418682 0.01806070 1.84513855 0.75021160 0.01420726 0.67785311
12.75090122 0.96795434 2.70069981 0.77744871 0.76143092 0.99216276
12.20935726 0.27431533 2.46766186 0.74442965 0.21578722 0.90655106
12.12027359 -0.48306665 2.33490682 0.73899806 -0.37999919 0.85778052
14.43489361 0.71193630 1.48670936 0.88012516 0.56003708 0.54617608
12.86143589 0.81845367 1.74272192 0.78418821 0.64382780 0.64022803
12.92272377 0.34953055 1.68319297 0.78792506 0.27495447 0.61835879
13.98585892 -0.34203541 1.26996171 0.85274661 -0.26905850 0.46654898
12.24796391 0.73663676 1.95186758 0.74678355 0.57946742 0.71706241
12.29803371 0.07601555 1.84423268 0.74983644 0.05979681 0.67752033
12.70331573 1.02450335 2.69149733 0.77454734 0.80591458 0.98878205
12.17463112 0.33099768 2.46083808 0.74231231 0.26037577 0.90404415
12.07990742 -0.40552741 2.32647276 0.73653680 -0.31900379 0.85468203
15.43019485 0.85965490 1.59936607 0.94081074 0.67623830 0.58756304
12.88959694 0.90164828 1.74763501 0.78590524 0.70927197 0.64203298
12.92423058 0.43084472 1.68375134 0.78801692 0.33891937 0.61856389
13.99370098 -0.25425327 1.27056277 0.85322475 -0.20000561 0.46676978
13.75222874 -0.55331260 1.62596476 0.83850169 -0.43525743 0.59733468
12.25688267 0.81451714 1.95410430 0.74732739 0.64073116 0.71788412
12.28149700 0.15311338 1.84181726 0.74882817 0.12044500 0.67663294
12.72779846 1.10706103 2.69818997 0.77604008 0.87085772 0.99124074
12.17622757 0.40761065 2.46164083 0.74240965 0.32064256 0.90433908
12.07829189 -0.32951915 2.32570601 0.73643833 -0.25921270 0.85440034
16.35812950 0.41139573 1.58960462 0.99738884 0.32362005 0.58397698
12.92905712 0.98615056 1.75428212 0.78831124 0.77574480 0.64447498
12.94897461 0.51309532 1.68765986 0.78952563 0.40362093 0.61999977
13.96915436 -0.16605400 1.26795828 0.85172808 -0.13062459 0.46581298
13.90213966 -0.47209108 1.64478934 0.84764206 -0.37136540 0.60425031
12.50353718 0.91027081 1.99500406 0.76236641 0.71605480 0.73290956
12.29215336 0.23047954 1.84362888 0.74947792 0.18130426 0.67729849
12.13622665 0.48269045 2.45401454 0.73997074 0.37970328 0.90153736
12.04676056 -0.25297871 2.31918859 0.73451579 -0.19900300 0.85200602
13.55645084 0.92381501 1.38947594 0.82656473 0.72670919 0.51045519
16.31943703 0.51308763 1.58582342 0.99502969 0.40361488 0.58258790
12.94747353 0.59453321 1.68793905 0.78943413 0.46768317 0.62010235
16.29017258 -0.08790403 1.50156116 0.99324536 -0.06914876 0.55163223
12.51134682 0.98992676 1.99724078 0.76284260 0.77871525 0.73373127
12.28848648 0.30766216 1.84332693 0.74925435 0.24201915 0.67718756
12.15840054 0.56006414 2.45923257 0.74132270 0.44056845 0.90345436
12.04811287 -0.17728220 2.31918859 0.73459822 -0.13945714 0.85200602
15.43736553 0.58356309 1.49297583 0.94124794 0.45905364 0.54847825
12.96523952 0.67697412 1.69101012 0.79051733 0.53253442 0.62123054
12.43997288 1.06286573 1.98669624 0.75849074 0.83609194 0.72985750
12.30212021 0.38533545 1.84574234 0.75008559 0.30311999 0.67807496
12.11550522 0.63446236 2.45120478 0.73870730 0.49909300 0.90050519
12.02739716 -0.10143310 2.31497145 0.73333514 -0.07979126 0.85045677
12.47821236 -0.78415298 2.29274940 0.76082230 -0.61684555 0.84229302
14.39810467 0.63626045 1.38353312 0.87788206 0.50050747 0.50827199
12.98050213 0.75954914 1.69380188 0.79144794 0.59749120 0.62225616
14.04566193 -0.41542339 1.16800320 0.85639292 -0.32678837 0.42909223
12.68859673 1.16487885 2.02823496 0.77364987 0.91633946 0.74511766
12.31921482 0.46333432 1.84876168 0.75112790 0.36447698 0.67918414
12.12106037 0.71113068 2.45321178 0.73904598 0.55940330 0.90124249
12.02185249 -0.04474245 2.31382132 0.73299712 -0.03519617 0.85003424
12.30315971 -0.71467137 2.25944996 0.75014895 -0.56218857 0.83005971
15.43398952 0.75345582 1.49339592 0.94104213 0.59269792 0.54863256
13.01433468 0.82302594 1.69910645 0.79351079 0.64742452 0.62420493
14.01362133 -0.34834003 1.16485572 0.85443932 -0.27401796 0.42793593
12.33467293 0.52210510 1.85147905 0.75207043 0.41070837 0.68018246
12.18015385 0.77210391 2.46605611 0.74264908 0.60736728 0.90596116
12.17500210 0.03144466 2.34372449 0.74233496 0.02473560 0.86101985
12.18763733 -0.63095415 2.23712826 0.74310535 -0.49633330 0.82185936
13.03064156 0.90625823 1.70217741 0.79450506 0.71289831 0.62533313
14.01553345 -0.26028356 1.16485572 0.85455590 -0.20474927 0.42793593
14.26710606 -0.05901736 1.69057894 0.86989480 -0.04642538 0.62107217
12.34892368 0.60043025 1.85419655 0.75293928 0.47232202 0.68118078
12.18092632 0.84901726 2.46726036 0.74269617 0.66787034 0.90640354
12.19026661 0.10810678 2.34679151 0.74326563 0.08504105 0.86214662
12.14225960 -0.55205023 2.22797990 0.74033856 -0.43426439 0.81849849
13.79332638 0.84937620 1.32093453 0.84100753 0.66815269 0.48527497
13.06616497 0.99119526 1.70804024 0.79667097 0.77971315 0.62748694
13.97905922 -0.17169708 1.16133785 0.85233200 -0.13506366 0.42664355
14.36836720 0.03069904 1.70355260 0.87606895 0.02414907 0.62583834
12.35675240 0.67863947 1.85600805 0.75341666 0.53384447 0.68184626
12.22810650 0.92945701 2.47809792 0.74557281 0.73114741 0.91038495
12.20308495 0.18492894 2.34947515 0.74404722 0.14547236 0.86313248
12.12387848 -0.47486505 2.22395468 0.73921782 -0.37354749 0.81701970
13.76588726 0.93457514 1.31862378 0.83933449 0.73517352 0.48442608
13.93379879 0.42541608 1.26495314 0.84957242 0.33464900 0.46470895
13.95198345 -0.08365345 1.15874577 0.85068113 -0.06580509 0.42569131
14.96300316 0.12514535 1.77986860 0.91232508 0.09844425 0.65387475
12.38974285 0.75849932 1.86174488 0.75542814 0.59666538 0.68395382
12.19187069 0.26137233 2.34755826 0.74336344 0.20560575 0.86242831
12.07946110 -0.39704996 2.21517229 0.73650962 -0.31233510 0.81379330
13.93880558 0.51326025 1.26575446 0.84987766 0.40375066 0.46500334
13.95621586 0.00400586 1.15911615 0.85093921 0.00315116 0.42582735
15.04919910 0.22031733 1.79106164 0.91758066 0.17331026 0.65798676
12.41235161 0.83815050 1.86597192 0.75680661 0.65932208 0.68550670
12.64488792 1.12039840 2.56640410 0.77098483 0.88134938 0.94282621
12.20764637 0.33848950 2.35100865 0.74432534 0.26626915 0.86369586
12.08368206 -0.32120070 2.21553826 0.73676699 -0.25266910 0.81392777
13.97108841 0.60242474 1.26936078 0.85184604 0.47389096 0.46632820
13.94396687 0.09163360 1.15800524 0.85019237 0.07208259 0.42541924
15.09115124 0.31572333 1.79665816 0.92013854 0.24836037 0.66004276
12.40092468 0.91569549 1.86506605 0.75610989 0.72032201 0.68517393
12.00777626 0.38925388 2.31228781 0.73213881 0.30620238 0.84947091
12.05754185 -0.26360625 2.21041536 0.73517317 -0.20736302 0.81204575
13.96213150 0.66796106 1.26875973 0.85129988 0.52544439 0.46610740
13.94537163 0.15736130 1.15819037 0.85027802 0.12378658 0.42548725
14.57188892 0.37426338 1.73026323 0.88847804 0.29441026 0.63565105
12.46349430 0.97927946 1.87533176 0.75992489 0.77033967 0.68894529
11.99921036 0.46445504 2.31113768 0.73161656 0.36535859 0.84904838
12.04913044 -0.18767206 2.20858574 0.73466027 -0.14763021 0.81137359
13.84639454 0.74948764 1.25754035 0.84424317 0.58957642 0.46198571
13.94410801 0.24497898 1.15819037 0.85020095 0.19271009 0.42548725
13.32107544 0.90978414 1.66768324 0.81221336 0.71567196 0.61266094
14.36898327 0.45969000 1.70457017 0.87610650 0.36161020 0.62621218
12.59501362 1.06905293 1.89646709 0.76794392 0.84095901 0.69670981
12.02154541 0.54102898 2.31612158 0.73297834 0.42559466 0.85087931
12.02844524 -0.11172448 2.20456052 0.73339909 -0.08788686 0.80989486
13.95025730 0.33276534 1.15893102 0.85057592 0.26176628 0.42575935
13.24592876 0.98819774 1.65829659 0.80763155 0.77735513 0.60921252
14.33607578 0.54886705 1.70075440 0.87410003 0.43176037 0.62481034
12.02966976 0.61717474 2.31842184 0.73347372 0.48549390 0.85172439
12.01907825 -0.03609966 2.20273089 0.73282796 -0.02839741 0.80922270
13.95187187 0.42052442 1.15930128 0.85067433 0.33080104 0.42589536
14.33432579 0.63901740 1.70100880 0.87399334 0.50267619 0.62490380
12.03731060 0.69344383 2.32072210 0.73393959 0.54549015 0.85256940
12.01513577 0.03941241 2.20199895 0.73258758 0.03100335 0.80895382
13.97283649 0.50901294 1.16152298 0.85195261 0.40040958 0.42671156
13.65098953 1.19173181 1.71515346 0.83232892 0.93746305 0.63010019
14.34191608 0.72965735 1.70253515 0.87445617 0.57397711 0.62546456
12.07776642 0.77201802 2.32953978 0.73640627 0.60729969 0.85580879
12.01465034 0.11490445 2.20199895 0.73255795 0.09038835 0.80895382
13.98329067 0.59737098 1.16281903 0.85259002 0.46991548 0.42718771
14.35091305 0.82052833 1.70431578 0.87500471 0.64545983 0.62611872
12.10532379 0.83112812 2.33567357 0.73808652 0.65379804 0.85806215
12.01397610 0.17152067 2.20199895 0.73251683 0.13492489 0.80895382
14.01612854 0.66490549 1.16615176 0.85459220 0.52304077 0.42841205
15.37259769 0.95018613 1.83608806 0.93729895 0.74745375 0.67452818
12.14487743 0.91062200 2.34449124 0.74049819 0.71633101 0.86130154
12.01462650 0.24703991 2.20236492 0.73255652 0.19433130 0.80908823
14.03752708 0.75430942 1.16855872 0.85589695 0.59336942 0.42929631
13.40479279 0.91573787 1.58399105 0.81731778 0.72035539 0.58191472
12.22890091 0.99437922 2.36212635 0.74562126 0.78221774 0.86778021
12.01676846 0.32262355 2.20309663 0.73268712 0.25378835 0.80935705
14.09612656 0.84622139 1.17448342 0.85946983 0.66567099 0.43147287
13.44427967 1.00327086 1.58984184 0.81972539 0.78921229 0.58406413
12.46093750 1.09249890 2.40889788 0.75976902 0.85940254 0.88496274
12.01843452 0.39824387 2.20382857 0.73278868 0.31327426 0.80962592
13.51285648 1.09369195 1.59950852 0.82390666 0.86034107 0.58761537
12.02944946 0.47426856 2.20639014 0.73346031 0.37307829 0.81056702
13.61442566 1.18789566 1.61349988 0.83009958 0.93444538 0.59275544
12.04980373 0.55087978 2.21078134 0.73470134 0.43334368 0.81218022
13.58298874 1.27123070 1.61044717 0.82818276 1.00000000 0.59163398
12.04118252 0.60736960 2.20968342 0.73417568 0.47778079 0.81177688
12.06854057 0.68474334 2.21553826 0.73584378 0.53864598 0.81392777
12.10128880 0.76284599 2.22249103 0.73784047 0.60008460 0.81648201
12.11783600 0.84032524 2.22651625 0.73884940 0.66103286 0.81796080
12.16133881 0.92007333 2.23566437 0.74150187 0.72376585 0.82132155
12.20823574 1.00071585 2.24554443 0.74436128 0.78720242 0.82495123
12.43260765 1.07772851 2.28835821 0.75804168 0.84778357 0.84067982
12.46530819 -0.75504398 2.14215803 0.76003551 -0.59394723 0.78696990
12.33207512 -0.66945833 2.11812377 0.75191200 -0.52662224 0.77814037
12.25730991 -0.58831298 2.10438991 0.74735343 -0.46279010 0.77309489
12.29327297 -0.43523759 2.10954022 0.74954617 -0.34237498 0.77498698
12.11574459 -0.21975514 2.07760882 0.73872191 -0.17286803 0.76325631
12.14249897 -0.14388645 2.08207250 0.74035317 -0.11318673 0.76489609
12.15301418 -0.06762888 2.08378911 0.74099427 -0.05319953 0.76552677
12.43588448 -0.72321248 2.07153702 0.75824147 -0.56890732 0.76102567
13.51282406 -0.62488043 1.51209760 0.82390469 -0.49155548 0.55550301
14.51801205 -0.44142169 1.13327682 0.88519311 -0.34723964 0.41633472
12.13940716 0.00869861 2.08138585 0.74016464 0.00684267 0.76464385
12.27673817 -0.63631904 2.04387093 0.74853802 -0.50055355 0.75086194
14.34919834 -0.34630293 1.11827552 0.87490016 -0.27241549 0.41082364
12.11744022 0.08478407 2.07760882 0.73882526 0.06669448 0.76325631
12.30413246 -0.56028551 2.04787087 0.75020826 -0.44074258 0.75233138
14.18753338 -0.49881431 1.59375167 0.86504310 -0.39238694 0.58550048
14.33871841 -0.27846515 1.11722887 0.87426120 -0.21905163 0.41043913
11.99475861 0.14024964 2.05632138 0.73134512 0.11032587 0.75543588
14.18046474 -0.40938991 1.59254014 0.86461210 -0.32204220 0.58505541
14.27842617 -0.18764377 1.11182141 0.87058502 -0.14760795 0.40845257
12.03106880 0.21634801 2.06284499 0.73355901 0.17018785 0.75783247
12.33516884 -0.42589018 2.05220413 0.75210065 -0.33502194 0.75392330
14.21451473 -0.32095554 1.59641695 0.86668825 -0.25247625 0.58647966
14.23947620 -0.09771015 1.10833275 0.86821020 -0.07686264 0.40717095
12.11416626 0.29413533 2.07760882 0.73862565 0.23137841 0.76325631
14.22022057 -0.23169638 1.59690154 0.86703610 -0.18226148 0.58665764
14.24379349 -0.00823616 1.10868156 0.86847341 -0.00647889 0.40729907
12.13571072 0.37100664 2.08172917 0.73993927 0.29184839 0.76476997
12.76704693 -0.75824279 2.70111823 0.77843314 -0.59646356 0.99231648
14.22933674 -0.14241225 1.59787071 0.86759198 -0.11202706 0.58701372
13.53100300 -0.59383702 1.43780959 0.82501310 -0.46713552 0.52821165
14.20570946 0.08098979 1.10536730 0.86615133 0.06370975 0.40608153
12.13904667 0.44747737 2.08275914 0.74014264 0.35200328 0.76514840
12.65632153 -0.67207670 2.67643857 0.77168196 -0.52868193 0.98324984
14.26568508 -0.05308650 1.60223210 0.86980820 -0.04175992 0.58861595
14.19097519 0.17005761 1.10414624 0.86525297 0.13377400 0.40563294
15.20153713 -0.37104559 1.11533701 0.92686903 -0.29187903 0.40974411
12.11040688 0.52259272 2.07829571 0.73839647 0.41109195 0.76350862
12.68764782 -0.59377819 2.68229485 0.77359200 -0.46708924 0.98540127
15.08966064 0.01613048 1.70278525 0.92004770 0.01268887 0.62555641
14.66641426 -0.48386049 1.56938958 0.89424145 -0.38062367 0.57655054
14.18204784 0.23678441 1.10344851 0.86470866 0.18626392 0.40537661
15.16326141 -0.29856792 1.11205041 0.92453527 -0.23486525 0.40853670
12.10190678 0.57936311 2.07726550 0.73787814 0.45574978 0.76313019
12.04461384 -0.05572987 2.00187206 0.73438489 -0.04383931 0.73543268
12.51418686 -0.78209352 1.99532354 0.76301575 -0.61522549 0.73302692
15.11506939 0.11116520 1.70593512 0.92159688 0.08744691 0.62671357
14.40505314 -0.38428104 1.53863358 0.87830573 -0.30229056 0.56525165
12.89921379 -0.68022108 1.74705696 0.78649163 -0.53508860 0.64182061
14.20816517 0.32656842 1.10589063 0.86630106 0.25689155 0.40627378
14.97550106 -0.20049700 1.09643900 0.91308713 -0.15771882 0.40280151
12.04078197 0.01994940 2.00120544 0.73415124 0.01569298 0.73518777
12.45774078 -0.70011508 1.98541820 0.75957412 -0.55073804 0.72938800
15.11804199 0.20619266 1.70641971 0.92177814 0.16219924 0.62689161
14.34164143 -0.29233548 1.53100240 0.87443942 -0.22996257 0.56244814
12.77274990 -0.59330696 1.72798252 0.77878088 -0.46671855 0.63481319
14.21379852 0.41607851 1.10658836 0.86664456 0.32730371 0.40653011
14.90869713 -0.10582633 1.09085178 0.90901393 -0.08324715 0.40074891
12.24312592 0.74068081 2.10335994 0.74648857 0.58264863 0.77271652
12.03844738 0.09559064 2.00087214 0.73400891 0.07519536 0.73506534
15.12240314 0.30130407 1.70714664 0.92204404 0.23701762 0.62715870
14.16839695 -0.19950680 1.51065266 0.86387634 -0.15693989 0.55497223
12.82170868 -0.51479620 1.73462963 0.78176600 -0.40495890 0.63725519
14.23678684 0.50633520 1.10885596 0.86804622 0.39830315 0.40736315
14.86123085 -0.01204650 1.08690774 0.90611982 -0.00947625 0.39929998
12.19498444 0.81463039 2.09580636 0.74355328 0.64082026 0.76994157
12.05141163 0.17140107 2.00320554 0.73479939 0.13483082 0.73592257
12.46555519 -0.54351532 1.98541820 0.76005054 -0.42755049 0.72938800
15.08845901 0.39543939 1.70326996 0.91997439 0.31106815 0.62573451
14.52098083 -0.11372706 1.55158353 0.88537407 -0.08946218 0.57000905
12.77524090 -0.43262956 1.72740448 0.77893275 -0.34032339 0.63460088
14.32289791 0.59965444 1.11670554 0.87329656 0.47171172 0.41024688
14.79125023 0.08104268 1.08115625 0.90185297 0.06375135 0.39718705
12.22302723 0.89373523 2.10164309 0.74526316 0.70304722 0.77208579
12.05404091 0.24719265 2.00387216 0.73495966 0.19445145 0.73616749
12.35626030 -0.46116948 1.96720505 0.75338662 -0.36277401 0.72269696
14.50829411 0.47069263 1.63276148 0.88460058 0.37026531 0.59983164
16.01134300 -0.02688144 1.72501934 0.97624457 -0.02114600 0.63372463
13.67326355 -0.57330686 1.40042865 0.83368701 -0.45098570 0.51447892
12.76979351 -0.35214671 1.72624850 0.77860057 -0.27701244 0.63417619
14.33277702 0.69032615 1.11792660 0.87389892 0.54303765 0.41069546
14.80838680 0.17416297 1.08263516 0.90289783 0.13700344 0.39773035
12.32911110 0.97959596 2.12121391 0.75173128 0.77058864 0.77927560
12.04830647 0.32282606 2.00320554 0.73461002 0.25394765 0.73592257
12.21879864 -0.37940681 1.94451845 0.74500531 -0.29845631 0.71436256
14.37300110 0.53393012 1.61652756 0.87635148 0.42001042 0.59386772
15.18487263 0.04711307 1.62882030 0.92585295 0.03706099 0.59838372
12.75152493 -0.29154599 1.72335839 0.77748674 -0.22934152 0.63311446
14.38307953 0.76077712 1.12263632 0.87696594 0.59845716 0.41242567
14.82135296 0.24415432 1.08378553 0.90368837 0.19206138 0.39815298
12.05650711 0.37989250 2.00487208 0.73511004 0.29883835 0.73653483
12.19676590 -0.32123879 1.94068408 0.74366194 -0.25269905 0.71295393
12.88710785 -0.07605793 2.72203302 0.78575349 -0.05983016 1.00000000
12.61541367 -0.74863774 2.55476379 0.76918775 -0.58890784 0.93854988
14.33168030 0.62253690 1.61192393 0.87383205 0.48971197 0.59217650
15.13064098 0.14208929 1.62257659 0.92254633 0.11177302 0.59608996
15.33159924 -0.47157556 1.58640158 0.93479919 -0.37095985 0.58280027
12.72738171 -0.21103515 1.71960139 0.77601469 -0.16600853 0.63173419
13.32253933 -0.70833653 1.74154222 0.81230265 -0.55720532 0.63979465
14.81354809 0.33714634 1.08329248 0.90321255 0.26521257 0.39797184
12.04994106 0.45549542 2.00420547 0.73470974 0.35831058 0.73628992
12.16695976 -0.24401776 1.93557167 0.74184459 -0.19195396 0.71107572
12.73673725 0.00462002 2.68982410 0.77658510 0.00363429 0.98816735
12.29510784 -0.65160906 2.48813272 0.74965805 -0.51258129 0.91407144
14.34334660 0.71338403 1.61386228 0.87454337 0.56117588 0.59288859
15.31021023 0.23974489 1.64362013 0.93349504 0.18859275 0.60382080
14.41828156 -0.35403648 1.48335648 0.87911230 -0.27849901 0.54494435
12.71460342 -0.13094251 1.71757829 0.77523553 -0.10300452 0.63099098
12.93901825 -0.60585111 1.68682241 0.78891855 -0.47658628 0.61969215
14.90079880 0.43269655 1.09068739 0.90853238 0.34037611 0.40068853
12.07442474 0.53236765 2.00887203 0.73620254 0.41878131 0.73800427
12.16430473 -0.16751842 1.93493259 0.74168271 -0.13177657 0.71084094
12.33358192 0.08132581 2.60365510 0.75200391 0.06397408 0.95651120
12.02497673 -0.56109601 2.43193793 0.73318756 -0.44138017 0.89342707
14.53281784 0.81465161 1.63760746 0.88609582 0.64083695 0.60161191
15.26073360 0.33495370 1.63807023 0.93047833 0.26348773 0.60178190
12.73100758 -0.05109048 1.71989036 0.77623576 -0.04018978 0.63184035
12.98016453 -0.52612418 1.69212687 0.79142737 -0.41386995 0.62164080
14.93165112 0.52746201 1.09348106 0.91041350 0.41492233 0.40171483
12.11811447 0.61052465 2.01687169 0.73886639 0.48026267 0.74094313
12.13945103 -0.09093577 1.93077874 0.74016732 -0.07153365 0.70931494
12.28785038 0.15816449 2.59403419 0.74921554 0.12441840 0.95297676
12.12418556 -0.48956457 2.45160604 0.73923653 -0.38511071 0.90065259
15.34170341 0.95786989 1.73719144 0.93541527 0.75349808 0.63819629
15.93550873 0.44905031 1.71692574 0.97162080 0.35324061 0.63075125
14.11355114 -0.16957071 1.44871008 0.86053228 -0.13339098 0.53221619
12.69545460 0.02876351 1.71468818 0.77406800 0.02262650 0.62992924
12.95748520 -0.44363627 1.68849742 0.79004455 -0.34898171 0.62030745
15.04753971 0.62607956 1.10334086 0.91747946 0.49249879 0.40533707
12.13176060 0.68762720 2.01987171 0.73969841 0.54091454 0.74204528
12.13583469 -0.01466191 1.93013966 0.73994684 -0.01153363 0.70908016
12.52240753 -0.69083560 1.88137043 0.76351696 -0.54343843 0.69116372
12.20057869 0.23357713 2.57562923 0.74389440 0.18374094 0.94621527
12.12506485 -0.41330686 2.45120478 0.73929018 -0.32512340 0.90050519
13.43418694 0.92101800 1.50458646 0.81911004 0.72450894 0.55274367
14.59613609 0.50481504 1.56129587 0.88995647 0.39710733 0.57357711
14.50586605 -0.08256956 1.49274457 0.88445252 -0.06495246 0.54839325
12.69106579 0.10849013 1.71411026 0.77380043 0.08534260 0.62971693
12.92042542 -0.36104509 1.68291378 0.78778493 -0.28401226 0.61825621
12.21183872 0.76902801 2.03420448 0.74458092 0.60494763 0.74731076
12.10409927 0.06137632 1.92502725 0.73801184 0.04828103 0.70720202
12.40407753 -0.60596031 1.86265063 0.75630212 -0.47667217 0.68428659
12.30639744 0.31314439 2.59863567 0.75034636 0.24633168 0.95466721
12.04516697 -0.33469066 2.43434620 0.73441863 -0.26328081 0.89431179
13.37624454 0.98031574 1.49804437 0.81557715 0.77115488 0.55034024
14.37522793 0.56531358 1.53585863 0.87648726 0.44469786 0.56423217
15.42629242 -0.01382297 1.59623671 0.94057280 -0.01087369 0.58641344
12.69041348 0.16829395 1.71411026 0.77376062 0.13238664 0.62971693
12.89426613 -0.29946777 1.67900527 0.78618997 -0.23557311 0.61682034
13.61050797 -0.82557476 1.70603490 0.82986069 -0.64942956 0.62675023
15.35227394 0.80751890 1.12914085 0.93605977 0.63522607 0.41481528
12.31040192 0.83332324 2.05153751 0.75059056 0.65552479 0.75367838
12.10564899 0.11843728 1.92534673 0.73810631 0.09316742 0.70731938
12.36137009 -0.54542184 1.85570621 0.75369817 -0.42905024 0.68173540
12.26959991 0.37001377 2.59110618 0.74810278 0.29106736 0.95190108
12.02114677 -0.27729517 2.42912817 0.73295408 -0.21813127 0.89239484
14.27811337 0.65150082 1.52498996 0.87056595 0.51249611 0.56023932
15.36446476 0.08268979 1.58930743 0.93680304 0.06504704 0.58386779
16.40095520 -0.51529264 1.59443605 1.00000000 -0.40534943 0.58575189
12.70889187 0.24844478 1.71700025 0.77488732 0.19543642 0.63077861
12.88995266 -0.21833533 1.67816770 0.78592694 -0.17175114 0.61651260
13.47886372 -0.73282331 1.68752956 0.82183409 -0.57646757 0.61995190
12.33049202 0.91250479 2.05587077 0.75181550 0.71781212 0.75527030
12.09282207 0.19428627 1.92342961 0.73732424 0.15283321 0.70661509
12.34084702 -0.46680698 1.85208297 0.75244683 -0.36720872 0.68040431
12.68135452 0.46288642 2.67978501 0.77320826 0.36412466 0.98447925
12.12255955 -0.20360476 2.44959927 0.73913741 -0.16016351 0.89991534
14.69237423 0.76234090 1.57378328 0.89582431 0.59968728 0.57816464
15.38351536 0.17948344 1.59154272 0.93796462 0.14118873 0.58468896
15.33419228 -0.38402498 1.48142231 0.93495727 -0.30208912 0.54423380
12.71103573 0.32840022 1.71757829 0.77501804 0.25833252 0.63099098
12.88116932 -0.13722049 1.67677176 0.78539139 -0.10794303 0.61599976
12.34614086 0.99166226 2.05953717 0.75276965 0.78008050 0.75661725
12.11307430 0.27078518 1.92694438 0.73855907 0.21301027 0.70790631
12.35539246 -0.38965186 1.85389459 0.75333369 -0.30651546 0.68106985
15.06612206 0.87615830 1.61795163 0.91861248 0.68922055 0.59439087
15.38804531 0.27625164 1.59221327 0.93824083 0.21731040 0.58493531
14.33606815 -0.26758185 1.37576079 0.87409961 -0.21049039 0.50541663
12.72058964 0.40865925 1.71931231 0.77560055 0.32146743 0.63162804
12.86197281 -0.05616574 1.67398000 0.78422093 -0.04418218 0.61497414
12.10521317 0.34670854 1.92598581 0.73807979 0.27273455 0.70755416
12.30028152 -0.31047198 1.84513855 0.74997348 -0.24422945 0.67785311
12.12024212 -0.05123298 2.44879627 0.73899609 -0.04030187 0.89962035
15.37805843 0.37272835 1.59131920 0.93763191 0.29320276 0.58460689
14.15450191 -0.17497627 1.35643506 0.86302912 -0.13764320 0.49831691
12.73556709 0.48928866 1.72191334 0.77651376 0.38489369 0.63258356
12.87395477 0.02465298 1.67565501 0.78495151 0.01939300 0.61558950
12.11266136 0.42312166 1.92758346 0.73853391 0.33284411 0.70814109
12.29210663 -0.23297775 1.84362888 0.74947506 -0.18326944 0.67729849
12.13991833 0.02492867 2.45281029 0.74019581 0.01960987 0.90109497
13.44072342 0.95342451 1.42971587 0.81950855 0.75000119 0.52523828
12.26383305 -0.72026449 2.36519337 0.74775112 -0.56658834 0.86890692
15.39329147 0.46991295 1.59333086 0.93856066 0.36965197 0.58534592
12.75003338 0.57012236 1.72451448 0.77739578 0.44848064 0.63353914
12.86562443 0.10548898 1.67453837 0.78444362 0.08298177 0.61517930
13.41332912 -0.87727380 1.58475411 0.81783831 -0.69009805 0.58219504
12.12554359 0.49989596 1.93013966 0.73931932 0.39323780 0.70908016
12.26960564 -0.15540029 1.84000564 0.74810314 -0.12224397 0.67596740
12.18066692 0.10147911 2.46123958 0.74268031 0.07982746 0.90419167
