-1.36522436 -5.76637888 1.97197616 -0.31794667 -0.77789098 0.72400880
-3.22814560 -7.12858629 1.98985553 -0.75180179 -0.96165431 0.73057318
-3.26527762 -6.19085360 1.70728624 -0.76044947 -0.83515310 0.62682819
-1.68432701 -7.06232452 1.61432505 -0.39226237 -0.95271552 0.59269756
-1.90233564 -6.46168470 1.45627713 -0.44303435 -0.87168854 0.53467047
-2.28267455 -6.28800869 1.39645183 -0.53161132 -0.84825945 0.51270568
-2.69190550 -6.38810635 1.38591206 -0.62691700 -0.86176276 0.50883603
-1.47536683 -5.78779840 2.33597589 -0.34359771 -0.78078049 0.85765088
-1.80587590 -5.79694510 2.33110595 -0.42056987 -0.78201443 0.85586286
-2.23489714 -5.80437136 2.33093953 -0.52048451 -0.78301620 0.85580176
-2.60404325 -5.81738520 2.33112216 -0.60645479 -0.78477180 0.85586882
-3.07643485 -5.83466339 2.34027290 -0.71646994 -0.78710264 0.85922849
-3.47429872 -5.82237244 2.33384681 -0.80912828 -0.78544462 0.85686916
-1.52045870 -5.93901253 1.70666480 -0.35409912 -0.80117947 0.62660003
-2.28068781 -7.32153225 2.08253026 -0.53114867 -0.98768294 0.76459861
-1.33566213 -5.80440187 1.98224318 -0.31106192 -0.78302038 0.72777832
-1.66752636 -5.84086943 1.98018682 -0.38834968 -0.78793985 0.72702330
-2.83154511 -7.40267324 2.08916974 -0.65943766 -0.99862897 0.76703626
-3.19755220 -7.18053007 1.99887216 -0.74467689 -0.96866161 0.73388362
-3.22542548 -6.20952272 1.70680320 -0.75116831 -0.83767164 0.62665081
-1.87315130 -6.51288605 1.46535194 -0.43623760 -0.87859565 0.53800225
-2.24767256 -6.31513834 1.39937985 -0.52345973 -0.85191929 0.51378071
-2.65624380 -6.41574240 1.38832045 -0.61861175 -0.86549085 0.50972027
-1.43588054 -5.78431511 2.33080840 -0.33440176 -0.78031063 0.85575360
-1.76831925 -5.80461597 2.32965302 -0.41182330 -0.78304923 0.85532939
-2.19117880 -5.79904079 2.32311511 -0.51030290 -0.78229713 0.85292906
-2.54766154 -5.78907776 2.31301951 -0.59332407 -0.78095311 0.84922242
-2.99920058 -5.77526569 2.30841732 -0.69848287 -0.77908987 0.84753275
-3.41263151 -5.80184984 2.31669235 -0.79476666 -0.78267610 0.85057092
-1.29875910 -5.81082964 1.98160160 -0.30246758 -0.78388745 0.72754276
-2.76947117 -7.37867928 2.07726312 -0.64498127 -0.99539214 0.76266474
-3.15862179 -7.21465302 2.00287962 -0.73561043 -0.97326481 0.73535496
-1.84233105 -6.56021738 1.47356248 -0.42905989 -0.88498074 0.54101676
-2.62405777 -6.45224619 1.39273572 -0.61111599 -0.87041527 0.51134133
-1.40252066 -5.80588055 2.33597589 -0.32663259 -0.78321981 0.85765088
-1.73342657 -5.82096434 2.33183241 -0.40369716 -0.78525466 0.85612959
-2.14954782 -5.79865503 2.31742454 -0.50060749 -0.78224510 0.85083973
-2.50373840 -5.78778696 2.30605698 -0.58309484 -0.78077900 0.84666616
-2.95008278 -5.76882601 2.29825068 -0.68704385 -0.77822113 0.84380007
-3.38182187 -5.83296061 2.32065105 -0.78759140 -0.78687298 0.85202438
-1.45823836 -6.01004076 1.72196746 -0.33960867 -0.81076127 0.63221836
-1.27012789 -5.85592651 1.99443531 -0.29579967 -0.78997105 0.73225462
-2.50764966 -6.80619431 1.90901649 -0.58400571 -0.91816330 0.70089322
-3.12708831 -7.26633501 2.01189613 -0.72826660 -0.98023677 0.73866534
-3.23826814 -6.43183756 1.75751770 -0.75415921 -0.86766213 0.64527059
-3.15391111 -5.78972769 1.89723814 -0.73451334 -0.78104079 0.69656879
-1.81203306 -6.61118031 1.48263741 -0.42200381 -0.89185566 0.54434860
-2.18130517 -6.38178778 1.40816414 -0.50800347 -0.86091036 0.51700586
-2.58200169 -6.46497107 1.39193296 -0.60132152 -0.87213188 0.51104659
-1.36056757 -5.79103613 2.32637930 -0.31686214 -0.78121728 0.85412747
-1.68523359 -5.79241657 2.31585026 -0.39247352 -0.78140354 0.85026175
-3.15519261 -6.64942122 1.40331006 -0.73481178 -0.89701444 0.51522368
-2.10547662 -5.79094076 2.30888891 -0.49034378 -0.78120440 0.84770590
-2.46510601 -5.79823494 2.30396819 -0.57409775 -0.78218842 0.84589928
-2.91125536 -5.78219843 2.29621720 -0.67800134 -0.78002506 0.84305352
-3.31968117 -5.80990982 2.30283689 -0.77311951 -0.78376335 0.84548390
-1.22640455 -5.83040094 1.98288488 -0.28561696 -0.78652763 0.72801387
-2.45571661 -6.79635382 1.90176892 -0.57191104 -0.91683578 0.69823229
-3.10109973 -7.33215523 2.02491999 -0.72221410 -0.98911601 0.74344701
-3.23292685 -6.52345324 1.77732038 -0.75291532 -0.88002121 0.65254110
-3.35509825 -5.96126366 1.59344482 -0.78136778 -0.80418116 0.58503145
-3.10834384 -5.79254627 1.89161336 -0.72390121 -0.78142101 0.69450366
-1.78779614 -6.68652487 1.49732995 -0.41635928 -0.90201974 0.54974294
-2.14301038 -6.40093660 1.40941906 -0.49908501 -0.86349356 0.51746660
-2.54133034 -6.48106670 1.39193296 -0.59184963 -0.87430322 0.51104659
-1.33080053 -5.78650570 2.32195020 -0.30992970 -0.78060615 0.85250133
-1.66310036 -5.81819296 2.32311487 -0.38731891 -0.78488076 0.85292894
-2.07878876 -5.80255985 2.30960035 -0.48412845 -0.78277189 0.84796709
-2.44214129 -5.82014608 2.30814576 -0.56874949 -0.78514427 0.84743303
-2.87564564 -5.77898026 2.28943944 -0.66970819 -0.77959096 0.84056503
-3.27638912 -5.79759407 2.29162049 -0.76303720 -0.78210199 0.84136581
-1.19291842 -5.80640697 1.97261786 -0.27781838 -0.78329086 0.72424436
-2.49096203 -5.97764301 1.64071381 -0.58011937 -0.80639076 0.60238618
-3.22082186 -6.57701397 1.78794634 -0.75009614 -0.88724661 0.65644246
-3.08010793 -5.80543709 1.89105093 -0.71732533 -0.78316003 0.69429719
-1.77380371 -6.76093388 1.51245475 -0.41310057 -0.91205758 0.55529600
-2.51289678 -6.49844646 1.39313710 -0.58522773 -0.87664777 0.51148868
-1.29282069 -5.78749132 2.31899738 -0.30108461 -0.78073907 0.85141718
-1.61586618 -5.79087210 2.30785918 -0.37631854 -0.78119516 0.84732783
-3.08270621 -6.68549633 1.40369344 -0.71793044 -0.90188098 0.51536441
-2.03308630 -5.78902149 2.29893064 -0.47348481 -0.78094554 0.84404975
-2.38680053 -5.79036760 2.29004312 -0.55586123 -0.78112710 0.84078670
-2.83434463 -5.78677988 2.28537273 -0.66008961 -0.78064311 0.83907199
-3.16046786 -5.67644882 2.23487902 -0.73604035 -0.76575935 0.82053328
-1.15241754 -5.79333687 1.96555924 -0.26838616 -0.78152770 0.72165281
-1.47736597 -5.82919741 1.96003127 -0.34406328 -0.78636527 0.71962321
-3.22467232 -6.69165802 1.81402802 -0.75099289 -0.90271223 0.66601831
-3.03462958 -5.80769205 1.88542616 -0.70673388 -0.78346419 0.69223201
-1.75966120 -6.88159418 1.53751862 -0.40980694 -0.92833483 0.56449819
-2.09153605 -6.48373222 1.42280447 -0.48709714 -0.87466276 0.52238101
-2.48112321 -6.53789473 1.39835525 -0.57782799 -0.88196933 0.51340449
-1.25836957 -5.80458975 2.32268834 -0.29306129 -0.78304571 0.85277236
-1.57944942 -5.80091047 2.30785918 -0.36783746 -0.78254938 0.84732783
-3.02291226 -6.66535568 1.39525926 -0.70400506 -0.89916396 0.51226783
-1.99366081 -5.79283428 2.29537416 -0.46430302 -0.78145987 0.84274399
-2.35037184 -5.80525017 2.29004312 -0.54737735 -0.78313476 0.84078670
-2.78981256 -5.78749847 2.27859497 -0.64971858 -0.78074008 0.83658350
-1.11950922 -5.81907701 1.97197616 -0.26072213 -0.78500003 0.72400880
-1.44301617 -5.84757185 1.96318054 -0.33606356 -0.78884405 0.72077948
-2.39599657 -5.96002865 1.62718892 -0.55800289 -0.80401456 0.59742051
-2.99719572 -5.82494068 1.88486373 -0.69801593 -0.78579104 0.69202554
-1.74836707 -7.01938057 1.56647170 -0.40717664 -0.94692236 0.57512826
-2.05425549 -6.50794649 1.42531431 -0.47841489 -0.87792933 0.52330250
-2.44068456 -6.55518913 1.39875662 -0.56841022 -0.88430238 0.51355189
-1.21547890 -5.78143597 2.31013894 -0.28307250 -0.77992225 0.84816486
-1.54054868 -5.80172300 2.30422711 -0.35877788 -0.78265899 0.84599435
-2.97143912 -6.66267824 1.39065874 -0.69201750 -0.89880282 0.51057875
-1.95131135 -5.78751373 2.28826118 -0.45444027 -0.78074211 0.84013247
-2.29848695 -5.78162336 2.27472544 -0.53529388 -0.77994752 0.83516282
-2.73657274 -5.76915741 2.26436162 -0.63731956 -0.77826583 0.83135778
-3.12048697 -5.77375126 2.25797129 -0.72672921 -0.77888554 0.82901156
-1.07816815 -5.79990673 1.96299255 -0.25109422 -0.78241396 0.72071046
-1.40534770 -5.85283470 1.96192086 -0.32729098 -0.78955400 0.72031701
-2.40684938 -7.18969774 1.99702239 -0.56053036 -0.96989834 0.73320448
-3.23576474 -6.93769693 1.87053835 -0.75357622 -0.93590313 0.68676597
-3.30380082 -6.20670938 1.63882148 -0.76942110 -0.83729208 0.60169142
-2.95530152 -5.83340120 1.88148892 -0.68825924 -0.78693241 0.69078648
-1.74983656 -7.21608353 1.60882103 -0.40751886 -0.97345781 0.59067678
-2.02475286 -6.55813360 1.43368018 -0.47154406 -0.88469958 0.52637404
-2.40690136 -6.59061766 1.40317190 -0.56054246 -0.88908172 0.51517296
-1.18204701 -5.80354023 2.31604457 -0.27528656 -0.78290409 0.85033309
-1.50122726 -5.80047369 2.29986835 -0.34962034 -0.78249043 0.84439403
-2.93578362 -6.69561577 1.39372575 -0.68371373 -0.90324610 0.51170480
-1.91490901 -5.79965973 2.28826118 -0.44596255 -0.78238064 0.84013247
-2.26348948 -5.79943943 2.27611780 -0.52714336 -0.78235090 0.83567405
-2.68920612 -5.76233101 2.25487280 -0.62628835 -0.77734494 0.82787395
-3.08504057 -5.79490805 2.25863123 -0.71847409 -0.78173965 0.82925385
-1.04236138 -5.81029797 1.96427596 -0.24275520 -0.78381574 0.72118163
-1.36285388 -5.83753729 1.95373273 -0.31739461 -0.78749037 0.71731073
-2.33360887 -6.02212429 1.63620543 -0.54347342 -0.81239134 0.60073096
-2.10982251 -5.85134745 1.91918182 -0.49135590 -0.78935337 0.70462537
-3.23475409 -7.05149746 1.89613712 -0.75334084 -0.95125496 0.69616455
-3.27745557 -6.25143337 1.64530396 -0.76328558 -0.84332538 0.60407144
-1.98742461 -6.58384418 1.43660831 -0.46285069 -0.88816798 0.52744907
-2.37010527 -6.61850929 1.40598166 -0.55197304 -0.89284438 0.51620454
-1.14132011 -5.78895378 2.30718613 -0.26580167 -0.78093636 0.84708071
-1.45967400 -5.78993320 2.29187727 -0.33994302 -0.78106850 0.84146011
-2.88130569 -6.68505335 1.38759184 -0.67102635 -0.90182126 0.50945276
-1.86875868 -5.78130770 2.27616882 -0.43521461 -0.77990490 0.83569276
-2.22024202 -5.79606056 2.26915526 -0.51707143 -0.78189510 0.83311772
-2.64749074 -5.76712561 2.25012827 -0.61657327 -0.77799171 0.82613200
-3.03093076 -5.78078938 2.24543548 -0.70587248 -0.77983499 0.82440907
-1.00298679 -5.79992342 1.95850074 -0.23358527 -0.78241622 0.71906132
-1.33126354 -5.86818218 1.96129096 -0.31003755 -0.79162437 0.72008568
-2.80161929 -7.35442543 2.00137687 -0.65246820 -0.99212027 0.73480320
-3.22529817 -7.14961481 1.91738892 -0.75113863 -0.96449107 0.70396715
-1.95423615 -6.62436342 1.44288278 -0.45512143 -0.89363408 0.52975273
-2.34025073 -6.66651344 1.41320670 -0.54502022 -0.89932019 0.51885718
-1.11506176 -5.79974747 2.30940080 -0.25968638 -0.78239244 0.84789383
-1.43463922 -5.80578470 2.29550958 -0.33411267 -0.78320688 0.84279370
-2.84977126 -6.69855690 1.38759184 -0.66368234 -0.90364289 0.50945276
-1.83981252 -5.78470039 2.27403498 -0.42847335 -0.78036261 0.83490932
-2.19223595 -5.80470705 2.26845908 -0.51054913 -0.78306150 0.83286214
-2.61334109 -5.76409149 2.24402833 -0.60862017 -0.77758241 0.82389241
-2.99491549 -5.77827263 2.23883772 -0.69748491 -0.77949548 0.82198668
-0.98548526 -5.86439800 1.97903478 -0.22950934 -0.79111391 0.72660035
-1.30025578 -5.85957670 1.95625210 -0.30281615 -0.79046351 0.71823567
-2.31801486 -7.34452486 2.02911878 -0.53984171 -0.99078470 0.74498862
-2.77447128 -7.38746548 2.00688696 -0.64614570 -0.99657744 0.73682624
-3.21119905 -7.20910692 1.92946374 -0.74785513 -0.97251666 0.70840037
-1.93539512 -6.67673969 1.45250356 -0.45073354 -0.90069968 0.53328502
-2.31332874 -6.69041681 1.41601646 -0.53875041 -0.90254474 0.51988882
-1.07793272 -5.80298185 2.30792451 -0.25103942 -0.78282881 0.84735179
-1.39503980 -5.80201244 2.29042435 -0.32489038 -0.78269804 0.84092665
-2.81439519 -6.73264837 1.39104211 -0.65544361 -0.90824187 0.51071948
-1.80397940 -5.79793262 2.27474642 -0.42012820 -0.78214765 0.83517051
-2.14652109 -5.79378319 2.25871158 -0.49990261 -0.78158790 0.82928336
-2.57403040 -5.77351332 2.24131727 -0.59946513 -0.77885348 0.82289708
-2.94473433 -5.77011204 2.22828102 -0.68579823 -0.77839464 0.81811082
-0.94566113 -5.85176373 1.97261786 -0.22023472 -0.78940952 0.72424436
-1.26787794 -5.88802814 1.96318054 -0.29527569 -0.79430163 0.72077948
-2.26447773 -7.33492851 2.02238870 -0.52737349 -0.98949009 0.74251765
-2.61543536 -7.10162306 1.92323315 -0.60910791 -0.95801693 0.70611280
-3.27437758 -6.51545143 1.70086730 -0.76256877 -0.87894171 0.62447149
-2.79041767 -5.84606504 1.86348987 -0.64985949 -0.78864074 0.68417817
-1.90394974 -6.72643566 1.46086943 -0.44341025 -0.90740377 0.53635651
-2.28455925 -6.74375200 1.42444563 -0.53205025 -0.90973973 0.52298355
-1.03984213 -5.80048609 2.30423331 -0.24216850 -0.78249210 0.84599662
-1.35080993 -5.77802896 2.27734804 -0.31458968 -0.77946264 0.83612573
-2.77425909 -6.75565243 1.39219224 -0.64609629 -0.91134512 0.51114178
-1.76267147 -5.79304171 2.26834464 -0.41050801 -0.78148782 0.83282012
-2.10619879 -5.79659557 2.25453401 -0.49051195 -0.78196728 0.82774955
-2.53695393 -5.78784657 2.24063945 -0.59083039 -0.78078699 0.82264817
-2.89648032 -5.76491880 2.21904397 -0.67456037 -0.77769405 0.81471944
-0.90063846 -5.80327749 1.95400894 -0.20974940 -0.78286868 0.71741211
-2.21557975 -7.33975697 2.01980042 -0.51598567 -0.99014151 0.74156737
-2.52504230 -6.99238110 1.88866961 -0.58805627 -0.94328010 0.69342285
-3.15849376 -7.33812094 1.95361352 -0.73558062 -0.98992079 0.71726698
-1.88174725 -6.81184483 1.47718298 -0.43823951 -0.91892552 0.54234600
-2.24960971 -6.78026724 1.42926240 -0.52391088 -0.91466570 0.52475202
-1.00151527 -5.79590893 2.29980421 -0.23324257 -0.78187466 0.84437048
-1.31908822 -5.80637455 2.28533912 -0.30720204 -0.78328645 0.83905959
-2.74050760 -6.79481936 1.39679277 -0.63823593 -0.91662878 0.51283085
-1.72518444 -5.80041599 2.26692200 -0.40177765 -0.78248262 0.83229780
-2.06846642 -5.80618668 2.25314140 -0.48172447 -0.78326112 0.82723826
-2.49019217 -5.77944613 2.23115039 -0.57994008 -0.77965379 0.81916428
-2.85009313 -5.76272774 2.21112657 -0.66375726 -0.77739847 0.81181258
-0.86987501 -5.84818792 1.96748435 -0.20258491 -0.78892714 0.72235960
-2.16454387 -7.33684397 2.01514125 -0.50409991 -0.98974854 0.73985678
-2.48757005 -7.02634335 1.89367878 -0.57932937 -0.94786161 0.69526196
-3.10556126 -7.34171724 1.94926655 -0.72325319 -0.99040592 0.71567094
-1.85502160 -6.88400888 1.49056852 -0.43201539 -0.92866057 0.54726052
-2.21917605 -6.83150244 1.43729019 -0.51682317 -0.92157739 0.52769941
-1.00002038 -6.01673937 2.38617301 -0.23289442 -0.81166494 0.87608069
-1.27768874 -5.79272890 2.27662158 -0.29756051 -0.78144568 0.83585900
-2.70852613 -6.83930922 1.40254331 -0.63078779 -0.92263049 0.51494217
-1.68458092 -5.79676723 2.26123142 -0.39232150 -0.78199041 0.83020848
-2.02258563 -5.79254770 2.24269748 -0.47103932 -0.78142118 0.82340378
-2.43926787 -5.76027679 2.21759486 -0.56808031 -0.77706784 0.81418741
-2.80634356 -5.76526690 2.20518851 -0.65356845 -0.77774101 0.80963242
-0.83050823 -5.83477545 1.96106744 -0.19341679 -0.78711778 0.72000366
-2.11628246 -7.34286880 2.01307058 -0.49286035 -0.99056125 0.73909652
-2.46448398 -7.10214281 1.91020918 -0.57395285 -0.95808709 0.70133108
-3.05418897 -7.34852648 1.94588554 -0.71128911 -0.99132448 0.71442962
-1.84171891 -7.01100016 1.51608455 -0.42891732 -0.94579184 0.55662870
-2.19058251 -6.89008379 1.44692361 -0.51016408 -0.92948008 0.53123635
-0.97597796 -6.11105442 2.42160630 -0.22729519 -0.82438815 0.88908994
-1.24166322 -5.80246305 2.27734804 -0.28917056 -0.78275877 0.83612573
-2.67044377 -6.86901283 1.40522695 -0.62191880 -0.92663759 0.51592743
-1.64510000 -5.79643774 2.25696373 -0.38312683 -0.78194600 0.82864165
-1.97757089 -5.78033495 2.23294997 -0.46055585 -0.77977371 0.81982499
-2.40589571 -5.78244781 2.22030616 -0.56030828 -0.78005874 0.81518286
-2.76267457 -5.76748419 2.19925046 -0.64339840 -0.77804011 0.80745226
-1.07169127 -6.67416239 1.88537788 -0.24958584 -0.90035200 0.69221431
-0.79780978 -5.86992455 1.97133446 -0.18580167 -0.79185945 0.72377318
-2.44682455 -7.19624186 1.93174875 -0.56984019 -0.97078115 0.70923930
-2.59925890 -5.81810045 1.83255386 -0.60534060 -0.78486830 0.67282003
-2.16310120 -6.95418167 1.45776117 -0.50376397 -0.93812692 0.53521532
-0.90206003 -5.81786108 2.30201888 -0.21008047 -0.78483599 0.84518355
-1.21314323 -5.80278206 2.27516866 -0.28252855 -0.78280181 0.83532554
-2.65478635 -6.92555523 1.41442788 -0.61827236 -0.93426520 0.51930559
-1.61032987 -5.77709103 2.24629402 -0.37502921 -0.77933609 0.82472426
-1.94910097 -5.78604031 2.23155737 -0.45392549 -0.78054333 0.81931370
-2.36444044 -5.75886154 2.20675039 -0.55065376 -0.77687693 0.81020588
-2.72164392 -5.75147057 2.18803406 -0.63384277 -0.77587986 0.80333418
-1.04980946 -6.74189901 1.90341318 -0.24448979 -0.90948975 0.69883597
-2.44510388 -7.30308390 1.95779669 -0.56943947 -0.98519427 0.71880281
-2.14707851 -7.01858568 1.46940148 -0.50003242 -0.94681513 0.53948903
-0.86468703 -5.81789541 2.29980421 -0.20137669 -0.78484064 0.84437048
-1.17477906 -5.80116463 2.27153635 -0.27359393 -0.78258365 0.83399194
-2.62631226 -6.98256016 1.42286217 -0.61164099 -0.94195521 0.52240223
-1.57787549 -5.80153799 2.25198460 -0.36747092 -0.78263402 0.82681352
-1.90855503 -5.78572273 2.22668362 -0.44448277 -0.78050053 0.81752431
-2.33239818 -5.78408813 2.21081710 -0.54319149 -0.78027999 0.81169897
-2.68384814 -5.76503944 2.18671465 -0.62504053 -0.77771032 0.80284977
-1.03081274 -6.90826750 1.94932115 -0.24006565 -0.93193305 0.71569103
-2.40099335 -7.32381773 1.95929945 -0.55916655 -0.98799127 0.71935451
-2.12390065 -7.10133505 1.48425293 -0.49463454 -0.95797807 0.54494172
-0.82377452 -5.79191399 2.28725505 -0.19184858 -0.78133571 0.83976305
-1.13465989 -5.79015779 2.26427174 -0.26425058 -0.78109878 0.83132476
-2.58913255 -7.01735783 1.42669582 -0.60298222 -0.94664949 0.52380973
-1.53382266 -5.78240347 2.24060369 -0.35721147 -0.78005272 0.82263505
-1.87041855 -5.79225349 2.22459483 -0.43560117 -0.78138155 0.81675744
-2.28364348 -5.76709747 2.19861722 -0.53183699 -0.77798796 0.80721974
-2.63807416 -5.76121950 2.17879725 -0.61438024 -0.77719498 0.79994291
-0.97673005 -6.83839369 1.92746019 -0.22747035 -0.92250699 0.70766479
-2.36029768 -7.35533762 1.96380770 -0.54968899 -0.99224335 0.72100973
-2.33801579 -6.01128244 1.57059872 -0.54449975 -0.81092876 0.57664353
-0.77590990 -5.71036720 2.25255990 -0.18070140 -0.77033496 0.82702476
-1.09861016 -5.79900217 2.26499820 -0.25585496 -0.78229195 0.83159149
-1.49746072 -5.79192686 2.24060369 -0.34874314 -0.78133744 0.82263505
-1.83570063 -5.80924892 2.22668362 -0.42751575 -0.78367424 0.81752431
-2.24398303 -5.77255201 2.19522834 -0.52260047 -0.77872378 0.80597556
-2.59167337 -5.75533342 2.17021990 -0.60357398 -0.77640098 0.79679376
-0.92661977 -6.79100037 1.91215754 -0.21580018 -0.91611362 0.70204645
-2.30701780 -7.34787273 1.95779669 -0.53728062 -0.99123633 0.71880281
-2.42169523 -6.34717369 1.65608883 -0.56398785 -0.85624087 0.60803109
-0.75232118 -5.81287384 2.29168415 -0.17520784 -0.78416324 0.84138918
-1.05907774 -5.78930426 2.25846004 -0.24664828 -0.78098369 0.82919097
-1.45698655 -5.78489351 2.23420191 -0.33931714 -0.78038865 0.82028466
-1.78797090 -5.78487968 2.21275854 -0.41639996 -0.78038681 0.81241173
-2.19902444 -5.76365423 2.18641710 -0.51213008 -0.77752346 0.80274051
-2.55315089 -5.76633215 2.16824055 -0.59460247 -0.77788472 0.79606700
-0.88999403 -6.84440184 1.92582071 -0.20727043 -0.92331749 0.70706284
-2.24819231 -7.32153559 1.94677639 -0.52358079 -0.98768342 0.71475673
-2.75436401 -7.36670685 1.92270184 -0.64146298 -0.99377704 0.70591778
-3.20692658 -7.35901070 1.87589180 -0.74686009 -0.99273884 0.68873149
-0.72536737 -5.82004499 2.29316044 -0.16893058 -0.78513062 0.84193122
-1.03211761 -5.79606390 2.25918651 -0.24036954 -0.78189558 0.82945770
-1.42750084 -5.78261375 2.23064542 -0.33245021 -0.78008109 0.81897891
-1.76069057 -5.79324102 2.21275854 -0.41004667 -0.78151476 0.81241173
-1.71430767 -6.12317467 2.70341134 -0.39924458 -0.82602316 0.99255437
-2.16592979 -5.75808239 2.18031716 -0.50442272 -0.77677178 0.80050093
-2.52442575 -5.77484465 2.16692090 -0.58791268 -0.77903306 0.79558253
-2.10600066 -5.94196701 2.59955096 -0.49046582 -0.80157804 0.95442212
-2.53393006 -6.10365486 2.65899253 -0.59012616 -0.82338989 0.97624606
-0.86450106 -6.90390015 1.94166982 -0.20133337 -0.93134391 0.71288180
-0.59709471 -5.92037964 1.98031819 -0.13905719 -0.79866588 0.72707152
-2.22382760 -7.36538649 1.95579302 -0.51790649 -0.99359894 0.71806717
-2.70895624 -7.35043955 1.91497397 -0.63088793 -0.99158257 0.70308048
-0.99310780 -5.78775072 2.25337481 -0.23128456 -0.78077412 0.82732397
-1.38898778 -5.78237391 2.22708893 -0.32348090 -0.78004873 0.81767315
-1.72317612 -5.80059862 2.21136594 -0.40130994 -0.78250730 0.81190044
-1.59352589 -5.83642387 2.57044768 -0.37111574 -0.78734016 0.94373691
-2.12583494 -5.76097298 2.17625046 -0.49508503 -0.77716172 0.79900783
-2.47232175 -5.75421429 2.15306544 -0.57577825 -0.77625000 0.79049551
-2.01343846 -5.79454470 2.52857113 -0.46890903 -0.78169060 0.92836195
-2.41238976 -5.91736317 2.56987190 -0.56182069 -0.79825896 0.94352549
-0.82398474 -6.93404007 1.94877458 -0.19189754 -0.93540984 0.71549034
-0.55902535 -5.91458178 1.97710967 -0.13019124 -0.79788375 0.72589356
-1.78051758 -6.04687023 1.59613180 -0.41466418 -0.81572962 0.58601797
-2.49701738 -6.90509605 1.79277623 -0.58152956 -0.93150526 0.65821570
-0.65918511 -5.89337921 2.31899738 -0.15351741 -0.79502350 0.85141718
-0.98275882 -5.94822168 2.31439734 -0.22887439 -0.80242181 0.84972829
-1.35137212 -5.78552151 2.22495484 -0.31472063 -0.78047335 0.81688958
-1.68140960 -5.79332256 2.20440340 -0.39158294 -0.78152573 0.80934417
-1.54246533 -5.79312229 2.54670405 -0.35922426 -0.78149873 0.93501943
-2.08705807 -5.76713037 2.17353940 -0.48605427 -0.77799237 0.79801250
-2.43463826 -5.76616049 2.15174603 -0.56700212 -0.77786154 0.79001105
-1.96874654 -5.78259897 2.51776981 -0.45850074 -0.78007913 0.92439628
-2.34671664 -5.86200523 2.53890634 -0.54652607 -0.79079109 0.93215650
-0.78689367 -6.99836588 1.96571684 -0.18325941 -0.94408745 0.72171068
-1.70150423 -7.35873604 1.98925722 -0.39626276 -0.99270177 0.73035347
-1.73328805 -6.02633381 1.58761621 -0.40366489 -0.81295919 0.58289146
-1.54091775 -5.87641621 1.87361991 -0.35886383 -0.79273516 0.68789738
-2.44135690 -6.88585901 1.78359938 -0.56856680 -0.92891014 0.65484643
-0.62101114 -5.88630915 2.31456804 -0.14462708 -0.79406971 0.84979099
-0.97699636 -6.14925003 2.39140224 -0.22753237 -0.82954073 0.87800056
-1.31336427 -5.78660107 2.22210979 -0.30586898 -0.78061903 0.81584507
-1.63825059 -5.78034544 2.19535208 -0.38153166 -0.77977508 0.80602098
-1.50136137 -5.78493690 2.53878951 -0.34965158 -0.78039449 0.93211365
-2.04766464 -5.77125263 2.17015052 -0.47687995 -0.77854848 0.79676825
-2.39106941 -5.76392841 2.14514804 -0.55685538 -0.77756041 0.78758860
-1.92486238 -5.77207375 2.50774026 -0.44828057 -0.77865922 0.92071396
-2.27500558 -5.78884459 2.50038815 -0.52982533 -0.78092164 0.91801465
-0.74784195 -7.05101490 1.97937989 -0.17416467 -0.95118988 0.72672707
-1.10325563 -6.95892191 1.91059959 -0.25693685 -0.93876642 0.70147443
-1.65439796 -7.36550951 1.98822176 -0.38529220 -0.99361551 0.72997332
-1.69909632 -6.05014229 1.59112263 -0.39570200 -0.81617099 0.58417881
-2.42205739 -6.97079420 1.80195320 -0.56407219 -0.94036800 0.66158503
-2.24958277 -5.85729647 1.80386782 -0.52390462 -0.79015589 0.66228801
-0.58755523 -5.92710161 2.32933211 -0.13683555 -0.79957271 0.85521162
-0.89302009 -5.86435938 2.27662158 -0.20797516 -0.79110867 0.83585900
-1.27737629 -5.79656601 2.22282100 -0.29748777 -0.78196329 0.81610614
-1.60594761 -5.80496740 2.20092201 -0.37400863 -0.78309661 0.80806595
-1.14568448 -5.82566547 2.57549500 -0.26681811 -0.78588885 0.94559002
-1.47365344 -5.82806015 2.55382705 -0.34319869 -0.78621191 0.93763465
-2.00218081 -5.75731516 2.15998387 -0.46628726 -0.77666831 0.79303557
-2.34116149 -5.74566174 2.13261223 -0.54523236 -0.77509624 0.78298610
-1.88515651 -5.77351809 2.50311112 -0.43903351 -0.77885407 0.91901433
-2.21976757 -5.75470734 2.47924113 -0.51696098 -0.77631652 0.91025054
-0.70704716 -7.09195852 1.98976386 -0.16466399 -0.95671320 0.73053950
-1.10116148 -7.23433542 1.98565292 -0.25644913 -0.97592002 0.72903019
-1.66104889 -6.06069851 1.59112263 -0.38684115 -0.81759506 0.58417881
-2.43404651 -7.15138245 1.84542263 -0.56686431 -0.96472955 0.67754477
-1.88276815 -5.91672421 1.85024107 -0.43847728 -0.79817277 0.67931390
-0.54103953 -5.82699776 2.28799319 -0.12600252 -0.78606856 0.84003407
-0.84707218 -5.80903721 2.25264835 -0.19727437 -0.78364569 0.82705724
-1.23939228 -5.79716063 2.21997571 -0.28864166 -0.78204352 0.81506151
-1.55954933 -5.77877378 2.18699694 -0.36320293 -0.77956307 0.80295342
-1.10334980 -5.80215597 2.56180310 -0.25695878 -0.78271735 0.94056302
-1.43121958 -5.81403828 2.54353833 -0.33331627 -0.78432029 0.93385714
-1.96776998 -5.77513075 2.16201711 -0.45827332 -0.77907163 0.79378206
-2.31420779 -5.78301573 2.14118934 -0.53895509 -0.78013533 0.78613520
-1.84773183 -5.78173018 2.50156808 -0.43031767 -0.77996188 0.91844785
-2.18687272 -5.77718973 2.48301721 -0.50930011 -0.77934939 0.91163689
-0.67044795 -7.18439913 2.01490402 -0.15614040 -0.96918350 0.73976970
-1.04633236 -7.17818308 1.96808732 -0.24368000 -0.96834499 0.72258097
-1.97923148 -7.38674974 1.94377089 -0.46094260 -0.99648088 0.71365321
-2.46760416 -7.40426064 1.90772903 -0.57467955 -0.99884307 0.70042050
-1.84668100 -5.93209505 1.85140324 -0.43007293 -0.80024630 0.67974055
-0.51294774 -5.82207394 2.28504038 -0.11946023 -0.78540432 0.83894992
-0.81942183 -5.81112003 2.25192189 -0.19083488 -0.78392667 0.82679051
-1.20867705 -5.78645706 2.21357393 -0.28148842 -0.78059959 0.81271112
-1.53716159 -5.80416679 2.19395947 -0.35798907 -0.78298867 0.80550969
-1.07566833 -5.80548954 2.56099772 -0.25051206 -0.78316706 0.94026738
-1.40293241 -5.81715012 2.54195547 -0.32672849 -0.78474009 0.93327600
-1.94112611 -5.78612518 2.16269493 -0.45206824 -0.78055483 0.79403096
-2.27225304 -5.75702524 2.12733388 -0.52918428 -0.77662921 0.78104818
-1.81334794 -5.76746559 2.49153829 -0.42231002 -0.77803761 0.91476542
-1.00234032 -7.11242962 1.94839239 -0.23343472 -0.95947474 0.71535003
-1.94887602 -7.41283655 1.94827914 -0.45387310 -1.00000000 0.71530843
-2.40387845 -7.32721376 1.88454521 -0.55983847 -0.98844939 0.69190860
-1.81482673 -5.92790937 1.84733570 -0.42265442 -0.79968166 0.67824715
-2.31575990 -6.35098410 1.94617319 -0.53931659 -0.85675490 0.71453524
-0.47563148 -5.81591606 2.28134942 -0.11076966 -0.78457361 0.83759481
-0.78085369 -5.80138683 2.24611020 -0.18185276 -0.78261364 0.82465678
-1.17484677 -5.80677080 2.21855307 -0.27360970 -0.78333992 0.81453919
-1.50208712 -5.81915188 2.19604826 -0.34982058 -0.78501016 0.80627656
-1.03695846 -5.79951143 2.55535984 -0.24149692 -0.78236061 0.93819743
-1.35869634 -5.79368782 2.52770925 -0.31642637 -0.78157502 0.92804551
-1.89659464 -5.77315283 2.15320587 -0.44169733 -0.77880484 0.79054707
-2.23603582 -5.77118826 2.12733388 -0.52074969 -0.77853978 0.78104818
-1.77224648 -5.76285601 2.48459458 -0.41273791 -0.77741575 0.91221601
-0.97022933 -7.21026325 1.97394252 -0.22595640 -0.97267264 0.72473073
-2.34719968 -7.30888367 1.87585139 -0.54663861 -0.98597664 0.68871665
-2.40677643 -6.72827244 2.05923009 -0.56051338 -0.90765154 0.75604397
-0.43614498 -5.77800226 2.26510906 -0.10157366 -0.77945900 0.83163220
-0.73416537 -5.72858620 2.21559882 -0.17097954 -0.77279276 0.81345457
-1.13728023 -5.80853081 2.21641922 -0.26486084 -0.78357732 0.81375575
-1.46086144 -5.81030750 2.18908572 -0.34021956 -0.78381705 0.80372030
-1.02091062 -5.92685604 2.60932231 -0.23775955 -0.79953957 0.95800966
-1.32392383 -5.80926800 2.53087521 -0.30832818 -0.78367680 0.92920792
-1.85857356 -5.77957582 2.15117264 -0.43284261 -0.77967131 0.78980052
-2.18822455 -5.75516033 2.11611748 -0.50961494 -0.77637762 0.77693009
-1.73862934 -5.78272152 2.48845220 -0.40490884 -0.78009564 0.91363233
-2.07852125 -5.79147911 2.47319889 -0.48406616 -0.78127706 0.90803212
-2.30238438 -7.32719326 1.87681735 -0.53620154 -0.98844665 0.68907130
-2.14280725 -7.34385967 2.28779030 -0.49903768 -0.99069494 0.83995956
-2.35293031 -6.71069336 2.04910564 -0.54797316 -0.90528011 0.75232679
-0.40141511 -5.80474091 2.27470565 -0.09348544 -0.78306609 0.83515555
-0.70905042 -5.81998587 2.24974251 -0.16513053 -0.78512263 0.82599038
-1.10007930 -5.81188631 2.21499658 -0.25619712 -0.78403002 0.81323344
-1.42251801 -5.81209278 2.18630075 -0.33128977 -0.78405786 0.80269778
-1.28256142 -5.79596806 2.52137780 -0.29869533 -0.78188264 0.92572093
-1.81887043 -5.78035879 2.14710593 -0.42359614 -0.77977693 0.78830749
-2.15202069 -5.76879549 2.11611748 -0.50118339 -0.77821702 0.77693009
-1.69506240 -5.76872206 2.47765088 -0.39476255 -0.77820712 0.90966666
-2.02658224 -5.76080179 2.45431757 -0.47197008 -0.77713865 0.90109986
-2.09922028 -7.36638737 2.29069567 -0.48888674 -0.99373394 0.84102625
-2.30694652 -6.71446466 2.04573059 -0.53726405 -0.90578884 0.75108761
-0.36702698 -5.84240294 2.28873134 -0.08547679 -0.78814673 0.84030509
-0.67246866 -5.82432604 2.24974251 -0.15661101 -0.78570813 0.82599038
-1.06156206 -5.80764437 2.21072888 -0.24722685 -0.78345776 0.81166655
-1.38156700 -5.80269194 2.17933798 -0.32175270 -0.78278971 0.80014139
-1.24141860 -5.78237867 2.51188040 -0.28911358 -0.78004938 0.92223400
-1.77594614 -5.77007008 2.13897252 -0.41359952 -0.77838898 0.78532130
-2.11180449 -5.77157784 2.11215878 -0.49181747 -0.77859235 0.77547663
-1.65777719 -5.77570820 2.47610784 -0.38607919 -0.77914953 0.90910012
-1.97998643 -5.74369240 2.44147825 -0.46111840 -0.77483058 0.89638591
-1.82484758 -6.06085873 1.54065299 -0.42498818 -0.81761664 0.56564897
-2.31781197 -6.88511086 2.09410334 -0.53979450 -0.92880923 0.76884764
-0.33759522 -5.98195076 2.34335780 -0.07862245 -0.80697191 0.86036110
-0.63502622 -5.82102919 2.24683666 -0.14789104 -0.78526342 0.82492352
-1.02823281 -5.83261919 2.21784186 -0.23946480 -0.78682691 0.81427807
-1.34336448 -5.80395746 2.17655301 -0.31285572 -0.78296041 0.79911894
-0.87844217 -5.74045324 2.51831079 -0.20458011 -0.77439362 0.92459488
-1.21191037 -5.82240868 2.52612638 -0.28224140 -0.78544950 0.92746437
-1.73912072 -5.77931070 2.13829494 -0.40502328 -0.77963555 0.78507251
-2.06777716 -5.76343250 2.10424137 -0.48156396 -0.77749354 0.77256978
-1.62194669 -5.78778839 2.47687936 -0.37773463 -0.78077918 0.90938342
-1.95223653 -5.78055525 2.45205164 -0.45465574 -0.77980340 0.90026790
-1.78185356 -6.05543232 1.53630614 -0.41497532 -0.81688464 0.56405300
-2.44524622 -6.94611359 1.71799934 -0.56947261 -0.93703854 0.63076144
-1.56220567 -5.73802376 1.77063382 -0.36382157 -0.77406585 0.65008616
-2.33207631 -7.07254219 2.14753819 -0.54311651 -0.95409393 0.78846616
-0.30276552 -5.84608555 2.28873134 -0.07051096 -0.78864354 0.84030509
-0.60738856 -5.82210445 2.24611020 -0.14145453 -0.78540844 0.82465678
-0.99237901 -5.78762674 2.19863653 -0.23111483 -0.78075737 0.80722684
-1.31221545 -5.79377890 2.17028666 -0.30560145 -0.78158730 0.79681826
-0.85059512 -5.73909378 2.51589465 -0.19809483 -0.77421021 0.92370784
-1.17181289 -5.76690006 2.49921703 -0.27290311 -0.77796131 0.91758466
-1.70659089 -5.76938057 2.13151717 -0.39744741 -0.77829593 0.78258407
-2.03297353 -5.75177670 2.09632397 -0.47345856 -0.77592117 0.76966292
-1.58546782 -5.76153374 2.46222043 -0.36923909 -0.77723742 0.90400141
-1.90904105 -5.74229574 2.43165970 -0.44459596 -0.77464217 0.89278108
-1.53222239 -5.73421860 1.76714742 -0.35683879 -0.77355254 0.64880615
-2.31425476 -7.13087559 2.16216230 -0.53896606 -0.96196318 0.79383540
-0.26477942 -5.81815815 2.27692032 -0.06166440 -0.78487611 0.83596867
-0.56929028 -5.81097507 2.24029851 -0.13258183 -0.78390706 0.82252300
-0.95420736 -5.78267574 2.19436884 -0.22222504 -0.78008950 0.80566001
-1.27823997 -5.81288815 2.17446423 -0.29768890 -0.78416514 0.79835200
-0.81527072 -5.74976492 2.51831079 -0.18986814 -0.77564979 0.92459488
-1.14276850 -5.81016827 2.51504612 -0.26613900 -0.78379822 0.92339629
-1.66566086 -5.76370430 2.12541699 -0.38791522 -0.77753019 0.78034437
-1.99679410 -5.76443672 2.09632397 -0.46503273 -0.77762902 0.76966292
-1.54498518 -5.75532818 2.45527697 -0.35981110 -0.77640027 0.90145212
-1.87581921 -5.76297235 2.43543601 -0.43685892 -0.77743149 0.89416754
-1.72454834 -6.10830879 1.54499996 -0.40162951 -0.82401776 0.56724495
-2.27643585 -7.16720724 2.16891193 -0.53015840 -0.96686435 0.79631352
-0.22775343 -5.80670357 2.27175283 -0.05304142 -0.78333086 0.83407146
-0.92129111 -5.81072330 2.20290446 -0.21455920 -0.78387314 0.80879384
-1.24288380 -5.82630157 2.17655301 -0.28945482 -0.78597462 0.79911894
-0.78606641 -5.80740786 2.54166794 -0.18306676 -0.78342587 0.93317044
-1.09750664 -5.77215338 2.49525976 -0.25559798 -0.77867001 0.91613173
-1.63092852 -5.77949429 2.12745047 -0.37982643 -0.77966028 0.78109097
-1.95134497 -5.75008106 2.08642721 -0.45444810 -0.77569240 0.76602936
-1.50740981 -5.75956202 2.45296240 -0.35106018 -0.77697140 0.90060234
-1.83957255 -5.77464485 2.43543601 -0.42841747 -0.77900612 0.89416754
-2.23595405 -7.19601917 2.17341185 -0.52073061 -0.97075111 0.79796565
-0.19181134 -5.82660007 2.27913475 -0.04467088 -0.78601491 0.83678168
-0.49507058 -5.80467701 2.23521328 -0.11529683 -0.78305745 0.82065600
-0.91498202 -6.01978064 2.28114796 -0.21308987 -0.81207520 0.83752084
-1.20123506 -5.81014395 2.16750169 -0.27975523 -0.78379494 0.79579574
-0.80105519 -6.22274399 2.72369099 -0.18655749 -0.83945519 1.00000000
-1.06662560 -5.80782127 2.50792313 -0.24840610 -0.78348166 0.92078108
-1.59359598 -5.78599596 2.12609482 -0.37113205 -0.78053737 0.78059328
-1.91938829 -5.77475595 2.09104562 -0.44700572 -0.77902108 0.76772499
-1.46849275 -5.75818253 2.44833326 -0.34199682 -0.77678531 0.89890271
-1.80046856 -5.77725840 2.43165970 -0.41931054 -0.77935869 0.89278108
-2.21321344 -7.28332090 2.19591069 -0.51543456 -0.98252821 0.80622607
-0.15511218 -5.82397366 2.27765846 -0.03612402 -0.78566062 0.83623970
-0.45812967 -5.80210209 2.23303390 -0.10669367 -0.78271013 0.81985581
-0.89555734 -6.15495491 2.33093953 -0.20856607 -0.83031034 0.85580176
-1.16133618 -5.80104256 2.16123533 -0.27046320 -0.78256720 0.79349506
-0.71605819 -5.84227657 2.55294371 -0.16676256 -0.78812969 0.93731034
-1.02945983 -5.81079340 2.50634003 -0.23975056 -0.78388256 0.92019987
-1.55190742 -5.77588701 2.11863923 -0.36142322 -0.77917367 0.77785593
-1.87893522 -5.77414799 2.08642721 -0.43758461 -0.77893907 0.76602936
-1.43272293 -5.76908779 2.44910479 -0.33366638 -0.77825642 0.89918602
-1.75485444 -5.75837278 2.41882038 -0.40868750 -0.77681100 0.88806713
-1.43526280 -7.23920536 1.87464380 -0.33425790 -0.97657698 0.68827331
-2.17181873 -7.31178999 2.20041037 -0.50579417 -0.98636872 0.80787814
-0.11857890 -5.82855034 2.27913475 -0.02761580 -0.78627801 0.83678168
-0.42194816 -5.80858183 2.23448682 -0.09826738 -0.78358424 0.82038927
-0.81663358 -5.86410093 2.21713066 -0.19018553 -0.79107380 0.81401694
-1.12559009 -5.81190395 2.16262794 -0.26213831 -0.78403240 0.79400635
-0.66273105 -5.69930935 2.48770523 -0.15434322 -0.76884323 0.91335809
-1.01689088 -5.95466709 2.56649041 -0.23682339 -0.80329132 0.94228399
-1.51417410 -5.78005838 2.11660600 -0.35263553 -0.77973640 0.77710944
-1.83972359 -5.77685404 2.08312821 -0.42845264 -0.77930409 0.76481813
-1.39431000 -5.76900053 2.44524717 -0.32472041 -0.77824467 0.89776969
-1.71863914 -5.76928520 2.41882038 -0.40025333 -0.77828306 0.88806713
-1.38605094 -7.22907448 1.86963463 -0.32279697 -0.97521031 0.68643421
-1.39299452 -5.96041727 1.82351160 -0.32441404 -0.80406702 0.66950017
-2.12853384 -7.33450031 2.20322275 -0.49571356 -0.98943233 0.80891067
-0.09117899 -5.83462000 2.28134942 -0.02123465 -0.78709680 0.83759481
-0.39868617 -5.86812449 2.25700712 -0.09284990 -0.79161662 0.82865757
-0.78122336 -5.80857515 2.19436884 -0.18193886 -0.78358334 0.80566001
-1.10031462 -5.82819033 2.16680551 -0.25625193 -0.78622943 0.79554015
-0.64391994 -5.77699280 2.52072716 -0.14996231 -0.77932286 0.92548209
-1.03207088 -6.21473598 2.67808485 -0.24035865 -0.83837491 0.98325574
-1.48460925 -5.77800941 2.11321712 -0.34575018 -0.77945995 0.77586520
-1.80791664 -5.77106094 2.07784986 -0.42104512 -0.77852261 0.76288021
-1.36459553 -5.76472521 2.44061804 -0.31780022 -0.77766794 0.89607012
-1.68669593 -5.76134014 2.41202307 -0.39281407 -0.77721125 0.88557148
0.05226477 -6.43134117 2.14330745 0.01217193 -0.86759520 0.78691286
-1.33825552 -7.16323709 1.85059965 -0.31166589 -0.96632874 0.67944551
-1.36320925 -5.95944786 1.82118738 -0.31747738 -0.80393624 0.66864681
-2.07535744 -7.27989817 2.18353629 -0.48332933 -0.98206645 0.80168283
-0.38045081 -6.15687084 2.36888194 -0.08860307 -0.83056879 0.86973226
-0.74448073 -5.81151390 2.19365740 -0.17338188 -0.78397977 0.80539876
-1.06230330 -5.82761526 2.16402054 -0.24739948 -0.78615189 0.79451764
-0.60964441 -5.80095911 2.52958655 -0.14197989 -0.78255594 0.92873478
-0.91886538 -5.76607656 2.47943091 -0.21399426 -0.77785021 0.91032022
-1.44602299 -5.77808857 2.10982823 -0.33676383 -0.77947068 0.77462101
-1.77162051 -5.78230667 2.07784986 -0.41259214 -0.78003967 0.76288021
-1.33323896 -5.79478073 2.44987631 -0.31049758 -0.78172243 0.89946926
-1.64479625 -5.75225735 2.40371513 -0.38305607 -0.77598602 0.88252121
-0.70663494 -5.80493879 2.18938971 -0.16456798 -0.78309280 0.80383188
-1.02202582 -5.81387520 2.15636158 -0.23801927 -0.78429830 0.79170567
-0.56988686 -5.77004910 2.51428390 -0.13272077 -0.77838612 0.92311645
-0.88091433 -5.76084852 2.47468209 -0.20515585 -0.77714497 0.90857667
-1.40749443 -5.77791166 2.10643935 -0.32779092 -0.77944678 0.77337676
-1.73032415 -5.77706242 2.07191181 -0.40297464 -0.77933222 0.76070005
-1.28967047 -5.77060461 2.43598890 -0.30035093 -0.77846104 0.89437050
-1.60962951 -5.76604223 2.40522575 -0.37486610 -0.77784562 0.88307583
-0.28771731 -5.86901426 2.25482774 -0.06700639 -0.79173666 0.82785738
-0.66910899 -5.79997587 2.18583322 -0.15582858 -0.78242326 0.80252612
-0.98675376 -5.82757187 2.15914655 -0.22980477 -0.78614599 0.79272819
-0.53281111 -5.76439857 2.51025677 -0.12408621 -0.77762383 0.92163789
-0.83788663 -5.72085953 2.45489597 -0.19513515 -0.77175039 0.90131223
-1.36945283 -5.77931166 2.10372806 -0.31893143 -0.77963567 0.77238131
-1.69452834 -5.78963041 2.07257175 -0.39463815 -0.78102767 0.76094234
-1.25377250 -5.78039837 2.43676043 -0.29199067 -0.77978224 0.89465380
-1.57139778 -5.76890135 2.40220475 -0.36596233 -0.77823126 0.88196671
-0.25031984 -5.85953760 2.25046897 -0.05829691 -0.79045820 0.82625711
-0.63284975 -5.80592442 2.18654442 -0.14738418 -0.78322572 0.80278724
-0.94734901 -5.81701136 2.15288019 -0.22062781 -0.78472137 0.79042745
-0.49808833 -5.78587675 2.51831079 -0.11599963 -0.78052127 0.92459488
-0.80949831 -5.77873516 2.47784781 -0.18852380 -0.77955788 0.90973896
-1.33352971 -5.78963709 2.10440588 -0.31056529 -0.78102857 0.77263021
-1.64761639 -5.76389217 2.05937600 -0.38371286 -0.77755553 0.75609750
-1.21780217 -5.78996897 2.43753195 -0.28361356 -0.78107333 0.89493704
-1.53174901 -5.76614332 2.39691782 -0.35672852 -0.77785921 0.88002563
-1.50114894 -5.83294296 1.73018396 -0.34960210 -0.78687060 0.63523507
0.10825775 -6.67090178 2.61353683 0.02521211 -0.89991218 0.95955706
-0.21379575 -5.86844206 2.25337481 -0.04979083 -0.79165941 0.82732397
-0.59654218 -5.81164646 2.18725586 -0.13892852 -0.78399765 0.80304849
-0.91226178 -5.83210564 2.15636158 -0.21245636 -0.78675765 0.79170567
-0.46158585 -5.78706694 2.51750541 -0.10749858 -0.78068185 0.92429918
-0.77342343 -5.78552723 2.47863936 -0.18012233 -0.78047413 0.91002959
-1.29469907 -5.78687572 2.10033917 -0.30152205 -0.78065604 0.77113712
-1.61034119 -5.77049685 2.05805635 -0.37503183 -0.77844650 0.75561303
-1.17705226 -5.77579451 2.42827368 -0.27412331 -0.77916116 0.89153790
-1.49548924 -5.77565384 2.39691782 -0.34828401 -0.77914220 0.88002563
-0.18699080 -5.89359379 2.26281881 -0.04354823 -0.79505247 0.83079129
-0.56827080 -5.80508804 2.18369913 -0.13234441 -0.78311294 0.80174261
-0.88476861 -5.83633995 2.15636158 -0.20605348 -0.78732884 0.79170567
-0.74856269 -5.80731583 2.48655391 -0.17433253 -0.78341347 0.91293538
-1.26662302 -5.78923321 2.09898376 -0.29498342 -0.78097409 0.77063948
-1.58414078 -5.78166008 2.05937600 -0.36893004 -0.77995247 0.75609750
-1.14911413 -5.77765512 2.42673063 -0.26761681 -0.77941221 0.89097136
-1.46594632 -5.77366972 2.39314151 -0.34140378 -0.77887458 0.87863916
-1.52015650 -7.17569685 1.79084432 -0.35402876 -0.96800959 0.65750641
-1.46430933 -5.95897150 1.76336980 -0.34102252 -0.80387199 0.64741921
-0.53047395 -5.79364777 2.17800879 -0.12354191 -0.78156960 0.79965341
-0.84091097 -5.79356670 2.13825893 -0.19583948 -0.78155869 0.78505927
-0.39495006 -5.74612284 2.49737024 -0.09197979 -0.77515846 0.91690660
-0.70769554 -5.77728081 2.47151637 -0.16481499 -0.77936167 0.90741438
-1.22714913 -5.78234148 2.09356141 -0.28579035 -0.78004438 0.76864862
-1.54284585 -5.77327538 2.05277801 -0.35931286 -0.77882135 0.75367510
-1.10936666 -5.76662970 2.41901541 -0.25836006 -0.77792484 0.88813871
-1.42693698 -5.77198887 2.38861012 -0.33231890 -0.77864778 0.87697548
-1.47427046 -7.18130207 1.78987825 -0.34334236 -0.96876574 0.65715176
-1.40874076 -5.89344740 1.74087095 -0.32808119 -0.79503268 0.63915879
-0.49527895 -5.81177092 2.18369913 -0.11534536 -0.78401446 0.80174261
-0.84621996 -6.09201574 2.24826765 -0.19707589 -0.82181978 0.82544887
-0.35937655 -5.75762844 2.50139713 -0.08369509 -0.77671057 0.91838509
-0.67552859 -5.81626415 2.48655391 -0.15732363 -0.78462058 0.91293538
-1.18967545 -5.78440475 2.09152818 -0.27706313 -0.78032273 0.76790214
-1.50702333 -5.78468084 2.05343795 -0.35097018 -0.78035998 0.75391740
-1.07509756 -5.78437757 2.42364454 -0.25037912 -0.78031904 0.88983828
-1.39459622 -5.79703236 2.39540744 -0.32478708 -0.78202617 0.87947106
-0.45889351 -5.81663179 2.18441057 -0.10687156 -0.78467017 0.80200380
-0.81625640 -6.15852022 2.27124405 -0.19009769 -0.83079129 0.83388466
-0.32175171 -5.73235083 2.48931599 -0.07493265 -0.77330059 0.91394949
-0.63524890 -5.78754234 2.47230768 -0.14794292 -0.78074598 0.90770489
-1.15077984 -5.77883863 2.08678365 -0.26800475 -0.77957183 0.76616019
-1.46641111 -5.77757978 2.04749990 -0.34151202 -0.77940202 0.75173724
-1.03585684 -5.77466249 2.41670084 -0.24124037 -0.77900845 0.88728893
-1.34915745 -5.76784277 2.37954688 -0.31420484 -0.77808851 0.87364787
-1.07080150 -6.24615908 1.88917303 -0.24937862 -0.84261388 0.69360769
-0.42478496 -5.85483122 2.19792533 -0.09892803 -0.78982335 0.80696577
-0.74311799 -5.89763737 2.17167926 -0.17306451 -0.79559791 0.79732955
-0.29393709 -5.91164351 2.56744099 -0.06845491 -0.79748738 0.94263297
-0.59770054 -5.78046179 2.46755910 -0.13919829 -0.77979082 0.90596145
-1.11409843 -5.78410625 2.08610582 -0.25946203 -0.78028244 0.76591134
-1.42594779 -5.77019739 2.04156184 -0.33208853 -0.77840614 0.74955708
-0.99862915 -5.77559900 2.41438627 -0.23257042 -0.77913481 0.88643914
-1.31664050 -5.79244566 2.38634419 -0.30663198 -0.78140742 0.87614352
-1.04008710 -6.30566120 1.90544319 -0.24222556 -0.85064077 0.69958127
-0.39290735 -5.93573856 2.22780013 -0.09150407 -0.80073780 0.81793427
-0.70650572 -5.90591192 2.17307186 -0.16453789 -0.79671419 0.79784083
-0.26227280 -6.05056334 2.62784696 -0.06108063 -0.81622779 0.96481097
-0.56320757 -5.80237818 2.47547364 -0.13116524 -0.78274733 0.90886730
-1.07672036 -5.78543854 2.08407259 -0.25075707 -0.78046215 0.76516485
-1.38876927 -5.77537441 2.04024220 -0.32343003 -0.77910453 0.74907255
-1.00414550 -6.03854895 2.52317047 -0.23385513 -0.81460708 0.92637914
-1.28062510 -5.80241108 2.38709950 -0.29824436 -0.78275180 0.87642086
-0.35713464 -5.80316544 2.17658615 -0.08317297 -0.78285354 0.79913110
-0.67360032 -5.86635160 2.15705776 -0.15687457 -0.79137743 0.79196125
-0.22911227 -5.92000628 2.56985712 -0.05335788 -0.79861552 0.94352007
-1.04977441 -5.79230118 2.08475041 -0.24448162 -0.78138793 0.76541370
-1.36505067 -5.79654503 2.04552054 -0.31790620 -0.78196043 0.75101048
-0.96415663 -5.97031069 2.49230981 -0.22454213 -0.80540162 0.91504866
-1.25921965 -5.83551502 2.39842844 -0.29325926 -0.78721756 0.88058025
-0.63568491 -5.86115170 2.15357661 -0.14804445 -0.79067594 0.79068315
-0.49577245 -5.76797247 2.45806170 -0.11546028 -0.77810597 0.90247452
-1.01145482 -5.78765440 2.08068371 -0.23555739 -0.78076112 0.76392061
-1.32475555 -5.78845644 2.03958249 -0.30852190 -0.78086931 0.74883038
-0.89094537 -5.74090958 2.39278388 -0.20749198 -0.77445519 0.87850785
-1.20557106 -5.76361179 2.36519718 -0.28076506 -0.77751774 0.86837941
-0.92880130 -6.30753708 1.90079463 -0.21630824 -0.85089386 0.69787455
0.10605322 -6.33543158 2.43426323 0.02469870 -0.85465688 0.89373696
-0.28545612 -5.83520460 2.18725586 -0.06647979 -0.78717566 0.80304849
-0.59983033 -5.87435293 2.15705776 -0.13969429 -0.79245681 0.79196125
-0.15171364 -5.79064465 2.51186752 -0.03533254 -0.78116447 0.92222923
-0.97843456 -5.81431818 2.08813930 -0.22786731 -0.78435808 0.76665795
-1.28794372 -5.79482412 2.03892255 -0.29994881 -0.78172833 0.74858809
-0.85724294 -5.76282835 2.39972758 -0.19964303 -0.77741206 0.88105720
-1.17644012 -5.80553389 2.37954688 -0.27398077 -0.78317308 0.87364787
-0.88915175 -6.31324816 1.90079463 -0.20707427 -0.85166430 0.69787455
-0.24907945 -5.84435415 2.19010091 -0.05800803 -0.78840995 0.80409300
-0.56346452 -5.88360310 2.15914655 -0.13122508 -0.79370469 0.79272819
-0.11544728 -5.79880524 2.51508927 -0.02688648 -0.78226537 0.92341214
-0.42564496 -5.80488014 2.47151637 -0.09912832 -0.78308487 0.90741438
-0.93835288 -5.79804897 2.08000588 -0.21853270 -0.78216332 0.76367176
-1.25474358 -5.81755590 2.04420090 -0.29221684 -0.78479487 0.75052601
-0.82228553 -5.77723932 2.40358520 -0.19150181 -0.77935606 0.88247353
-1.13305008 -5.77830601 2.36519718 -0.26387566 -0.77950001 0.86837941
-0.85320115 -6.34717226 1.90951073 -0.19870174 -0.85624069 0.70107466
-0.21272178 -5.85701323 2.19436884 -0.04954071 -0.79011768 0.80566001
-0.52943426 -5.91876364 2.17098308 -0.12329978 -0.79844791 0.79707390
-0.07932509 -5.83053541 2.52878118 -0.01847400 -0.78654581 0.92843908
-0.38554579 -5.75613832 2.44935560 -0.08978964 -0.77650952 0.89927810
-0.90077436 -5.79638910 2.07729483 -0.20978105 -0.78193945 0.76267642
-1.21070361 -5.79023695 2.03166485 -0.28196037 -0.78110951 0.74592340
-0.85474157 -6.30179596 2.62269640 -0.19906048 -0.85011935 0.96291995
-1.09004879 -5.75076342 2.35084724 -0.25386110 -0.77578443 0.86311084
-0.81543714 -6.36949873 1.91474032 -0.18990690 -0.85925257 0.70299470
-1.14005005 -6.27145863 1.83311629 -0.26550588 -0.84602684 0.67302650
-0.17606600 -5.86383963 2.19650269 -0.04100395 -0.79103857 0.80644345
-0.48657587 -5.85659647 2.14661407 -0.11331850 -0.79006147 0.78812689
-0.04287189 -5.87851572 2.54972196 -0.00998442 -0.79301840 0.93612748
-0.34901845 -5.75294828 2.44698143 -0.08128279 -0.77607918 0.89840639
-0.86514944 -5.80752039 2.07932806 -0.20148438 -0.78344107 0.76342291
-1.17544222 -5.80327702 2.03364420 -0.27374837 -0.78286862 0.74665010
-0.75838846 -5.85668373 2.43290281 -0.17662084 -0.79007322 0.89323747
-1.06068993 -5.79390812 2.36595225 -0.24702373 -0.78160471 0.86865664
-0.14875798 -5.87955475 2.20219326 -0.03464420 -0.79315853 0.80853271
-0.45300907 -5.78594732 2.11945987 -0.10550114 -0.78053081 0.77815723
-0.01509884 -5.95920134 2.58516002 -0.00351636 -0.80390298 0.94913852
-0.32277700 -5.76919699 2.45331287 -0.07517143 -0.77827120 0.90073097
-0.83489037 -5.79103661 2.07187247 -0.19443735 -0.78121734 0.76068556
-1.14733708 -5.80504990 2.03232479 -0.26720297 -0.78310776 0.74616569
-0.72101206 -5.77959347 2.39895606 -0.16791627 -0.77967370 0.88077396
-1.02973199 -5.77879953 2.35764456 -0.23981395 -0.77956659 0.86560649
-0.74859458 -6.40660191 1.92345643 -0.17433995 -0.86425781 0.70619482
-0.11242349 -5.91962242 2.21713066 -0.02618227 -0.79856372 0.81401694
-0.30388299 -6.09758949 2.59419107 -0.07077121 -0.82257169 0.95245427
-0.79798734 -5.79243803 2.07051706 -0.18584302 -0.78140640 0.76018792
-1.11228371 -5.81955719 2.03496385 -0.25903940 -0.78506482 0.74713463
-0.68594688 -5.79500866 2.40358520 -0.15974995 -0.78175318 0.88247353
-0.99691975 -5.80522060 2.36595225 -0.23217233 -0.78313082 0.86865664
