-7.18320274 4.54502964 1.01114750 -0.83922553 0.86009049 0.41816011
-5.64803219 2.27293444 1.69464135 -0.65986902 0.43012464 0.70081902
-5.90436840 2.73256397 1.76155770 -0.68981719 0.51710385 0.72849226
-5.56756449 2.08375716 1.97839308 -0.65046781 0.39432520 0.81816453
-5.83493757 2.53738928 2.07592559 -0.68170547 0.48016945 0.85849911
-6.14968967 3.34060550 1.84068251 -0.71847850 0.63216811 0.76121432
-6.51459455 4.00148487 1.94326997 -0.76111096 0.75723135 0.80363941
-6.17577934 3.17624593 2.21430874 -0.72152656 0.60106516 0.91572750
-6.21964550 2.88071179 1.12456238 -0.72665155 0.54513896 0.46506283
-6.37245083 2.78537941 1.50467634 -0.74450403 0.52709848 0.62225896
-8.49791050 4.56876421 1.52753329 -0.99282503 0.86458194 0.63171148
-6.11442471 3.13528323 1.43535340 -0.71435845 0.59331346 0.59359050
-6.81806135 4.53824759 1.56547689 -0.79656547 0.85880703 0.64740306
-6.81021070 3.58148408 0.98436880 -0.79564828 0.67775142 0.40708578
-6.90865707 3.94291472 0.98216492 -0.80714989 0.74614769 0.40617436
-7.15267944 4.46322680 1.00176084 -0.83565944 0.84461027 0.41427824
-5.60666227 2.21567011 1.67769909 -0.65503567 0.41928807 0.69381255
-5.84958363 2.66244030 1.73973370 -0.68341660 0.50383377 0.71946698
-5.79672956 2.47737765 2.05639982 -0.67724156 0.46881297 0.85042423
-6.11937904 3.27470517 1.82515204 -0.71493727 0.61969733 0.75479174
-6.08341789 3.08097720 2.17363167 -0.71073586 0.58303672 0.89890546
-7.09854317 4.90013504 2.11203575 -0.82933462 0.92728978 0.87343252
-6.23403835 2.83993030 1.12389576 -0.72833306 0.53742158 0.46478716
-8.51596832 4.50975895 1.52561605 -0.99493474 0.85341591 0.63091862
-6.74160242 4.03673267 1.16609192 -0.78763264 0.76390159 0.48223737
-6.28787041 3.17391396 1.47216344 -0.73462236 0.60062385 0.60881329
-6.77534103 4.46410942 1.55052543 -0.79157436 0.84477735 0.64121985
-6.81294584 3.54208612 0.98205674 -0.79596782 0.67029583 0.40612960
-6.90132904 3.89564586 0.97797716 -0.80629379 0.73720264 0.40444249
-7.13141060 4.40354109 0.99505597 -0.83317459 0.83331549 0.41150546
-5.62242556 2.19130254 1.67933869 -0.65687734 0.41467682 0.69449061
-5.81641197 2.61415148 1.72589397 -0.67954111 0.49469572 0.71374357
-5.55982065 2.01156211 1.96748435 -0.64956313 0.38066316 0.81365323
-5.76292753 2.43070555 2.04002357 -0.67329240 0.45998088 0.84365183
-5.96885300 3.15868258 1.77493691 -0.69735104 0.59774148 0.73402524
-6.41227102 3.84164596 1.89918888 -0.74915630 0.72698385 0.78540963
-6.09616518 3.05142903 2.17301536 -0.71222514 0.57744509 0.89865059
-6.96105909 4.75750589 2.06373620 -0.81327212 0.90029895 0.85345823
-6.21861601 2.79749131 1.11856258 -0.72653127 0.52939051 0.46258160
-5.86223125 2.48408723 1.37460339 -0.68489426 0.47008270 0.56846732
-8.54588032 4.47413874 1.52721369 -0.99842942 0.84667522 0.63157928
-6.74696302 3.99682236 1.16367650 -0.78825891 0.75634903 0.48123848
-6.75874519 4.39268208 1.54017437 -0.78963548 0.83126056 0.63693917
-7.01071692 5.10193539 1.57955301 -0.81907374 0.96547794 0.65322423
-6.81213570 3.48754644 0.97829962 -0.79587317 0.65997487 0.40457585
-6.89110518 3.83286500 0.97239351 -0.80509931 0.72532213 0.40213338
-7.11824942 4.33400869 0.98861939 -0.83163697 0.82015735 0.40884361
-5.59290218 2.13958168 1.66622210 -0.65342808 0.40488929 0.68906623
-5.79398298 2.56028748 1.71418357 -0.67692071 0.48450264 0.70890069
-5.46331549 1.93833506 1.92834127 -0.63828826 0.36680585 0.79746562
-5.73080254 2.37467337 2.02301741 -0.66953921 0.44937748 0.83661896
-6.10182524 3.17970419 1.80910385 -0.71288639 0.60171956 0.74815500
-6.37469530 3.76468110 1.88065481 -0.74476629 0.71241921 0.77774489
-6.08103228 2.99634886 2.16068888 -0.71045715 0.56702185 0.89355302
-6.94246006 4.68124056 2.04924655 -0.81109917 0.88586670 0.84746599
-6.77162838 4.36712790 2.41155934 -0.79114062 0.82642478 0.99730051
-6.25408125 2.76639462 1.12189579 -0.73067474 0.52350587 0.46396005
-5.88132381 2.44871759 1.37546766 -0.68712485 0.46338943 0.56882471
-8.54571629 4.40593910 1.52210128 -0.99841028 0.83376932 0.62946504
-6.44017553 3.16200209 1.50018930 -0.75241643 0.59836966 0.62040335
-6.71007204 4.30159235 1.52253914 -0.78394890 0.81402296 0.62964612
-7.11756992 5.11186790 1.59675169 -0.83155757 0.96735758 0.66033673
-6.82506609 3.44024563 0.97685462 -0.79738384 0.65102381 0.40397829
-6.88903761 3.77514815 0.96820575 -0.80485773 0.71439993 0.40040153
-7.10619926 4.26583242 0.98245090 -0.83022910 0.80725586 0.40629262
-7.35155344 4.76424885 0.98440194 -0.85889423 0.90157497 0.40709949
-5.59721756 2.10104847 1.66348958 -0.65393227 0.39759734 0.68793619
-5.76757717 2.50526142 1.70140851 -0.67383564 0.47408965 0.70361757
-5.42702007 1.88734138 1.91101563 -0.63404781 0.35715595 0.79030061
-5.69644690 2.31842041 2.00538135 -0.66552538 0.43873230 0.82932556
-6.05971479 3.10973501 1.79046726 -0.70796657 0.58847874 0.74044782
-6.34476137 3.69323516 1.86462533 -0.74126905 0.69889891 0.77111590
-6.06030607 2.93910456 2.14651346 -0.70803565 0.55618906 0.88769072
-6.81959200 4.53685522 2.00384498 -0.79674429 0.85854357 0.82869017
-6.71159697 4.26925278 2.38018131 -0.78412706 0.80790311 0.98432410
-6.25147247 2.71833539 1.11822915 -0.73036993 0.51441127 0.46244371
-6.39849424 3.25394368 1.12780261 -0.74754673 0.61576849 0.46640283
-6.23067856 3.01150632 1.44581079 -0.72794056 0.56989020 0.59791511
-6.68046618 4.22382641 1.50950444 -0.78048998 0.79930675 0.62425566
-7.05825901 5.00202894 1.57589376 -0.82462817 0.94657189 0.65171093
-6.83589602 3.39204502 0.97512054 -0.79864913 0.64190245 0.40326115
-6.89173841 3.72044516 0.96485555 -0.80517328 0.70404810 0.39901605
-7.09528303 4.19898510 0.97655070 -0.82895374 0.79460585 0.40385258
-7.32459641 4.68150759 0.97575283 -0.85574478 0.88591725 0.40352264
-5.57596350 2.05332494 1.65310562 -0.65144908 0.38856626 0.68364191
-5.73716879 2.44914389 1.68756890 -0.67028296 0.46347010 0.69789422
-5.44954252 1.85683310 1.91486585 -0.63667911 0.35138261 0.79189289
-6.03423595 3.04908204 1.77700758 -0.70498985 0.57700092 0.73488158
-6.29909182 3.61360145 1.84408760 -0.73593336 0.68382925 0.76262254
-6.02362585 2.87491131 2.12679124 -0.70375025 0.54404128 0.87953460
-6.34702587 3.44526291 2.23391867 -0.74153358 0.65197325 0.92383718
-6.84308720 4.49073505 2.00239587 -0.79948926 0.84981591 0.82809091
-6.26842880 2.67900276 1.11822915 -0.73235101 0.50696802 0.46244371
-6.36047220 3.18467379 1.11725819 -0.74310458 0.60266000 0.46204218
-6.62705803 3.75821638 1.12955809 -0.77425021 0.71119583 0.46712881
-6.34498405 3.01737881 1.46839881 -0.74129504 0.57100147 0.60725641
-6.63847160 4.13936424 1.49378622 -0.77558368 0.78332335 0.61775535
-7.01072168 4.90218449 1.55796313 -0.81907427 0.92767757 0.64429575
-6.84817123 3.34470844 0.97367555 -0.80008328 0.63294458 0.40266356
-6.89402437 3.66585779 0.96150541 -0.80544037 0.69371808 0.39763060
-7.08723783 4.13443279 0.97118682 -0.82801378 0.78239012 0.40163437
-7.31197405 4.60885000 0.96939313 -0.85427010 0.87216765 0.40089259
-5.72644615 2.06744170 1.69464135 -0.66903025 0.39123768 0.70081902
-5.71693707 2.39801717 1.67692304 -0.66791928 0.45379499 0.69349158
-5.38914394 1.79882348 1.88919818 -0.62962264 0.34040502 0.78127801
-5.61395216 2.20260191 1.96570003 -0.65588737 0.41681507 0.81291533
-5.96493053 2.96749353 1.75060582 -0.69689280 0.56156135 0.72396314
-6.25267506 3.53468919 1.82354987 -0.73051041 0.66889608 0.75412911
-5.97430754 2.80567145 2.10275459 -0.69798827 0.53093851 0.86959428
-6.25430346 3.34381390 2.19315267 -0.73070067 0.63277531 0.90697837
-6.84668970 4.43189192 1.99515104 -0.79991019 0.83868057 0.82509482
-6.29058504 2.64187145 1.11922920 -0.73493952 0.49994138 0.46285728
-6.35552883 3.13249874 1.11278474 -0.74252701 0.59278649 0.46019217
-6.28931522 2.94285798 1.45083034 -0.73479116 0.55689937 0.59999096
-6.25311518 3.32256842 1.41641784 -0.73056185 0.62875485 0.58575964
-5.49755764 1.93982434 2.27913475 -0.64228880 0.36708769 0.94253629
-6.59735680 4.05662155 1.47845125 -0.77078021 0.76766527 0.61141360
-6.97190666 4.80985928 1.54222822 -0.81453949 0.91020620 0.63778853
-6.86369324 3.29905677 0.97280854 -0.80189669 0.62430555 0.40230501
-6.89064169 3.60861897 0.95731765 -0.80504513 0.68288636 0.39589876
-7.07866287 4.07014847 0.96582299 -0.82701200 0.77022511 0.39941615
-7.29536438 4.53443480 0.96252471 -0.85232955 0.85808551 0.39805216
-5.56137848 1.96910584 1.64108205 -0.64974511 0.37262884 0.67866957
-5.70519066 2.35094380 1.66893864 -0.66654694 0.44488695 0.69018966
-5.37330008 1.75619721 1.87957287 -0.62777162 0.33233854 0.77729744
-5.66483164 2.18173671 1.97892714 -0.66183174 0.41286659 0.81838542
-5.96434450 2.92066932 1.74491131 -0.69682431 0.55270040 0.72160816
-6.20382929 3.45555711 1.80251122 -0.72480369 0.65392131 0.74542862
-5.93992662 2.74429989 2.08426499 -0.69397151 0.51932472 0.86194789
-6.20944738 3.26959062 2.16977239 -0.72546005 0.61872947 0.89730948
-6.79575539 4.33885193 1.97196734 -0.79395944 0.82107389 0.81550717
-7.21657848 5.17049265 2.07823515 -0.84312487 0.97845155 0.85945427
-6.50023174 2.30975580 1.16808295 -0.75943291 0.43709263 0.48306078
-6.17585897 2.99656653 1.07699752 -0.72153592 0.56706303 0.44539237
-6.60285711 3.63535666 1.11717880 -0.77142280 0.68794614 0.46200934
-6.29167080 2.89597034 1.44706571 -0.73506635 0.54802644 0.59843409
-6.24266768 3.26677155 1.40919280 -0.72934127 0.61819601 0.58277178
-6.88866329 2.78017950 0.76776135 -0.80481398 0.52611446 0.31750774
-5.48905897 1.90785527 2.27175283 -0.64129591 0.36103794 0.93948352
-6.59960365 4.01532888 1.47461748 -0.77104270 0.75985116 0.60982811
-6.92641163 4.73021317 1.52685916 -0.80922419 0.89513415 0.63143271
-6.84694433 3.25148129 0.96760637 -0.79993993 0.61530250 0.40015367
-6.89000702 3.56695676 0.95452583 -0.80497098 0.67500234 0.39474422
-7.05290842 4.01138210 0.95884997 -0.82400304 0.75910431 0.39653245
-7.26265812 4.46662188 0.95438433 -0.84850842 0.84525275 0.39468569
-5.53240252 1.92970335 1.62960505 -0.64635980 0.36517242 0.67392325
-5.67340183 2.30646539 1.65616369 -0.66283298 0.43646994 0.68490660
-5.37971115 1.73028326 1.87893116 -0.62852061 0.32743463 0.77703208
-5.55984879 2.11082959 1.93798614 -0.64956641 0.39944831 0.80145425
-5.90838003 2.85908723 1.72420406 -0.69028586 0.54104680 0.71304470
-6.17771196 3.40280724 1.78998816 -0.72175241 0.64393902 0.74024969
-5.88518906 2.68568420 2.06022835 -0.68757641 0.50823241 0.85200751
-6.18422794 3.21903133 2.15538430 -0.72251368 0.60916173 0.89135927
-6.62056923 4.18390560 1.91449094 -0.77349216 0.79175222 0.79173779
-7.15372467 5.07431364 2.05276847 -0.83578157 0.96025091 0.84892249
-6.54827547 2.29200792 1.17494988 -0.76504594 0.43373406 0.48590058
-6.31470919 3.02680397 1.09936452 -0.73775798 0.57278508 0.45464224
-6.55402899 3.56809878 1.10570538 -0.76571810 0.67521840 0.45726451
-6.30703068 2.86709380 1.44748402 -0.73686087 0.54256195 0.59860706
-6.24235392 3.22917008 1.40558028 -0.72930461 0.61108035 0.58127779
-6.85980511 2.71868300 0.76170397 -0.80144244 0.51447701 0.31500271
-5.53088570 1.88341093 2.28430223 -0.64618260 0.35641214 0.94467330
-6.57580996 3.94463038 1.46349967 -0.76826280 0.74647236 0.60523033
-6.87947989 4.63477802 1.50966048 -0.80374110 0.87707424 0.62432015
-6.40945864 2.99601507 0.89390975 -0.74882776 0.56695867 0.36967641
-6.90347290 3.51907516 0.95312989 -0.80654424 0.66594130 0.39416692
-7.06239128 3.95830679 0.95643622 -0.82511091 0.74906045 0.39553425
-7.28549814 4.41780329 0.95362115 -0.85117686 0.83601445 0.39437008
-5.50614262 1.88197124 1.61812806 -0.64329183 0.35613972 0.66917694
-5.66990137 2.26356554 1.65084076 -0.66242403 0.42835170 0.68270528
-5.34163523 1.68126965 1.86160553 -0.62407213 0.31815943 0.76986706
-5.53747082 2.06248116 1.92538893 -0.64695191 0.39029896 0.79624468
-5.91225338 2.81530643 1.72006261 -0.69073844 0.53276181 0.71133196
-6.14629650 3.33514380 1.77445960 -0.71808207 0.63113457 0.73382783
-5.85327482 2.62699389 2.04297137 -0.68384784 0.49712601 0.84487092
-6.16364145 3.15910482 2.14099646 -0.72010851 0.59782141 0.88540918
-6.52464199 4.06658173 1.87874937 -0.76228482 0.76955014 0.77695692
-7.07724953 4.95314837 2.02128267 -0.82684684 0.93732184 0.83590156
-6.59799385 2.26286030 1.18147349 -0.77085459 0.42821825 0.48859844
-6.30856848 2.97535038 1.09489107 -0.73704058 0.56304812 0.45279226
-6.44409513 3.45547295 1.08275855 -0.75287437 0.65390539 0.44777486
-6.33385944 2.83137369 1.44957542 -0.73999536 0.53580236 0.59947199
-6.29738569 3.20777130 1.41360807 -0.73573405 0.60703093 0.58459771
-5.53201818 1.84513056 2.27987313 -0.64631492 0.34916806 0.94284165
-6.82835579 4.53793621 1.49172997 -0.79776818 0.85874814 0.61690503
-6.37414408 2.93103719 0.88523954 -0.74470186 0.55466241 0.36609086
-6.89539671 3.46044993 0.94838381 -0.80560070 0.65484720 0.39220417
-7.04716349 3.89191794 0.95026779 -0.82333183 0.73649716 0.39298329
-7.27060556 4.34639120 0.94726151 -0.84943694 0.82250059 0.39174005
-5.50324678 1.84250307 1.61375594 -0.64295352 0.34867084 0.66736883
-5.54956961 2.17468309 1.61091876 -0.64836544 0.41153181 0.66619551
-5.32309484 1.63886189 1.85133851 -0.62190604 0.31013429 0.76562113
-5.88077211 2.75530744 1.70556748 -0.68706042 0.52140772 0.70533752
-6.12109661 3.27168155 1.76093471 -0.71513790 0.61912513 0.72823465
-5.82085705 2.56881166 2.02571440 -0.68006045 0.48611572 0.83773428
-6.09492207 3.07535625 2.10982251 -0.71207988 0.58197302 0.87251723
-6.46228647 3.97187996 1.85315061 -0.75499970 0.75162899 0.76637053
-7.00753069 4.83869410 1.99211192 -0.81870151 0.91566283 0.82383800
-6.98174763 4.61700773 2.41808701 -0.81568921 0.87371141 1.00000000
-7.52068090 2.52366233 1.34834015 -0.87865371 0.47757179 0.55760616
-6.31458521 2.92987394 1.09265447 -0.73774350 0.55444229 0.45186731
-6.40458155 3.38242865 1.07219088 -0.74825794 0.64008266 0.44340459
-6.39455080 2.81028128 1.45961463 -0.74708605 0.53181088 0.60362369
-6.38212490 3.20082498 1.42845953 -0.74563426 0.60571641 0.59073949
-5.50989246 1.79948926 2.26584744 -0.64372993 0.34053102 0.93704134
-6.88173580 3.11050606 0.96356028 -0.80400467 0.58862466 0.39848042
-6.90636349 3.41176605 0.94670868 -0.80688196 0.64563441 0.39151141
-7.07147741 3.84756279 0.95026779 -0.82617247 0.72810352 0.39298329
-7.28241110 4.29152155 0.94497204 -0.85081619 0.81211722 0.39079323
-5.49458218 1.80136693 1.60774422 -0.64194119 0.34088632 0.66488272
-5.68352175 2.18655276 1.64658237 -0.66401529 0.41377798 0.68094420
-5.28244305 1.59028149 1.83337116 -0.61715662 0.30094105 0.75819075
-5.67003965 2.03151178 1.96318054 -0.66244018 0.38443840 0.81187344
-6.24075222 3.28576255 1.78998816 -0.72911745 0.62178981 0.74024969
-5.78794098 2.51114130 2.00845742 -0.67621481 0.47520232 0.83059764
-6.05099154 3.00540590 2.08764100 -0.70694745 0.56873578 0.86334401
-6.45054007 3.90916729 1.84252477 -0.75362736 0.73976141 0.76197618
-6.31128740 2.88036728 1.08882010 -0.73735821 0.54507375 0.45028162
-6.49576521 3.37880945 1.08426821 -0.75891107 0.63939774 0.44839919
-5.45019007 1.74244475 2.23631954 -0.63675481 0.32973605 0.92483008
-6.88122749 3.05841804 0.96038121 -0.80394524 0.57876766 0.39716569
-6.92410660 3.36656356 0.94615030 -0.80895489 0.63708037 0.39128050
-7.05703020 3.78255486 0.94436759 -0.82448459 0.71580160 0.39054325
-7.27497244 4.22567034 0.93988431 -0.84994715 0.79965568 0.38868919
-5.47828293 1.75808716 1.59954631 -0.64003694 0.33269617 0.66149247
-5.76379728 2.17621541 1.66627717 -0.67339402 0.41182175 0.68908900
-5.31052303 1.56233919 1.83978808 -0.62043726 0.29565331 0.76084447
-5.50201893 1.93170452 1.89956474 -0.64281005 0.36555111 0.78556508
-5.81802130 2.63762879 1.67709494 -0.67972910 0.49913853 0.69356269
-6.06560993 3.14431691 1.73288321 -0.70865530 0.59502298 0.71663392
-5.77205801 2.46139359 1.99736357 -0.67435914 0.46578819 0.82600981
-6.00129032 2.93360090 2.06366110 -0.70114076 0.55514759 0.85342717
-6.39654255 3.82198668 1.81982398 -0.74731874 0.72326356 0.75258827
-6.94363880 4.66638803 1.95645869 -0.81123686 0.88305604 0.80909359
-6.59172487 3.75643444 2.26861501 -0.77012217 0.71085858 0.93818587
-6.77814436 4.36004448 2.32696652 -0.79190189 0.82508433 0.96231711
-6.45192099 2.43963933 1.13189554 -0.75378865 0.46167147 0.46809545
-6.32204628 2.83744311 1.08754194 -0.73861521 0.53695089 0.44975302
-6.47996569 3.31889892 1.07792759 -0.75706518 0.62806046 0.44577700
-5.79670000 2.46326900 1.31279254 -0.67723811 0.46614310 0.54290539
-6.49751568 3.15741062 1.44571936 -0.75911558 0.59750080 0.59787732
-5.49299812 1.71804059 2.24960709 -0.64175612 0.32511786 0.93032515
-6.56343174 4.18448162 1.41451883 -0.76681668 0.79186124 0.58497435
-6.64975786 2.90644789 0.92049831 -0.77690226 0.55000919 0.38067213
-6.93263292 3.31697559 0.94419605 -0.80995107 0.62769645 0.39047232
-7.07363749 3.73445654 0.94329476 -0.82642484 0.70669955 0.39009959
-7.27731037 4.16602087 0.93632287 -0.85022026 0.78836775 0.38721636
-5.48370886 1.72192204 1.59790671 -0.64067084 0.32585239 0.66081440
-5.75207853 2.13049936 1.65882516 -0.67202491 0.40317056 0.68600720
-5.32205677 1.52945817 1.84042978 -0.62178475 0.28943098 0.76110983
-5.46922731 1.88150120 1.88381815 -0.63897896 0.35605076 0.77905309
-5.77440262 2.57446814 1.65949380 -0.67463309 0.48718616 0.68628377
-6.03014421 3.07781029 1.71685374 -0.70451182 0.58243740 0.71000493
-5.99728441 2.88501501 2.05586743 -0.70067275 0.54595327 0.85020405
-6.36850643 3.75132775 1.80485117 -0.74404323 0.70989221 0.74639630
-6.83196449 4.52879238 1.91617525 -0.79818982 0.85701776 0.79243439
-6.39126682 3.58997774 2.19075084 -0.74670237 0.67935872 0.90598512
-6.71641207 4.26059723 2.29603076 -0.78468961 0.80626518 0.94952363
-6.30900383 2.78420472 1.08210993 -0.73709142 0.52687621 0.44750661
-6.43899202 3.24678922 1.06735992 -0.75227815 0.61441457 0.44140676
-5.89700031 2.46194243 1.33245254 -0.68895638 0.46589205 0.55103582
-6.19419146 2.96093011 1.37226474 -0.72367769 0.56031930 0.56750017
-7.15088320 2.58925414 0.78932577 -0.83544958 0.48998421 0.32642570
-5.39787722 1.66080403 2.20679188 -0.63064301 0.31428656 0.91261888
-5.53787565 2.02517843 2.26281881 -0.64699924 0.38323990 0.93578881
-6.66608620 4.20618296 1.43281531 -0.77880996 0.79596794 0.59254086
-6.63972998 2.86495352 0.91674125 -0.77573073 0.54215693 0.37911838
-6.42244768 3.03405905 0.86211628 -0.75034529 0.57415801 0.35652822
-7.07356358 3.69195580 0.94061285 -0.82641619 0.69865680 0.38899049
-7.27445126 4.11891985 0.93301588 -0.84988624 0.77945447 0.38584876
-5.46599913 1.68820477 1.59025538 -0.63860178 0.31947181 0.65765017
-5.63905764 2.05800867 1.62262917 -0.65882051 0.38945261 0.67103839
-5.33650494 1.50639331 1.84299660 -0.62347275 0.28506625 0.76217133
-5.43313980 1.84032333 1.86807168 -0.63476276 0.34825835 0.77254111
-5.75991154 2.53563881 1.65172851 -0.67294008 0.47983819 0.68307239
-5.98589325 3.01953173 1.69982243 -0.69934189 0.57140893 0.70296162
-5.64735889 2.33574343 1.94435990 -0.65979034 0.44201046 0.80409014
-5.93165636 2.81880426 2.02829051 -0.69300526 0.53342372 0.83879966
-6.30213547 3.67264938 1.78070140 -0.73628896 0.69500333 0.73640913
-6.78664160 4.45262051 1.89719117 -0.79289466 0.84260321 0.78458351
-6.25899410 3.47752213 2.13903522 -0.73124874 0.65807790 0.88459814
-6.60658264 4.14693165 2.25103283 -0.77185804 0.78475535 0.93091476
-6.50240707 2.37742472 1.13622868 -0.75968707 0.44989812 0.46988744
-6.33655214 2.76070929 1.08466625 -0.74030995 0.52243000 0.44856378
-6.43301630 3.20576835 1.06373680 -0.75158000 0.60665190 0.43990842
-6.28945875 2.97043562 1.39072883 -0.73480797 0.56211811 0.57513601
-5.43315268 1.63426197 2.21712661 -0.63476425 0.30926380 0.91689283
-5.51370192 1.97700775 2.24756312 -0.64417499 0.37412420 0.92947984
-6.61929321 2.80706143 0.91067213 -0.77334303 0.53120154 0.37660849
-6.40192652 2.97517037 0.85597426 -0.74794775 0.56301409 0.35398820
-7.09132576 3.64473414 0.93980831 -0.82849139 0.68972069 0.38865778
-7.28980732 4.06730747 0.93148953 -0.85168034 0.76968747 0.38521755
-5.47281122 1.65272856 1.58916235 -0.63939768 0.31275839 0.65719819
-5.72439432 2.04876494 1.64392090 -0.66879052 0.38770336 0.67984354
-5.31113148 1.46340120 1.83080447 -0.62050831 0.27693051 0.75712925
-5.42480040 1.79950511 1.86114323 -0.63378847 0.34053400 0.76967585
-5.73489475 2.48188400 1.63982189 -0.67001730 0.46966577 0.67814845
-5.96838427 2.96366668 1.68930304 -0.69729626 0.56083715 0.69861138
-5.60720444 2.27819610 1.92525399 -0.65509903 0.43112034 0.79618889
-5.91127920 2.76358294 2.01510167 -0.69062459 0.52297378 0.83334541
-6.41105461 3.68203902 1.80533409 -0.74901420 0.69678020 0.74659598
-6.69706583 4.33348751 1.86385310 -0.78242934 0.82005876 0.77079654
-6.34629011 3.47377896 2.16169715 -0.74144763 0.65736955 0.89396995
-6.59177494 4.07997990 2.23697114 -0.77012807 0.77208555 0.92509955
-6.52092505 2.33786416 1.13689542 -0.76185054 0.44241178 0.47016317
-6.34468699 2.71698213 1.08306861 -0.74126035 0.51415515 0.44790307
-6.42289782 3.15039873 1.05860388 -0.75039786 0.59617388 0.43778569
-6.27605820 2.91590548 1.38350379 -0.73324233 0.55179894 0.57214808
-5.39689875 1.58662903 2.19793344 -0.63052869 0.30024984 0.90895545
-5.37325907 1.88803697 2.18436122 -0.62776679 0.35728756 0.90334266
-6.47244358 3.97029352 1.37902367 -0.75618637 0.75132877 0.57029533
-6.67337799 2.78053617 0.91645223 -0.77966189 0.52618200 0.37899888
-6.99610376 3.20001316 0.94531280 -0.81736648 0.60556281 0.39093414
-7.09637928 3.59120250 0.93712634 -0.82908183 0.67959052 0.38754866
-7.28744173 4.00606632 0.92741936 -0.85140395 0.75809836 0.38353431
-5.45722771 1.61077702 1.58151102 -0.63757700 0.30481955 0.65403396
-5.62631607 1.97345519 1.61145103 -0.65733188 0.37345192 0.66641563
-5.31106567 1.42757702 1.82759595 -0.62050062 0.27015123 0.75580239
-5.40354061 1.75471544 1.84980571 -0.63130462 0.33205813 0.76498723
-5.75749636 2.44880319 1.64189255 -0.67265791 0.46340561 0.67900473
-5.94346285 2.90471959 1.67678010 -0.69438469 0.54968214 0.69343251
-5.64795113 2.25340748 1.93449879 -0.65985954 0.42642939 0.80001205
-5.88698196 2.70712471 2.00071359 -0.68778592 0.51228976 0.82739520
-6.41714621 3.63217139 1.80050421 -0.74972588 0.68734336 0.74459863
-6.55877972 4.18518305 1.81708729 -0.76627314 0.79199398 0.75145656
-6.24146700 3.36606836 2.11811662 -0.72920096 0.63698667 0.87594724
-6.64508629 4.05555248 2.24653316 -0.77635652 0.76746297 0.92905390
-6.56893921 2.30871367 1.14289522 -0.76746011 0.43689543 0.47264439
-6.27784491 1.69892812 1.44248378 -0.73345107 0.32150108 0.59653926
-6.36527729 2.67858481 1.08370757 -0.74366593 0.50688893 0.44816732
-6.42478514 3.10133529 1.05558455 -0.75061834 0.58688921 0.43653706
-6.32095003 2.88870883 1.38952458 -0.73848712 0.54665232 0.57463795
-5.32091713 1.52837157 2.16250014 -0.62165159 0.28922537 0.89430207
-5.53459024 1.90634036 2.24611020 -0.64661539 0.36075127 0.92887896
-6.63667917 4.01437855 1.40939581 -0.77537429 0.75967133 0.58285570
-6.70721912 2.74525189 0.91905332 -0.78361559 0.51950485 0.38007453
-7.00163984 3.14945507 0.94307929 -0.81801325 0.59599531 0.39001048
-7.09748888 3.53599310 0.93390805 -0.82921147 0.66914284 0.38621771
-7.32640505 3.96779060 0.92945445 -0.85595608 0.75085515 0.38437593
-5.46909142 1.57698309 1.58205760 -0.63896304 0.29842448 0.65425998
-5.55847883 1.91021919 1.58803022 -0.64940631 0.36148527 0.65673000
-5.26857424 1.38092268 1.80962873 -0.61553633 0.26132247 0.74837208
-5.36747694 1.70561326 1.83342934 -0.62709129 0.32276616 0.75821477
-5.69780493 2.38153625 1.62014997 -0.66568404 0.45067617 0.67001307
-5.92152262 2.84789276 1.66525888 -0.69182134 0.53892839 0.68866789
-5.61765051 2.20067549 1.91909075 -0.65631944 0.41645053 0.79364008
-5.80665731 2.62574673 1.96714175 -0.67840147 0.49688998 0.81351155
-6.21066618 3.46478653 1.73529994 -0.72560245 0.65566784 0.71763337
-6.56193018 4.12932253 1.81060493 -0.76664126 0.78142303 0.74877578
-6.19140291 3.28928185 2.09371138 -0.72335190 0.62245578 0.86585444
-6.56863689 3.95210290 2.21165991 -0.76742476 0.74788642 0.91463208
-6.31670570 1.66682613 1.44912720 -0.73799127 0.31542617 0.59928662
-6.38380814 2.63928676 1.08402717 -0.74583095 0.49945226 0.44829950
-6.45869732 2.51759934 1.44832063 -0.75458038 0.47642443 0.59895307
-6.36396217 2.86025405 1.39514410 -0.74351227 0.54126757 0.57696193
-5.30712461 1.48846984 2.15290356 -0.62004024 0.28167444 0.89033335
-5.53411436 1.86731482 2.24102497 -0.64655977 0.35336617 0.92677599
-6.22626591 3.28577042 1.34082031 -0.72742504 0.62179130 0.55449629
-6.74271822 2.71038485 0.92194337 -0.78776300 0.51290673 0.38126972
-7.00681782 3.09895372 0.94084585 -0.81861818 0.58643854 0.38908684
-7.12134743 3.49219680 0.93417627 -0.83199888 0.66085494 0.38632864
-7.31623125 3.90291953 0.92436671 -0.85476750 0.73857909 0.38227189
-5.49001408 1.54567754 1.58533669 -0.64140749 0.29250029 0.65561604
-5.55029678 1.86842132 1.58217490 -0.64845043 0.35357556 0.65430850
-5.32123661 1.35887766 1.82502925 -0.62168896 0.25715074 0.75474095
-5.35454941 1.66444445 1.82524121 -0.62558091 0.31497547 0.75482857
-5.70549822 2.34277749 1.61807919 -0.66658288 0.44334158 0.66915673
-5.89386177 2.78895593 1.65223491 -0.68858969 0.52777529 0.68328184
-5.59402418 2.15112114 1.90614796 -0.65355915 0.40707299 0.78828758
-5.73773336 2.55095243 1.93776631 -0.67034894 0.48273611 0.80136335
-6.15906429 3.38570523 1.71453118 -0.71957374 0.64070272 0.70904446
-6.49366570 4.02928829 1.78421235 -0.75866580 0.76249284 0.73786110
-6.13213205 3.20884752 2.06640077 -0.71642721 0.60723460 0.85456014
-6.54059839 3.87928152 2.19366074 -0.76414901 0.73410589 0.90718853
-7.52144241 2.54075789 1.30789077 -0.87874264 0.48080692 0.54087830
-6.35730028 1.63478243 1.45621336 -0.74273396 0.30936229 0.60221708
-6.41308498 2.60428667 1.08626390 -0.74925143 0.49282894 0.44922450
-6.33267021 2.95888066 1.03354347 -0.73985642 0.55993146 0.42742196
-6.42501354 2.45824480 1.43702662 -0.75064504 0.46519232 0.59428245
-5.30380964 1.45170641 2.14773631 -0.61965293 0.27471742 0.88819647
-5.50862503 1.82009959 2.22576928 -0.64358187 0.34443125 0.92046702
-6.21713448 3.23128200 1.33430290 -0.72635818 0.61148000 0.55180103
-6.53597260 3.84158754 1.37682807 -0.76360857 0.72697276 0.56938732
-6.79462910 2.68167257 0.92743450 -0.79382783 0.50747329 0.38354057
-6.63430977 2.88326287 0.88054234 -0.77509749 0.54562175 0.36414832
-7.13957453 3.44566965 0.93363982 -0.83412838 0.65205026 0.38610679
-7.34937859 3.86150861 0.92563868 -0.85864013 0.73074257 0.38279793
-5.48476219 1.50712752 1.58096457 -0.64079392 0.28520519 0.65380800
-5.53815174 1.82558191 1.57525516 -0.64703149 0.34546873 0.65144682
-5.26159143 1.30875409 1.80128670 -0.61472046 0.24766546 0.74492222
-5.15808725 1.56708241 1.75343704 -0.60262793 0.29655090 0.72513396
-5.66090393 2.28323364 1.60099578 -0.66137284 0.43207362 0.66209191
-5.86920118 2.73212552 1.64021289 -0.68570852 0.51702088 0.67831010
-5.55573988 2.09662580 1.88827467 -0.64908636 0.39676040 0.78089607
-5.75364780 2.51485109 1.93776631 -0.67220825 0.47590438 0.80136335
-6.14261150 3.32671595 1.70390522 -0.71765155 0.62953973 0.70465010
-6.45091867 3.94659448 1.76522815 -0.75367159 0.74684405 0.73001021
-6.05335712 3.11970186 2.03269863 -0.70722377 0.59036487 0.84062260
-6.45069790 3.77096415 2.15485024 -0.75364578 0.71360815 0.89113843
-6.31064510 1.58076668 1.44292665 -0.73728317 0.29914048 0.59672236
-6.43115759 2.56466675 1.08658338 -0.75136286 0.48533136 0.44935662
-6.32422590 2.90657020 1.02901447 -0.73886985 0.55003232 0.42554897
-6.37067747 2.39191198 1.42113137 -0.74429685 0.45263967 0.58770895
-5.95429754 2.58515000 1.29559898 -0.69565052 0.48920757 0.53579503
-5.21355915 1.40101326 2.10787368 -0.60910881 0.26512438 0.87171125
-5.49236059 1.78596616 2.21559882 -0.64168161 0.33797193 0.91626102
-6.21830416 3.19481325 1.33123589 -0.72649485 0.60457879 0.55053264
-6.84226894 2.66316533 0.93292564 -0.79939365 0.50397098 0.38581145
-6.60964966 2.83546329 0.87467951 -0.77221638 0.53657627 0.36172375
-7.14140320 3.40519977 0.93149430 -0.83434200 0.64439178 0.38521951
-7.35870266 3.82223916 0.92436671 -0.85972947 0.72331131 0.38227189
-5.50109959 1.48373640 1.58369720 -0.64270264 0.28077871 0.65493804
-5.53753471 1.79645729 1.57259369 -0.64695942 0.33995724 0.65034622
-5.28243685 1.28747833 1.80642021 -0.61715591 0.24363931 0.74704516
-5.33982515 1.59556699 1.81390369 -0.62386066 0.30194125 0.75013995
-5.66980314 2.25582385 1.60047805 -0.66241252 0.42688668 0.66187775
-5.86444426 2.69629359 1.63520360 -0.68515277 0.51024008 0.67623854
-5.54234600 2.06187725 1.88026249 -0.64752150 0.39018470 0.77758265
-5.74619102 2.47933221 1.93117177 -0.67133707 0.46918285 0.79863620
-6.10338497 3.26857376 1.68844938 -0.71306860 0.61853701 0.69825834
-6.44950390 3.90400720 1.75967181 -0.75350630 0.73878491 0.72771233
-6.02529573 3.06955218 2.01817179 -0.70394534 0.58087468 0.83461505
-6.43521929 3.72121811 2.14360070 -0.75183737 0.70419437 0.88648617
-6.37489080 1.56478286 1.45621336 -0.74478912 0.29611573 0.60221708
-6.47260237 2.54580855 1.09169579 -0.75620490 0.48176268 0.45147085
-6.47808933 2.94088387 1.05256522 -0.75684595 0.55652577 0.43528840
-5.95921993 2.55395269 1.29399347 -0.69622558 0.48330384 0.53513104
-5.26185608 1.37844312 2.12411404 -0.61475140 0.26085326 0.87842745
-5.49992609 1.75027895 2.21414590 -0.64256555 0.33121857 0.91566014
-6.27684546 3.17506027 1.33967018 -0.73333430 0.60084075 0.55402064
-7.08279657 2.70495415 0.96789539 -0.82749492 0.51187903 0.40027317
-6.61639833 2.78923106 0.87300444 -0.77300483 0.52782738 0.36103103
-7.15726852 3.35775065 0.93068975 -0.83619559 0.63541263 0.38488680
-7.37198973 3.77048206 0.92284042 -0.86128181 0.71351695 0.38164070
-5.50472641 1.44769490 1.58205760 -0.64312637 0.27395830 0.65425998
-5.55421925 1.76339805 1.57419062 -0.64890867 0.33370119 0.65100658
-5.29226685 1.25469267 1.80706191 -0.61830437 0.23743501 0.74731052
-5.32426214 1.55444336 1.80508566 -0.62204242 0.29415911 0.74649328
-5.51630020 2.15534616 1.55233359 -0.64447856 0.40787253 0.64196765
-5.84603500 2.64332676 1.62518525 -0.68300200 0.50021678 0.67209542
-5.51045084 2.01086211 1.86485445 -0.64379513 0.38053071 0.77121067
-5.70552111 2.41916037 1.91198790 -0.66658551 0.45779610 0.79070270
-6.07910013 3.20674944 1.67589152 -0.71023142 0.60683757 0.69306505
-6.41218710 3.82634926 1.74253976 -0.74914652 0.72408915 0.72062743
-6.01362610 3.01628304 2.00771236 -0.70258194 0.57079417 0.83028954
-6.38521814 3.63869691 2.11885214 -0.74599570 0.68857825 0.87625140
-6.37320614 1.52201474 1.45355606 -0.74459231 0.28802240 0.60111821
-6.43513632 2.87254572 1.04229951 -0.75182772 0.54359365 0.43104300
-5.25599098 1.34173083 2.11820841 -0.61406618 0.25390592 0.87598521
-5.50015163 1.71232653 2.20978713 -0.64259189 0.32403654 0.91385758
-7.13860798 2.67487693 0.97396451 -0.83401549 0.50618726 0.40278307
-6.67948103 2.76667953 0.87998402 -0.78037488 0.52355975 0.36391744
-7.17642260 3.31188822 0.93042153 -0.83843338 0.62673378 0.38477588
-7.38668680 3.71960545 0.92156845 -0.86299890 0.70388919 0.38111469
-5.52863693 1.41684699 1.58642972 -0.64591986 0.26812071 0.65606809
-5.57438469 1.73135650 1.57685196 -0.65126467 0.32763773 0.65210718
-5.33939457 1.52254117 1.80697525 -0.62381035 0.28812203 0.74727470
-5.67602873 2.17617249 1.59426582 -0.66313988 0.41181365 0.65930873
-5.82895947 2.59149051 1.61566770 -0.68100703 0.49040744 0.66815948
-5.68367195 2.36773348 1.89939833 -0.66403288 0.44806418 0.78549629
-6.04738140 3.14180183 1.66140175 -0.70652562 0.59454703 0.68707275
-6.37750053 3.75129771 1.72633386 -0.74509400 0.70988655 0.71392548
-5.98777723 2.95654583 1.99260437 -0.69956201 0.55948961 0.82404166
-6.35448742 3.56828547 2.10085297 -0.74240535 0.67525375 0.86880785
-7.20585585 1.85277343 1.26250339 -0.84187216 0.35061437 0.52210832
-6.40545750 1.48716342 1.45887077 -0.74836028 0.28142723 0.60331607
-6.45124960 2.83125639 1.04199755 -0.75371021 0.53578013 0.43091813
-6.59474277 2.73096824 1.42805815 -0.77047479 0.51680183 0.59057349
-5.24445677 1.30382192 2.11008835 -0.61271864 0.24673212 0.87262714
-5.40574121 1.64534354 2.16692615 -0.63156176 0.31136084 0.89613241
-6.45921755 3.16549969 1.37072337 -0.75464118 0.59903157 0.56686270
-5.72200823 2.16236043 2.29181767 -0.66851175 0.40919989 0.94778132
-7.18874168 2.64217138 0.97916663 -0.83987266 0.49999815 0.40493441
-6.73154640 2.73893523 0.88528848 -0.78645778 0.51830953 0.36611110
-7.19709015 3.26673245 0.93042153 -0.84084803 0.61818856 0.38477588
-7.39393473 3.66515160 0.91927898 -0.86384571 0.69358444 0.38016787
-5.52435207 1.37886727 1.58260405 -0.64541924 0.26093352 0.65448600
-5.55751276 1.68779755 1.56886768 -0.64929348 0.31939474 0.64880532
-5.21511269 1.16774726 1.77497745 -0.60929030 0.22098167 0.73404199
-5.31049204 1.47813213 1.79374814 -0.62043363 0.27971816 0.74180466
-5.64614058 2.12428594 1.58184147 -0.65964800 0.40199476 0.65417063
-5.80437803 2.53684950 1.60414648 -0.67813516 0.48006728 0.66339487
-5.72403336 2.00692701 1.92956817 -0.66874838 0.37978604 0.79797304
-5.68609238 2.32687593 1.89520192 -0.66431564 0.44033238 0.78376085
-6.01681900 3.07825923 1.64739490 -0.70295501 0.58252239 0.68128026
-6.35725069 3.68565941 1.71429515 -0.74272817 0.69746530 0.70894682
-5.89074230 2.86317301 1.95367241 -0.68822521 0.54181999 0.80794132
-6.29462099 3.48252892 2.07329178 -0.73541105 0.65902537 0.85740989
-7.20014143 1.80320060 1.25941324 -0.84120452 0.34123334 0.52083039
-6.42038679 1.44815743 1.46019936 -0.75010449 0.27404583 0.60386550
-6.47072458 2.79145479 1.04229951 -0.75598556 0.52824819 0.43104300
-6.39242411 2.59952497 1.37948978 -0.74683756 0.49192783 0.57048810
-5.24350357 1.26869285 2.10639739 -0.61260724 0.24008438 0.87110072
-5.43202925 1.61618626 2.17346430 -0.63463300 0.30584320 0.89883626
-6.50907660 3.13926435 1.37724078 -0.76046628 0.59406680 0.56955796
-5.65476036 2.09674382 2.25909758 -0.66065508 0.39678276 0.93424994
-7.21265507 2.59961581 0.98032266 -0.84266651 0.49194503 0.40541250
-6.77066660 2.70546579 0.88863868 -0.79102826 0.51197582 0.36749658
-7.21203756 3.21903825 0.92961699 -0.84259439 0.60916305 0.38444316
-7.42037916 3.62037063 0.91978776 -0.86693525 0.68511021 0.38037828
-5.54600430 1.34726214 1.58642972 -0.64794892 0.25495264 0.65606809
-5.58831596 1.65895152 1.57472289 -0.65289229 0.31393600 0.65122670
-5.25013590 1.14088547 1.78460276 -0.61338210 0.21589842 0.73802257
-5.32699490 1.44675350 1.79626763 -0.62236166 0.27378014 0.74284655
-5.64123058 2.08214068 1.57666469 -0.65907437 0.39401928 0.65202975
-5.78822422 2.48646998 1.59512997 -0.67624789 0.47053358 0.65966606
-5.57619762 1.91643667 1.87471557 -0.65147644 0.36266187 0.77528870
-5.65463114 2.27245116 1.87961495 -0.66064000 0.43003318 0.77731484
-6.01000214 3.02737570 1.64014995 -0.70215857 0.57289326 0.67828411
-6.31956339 3.61072516 1.69762611 -0.73832512 0.68328494 0.70205337
-5.92417669 2.83348751 1.95890200 -0.69213146 0.53620237 0.81010401
-6.25243950 3.40782404 2.05191779 -0.73048294 0.64488840 0.84857070
-7.24389315 1.76576912 1.26525009 -0.84631610 0.33414990 0.52324426
-6.42173338 1.40614343 1.45842779 -0.75026178 0.26609519 0.60313290
-6.48449993 2.74918914 1.04169571 -0.75759494 0.52024990 0.43079332
-6.35047340 2.53588486 1.36664534 -0.74193639 0.47988474 0.56517625
-5.22964001 1.23069489 2.09753895 -0.61098754 0.23289374 0.86743736
-5.35091686 1.55516851 2.13641477 -0.62515652 0.29429635 0.88351440
-6.53044844 3.09914160 1.37762415 -0.76296318 0.58647412 0.56971651
-5.59571123 2.03522348 2.22993398 -0.65375626 0.38514078 0.92218930
-7.25312662 2.56275296 0.98407978 -0.84739488 0.48496920 0.40696624
-6.83172989 2.68035340 0.89533907 -0.79816240 0.50722361 0.37026751
-7.23757172 3.17603564 0.93042153 -0.84557754 0.60102534 0.38477588
-7.42154551 3.56331944 0.91673511 -0.86707151 0.67431396 0.37911585
-5.54124260 1.30933917 1.58260405 -0.64739263 0.24777620 0.65448600
-5.59308004 1.62217617 1.57312596 -0.65344888 0.30697671 0.65056634
-5.29931641 1.40339959 1.78367043 -0.61912799 0.26557595 0.73763698
-5.60873365 2.03037047 1.56372261 -0.65527767 0.38422242 0.64667755
-5.75563574 2.42956519 1.58160508 -0.67244053 0.45976508 0.65407288
-5.62093973 2.21780825 1.86342847 -0.65670377 0.41969270 0.77062094
-5.97840548 2.96470284 1.62614310 -0.69846708 0.56103325 0.67249155
-6.26087475 3.52489948 1.67540073 -0.73146844 0.66704351 0.69286203
-5.87596750 2.76544809 1.93682122 -0.68649906 0.52332675 0.80097252
-6.19437504 3.32557344 2.02548170 -0.72369915 0.62932348 0.83763808
-6.45907688 1.37175643 1.46507120 -0.75462472 0.25958788 0.60588026
-6.50529146 2.70992279 1.04229951 -0.76002401 0.51281929 0.43104300
-5.24625921 1.20849955 2.10196829 -0.61292922 0.22869354 0.86926907
-5.31343842 1.51698196 2.11825323 -0.62077785 0.28707001 0.87600374
-6.37769461 2.99048185 1.34158707 -0.74511671 0.56591159 0.55481339
-7.15671539 3.82380748 1.47599494 -0.83613098 0.72360814 0.61039776
-5.50305605 1.97260404 2.18867826 -0.64293122 0.37329084 0.90512800
-7.30440855 2.54210186 0.99014890 -0.85338622 0.48106122 0.40947613
-6.88118458 2.66252470 0.90092272 -0.80394024 0.50384974 0.37257662
-6.54787207 2.83880615 0.82663095 -0.76499879 0.53720886 0.34185326
-7.44183540 3.53001595 0.91724390 -0.86944205 0.66801172 0.37932625
-5.55673075 1.28534663 1.58533669 -0.64920211 0.24323590 0.65561604
-5.60066223 1.59580147 1.57312596 -0.65433472 0.30198562 0.65056634
-5.22151279 1.07484293 1.77048564 -0.61003804 0.20340069 0.73218441
-5.30770636 1.37889576 1.78430021 -0.62010819 0.26093891 0.73789746
-5.59091282 1.99427569 1.55595744 -0.65319568 0.37739193 0.64346629
-5.59403658 2.17663980 1.85083902 -0.65356064 0.41190207 0.76541460
-5.95740175 2.91952300 1.61648321 -0.69601315 0.55248350 0.66849673
-6.20273829 3.45349765 1.65502751 -0.72467625 0.65353155 0.68443668
-5.81941891 2.70567489 1.91357827 -0.67989242 0.51201540 0.79136038
-6.13888693 3.25834632 2.00185800 -0.71721637 0.61660159 0.82786846
-6.47120190 1.34247446 1.46639991 -0.75604129 0.25404665 0.60642976
-6.54538584 2.69059157 1.04682851 -0.76470834 0.50916106 0.43291599
-6.31985712 2.08310127 1.38892245 -0.73835945 0.39420107 0.57438892
-5.22833252 1.16992664 2.09163356 -0.61083478 0.22139411 0.86499518
-5.29955435 1.47697735 2.10880947 -0.61915576 0.27949965 0.87209827
-6.35352278 2.93074274 1.33238602 -0.74229264 0.55460668 0.55100828
-6.26135159 3.29206800 1.28241837 -0.73152411 0.62298304 0.53034419
-5.40410376 1.89933598 2.14386606 -0.63137043 0.35942575 0.88659590
-7.28836536 2.48538256 0.98523581 -0.85151190 0.47032782 0.40744433
-6.89777803 2.61923671 0.90092272 -0.80587888 0.49565804 0.37257662
-6.63860035 2.82847762 0.83735865 -0.77559876 0.53525430 0.34628972
-7.46566391 3.48403168 0.91749829 -0.87222594 0.65930974 0.37943146
-5.56845427 1.25123763 1.58642972 -0.65057176 0.23678119 0.65606809
-5.61800051 1.56267262 1.57525516 -0.65636033 0.29571640 0.65144682
-5.33599234 1.06307793 1.80770361 -0.62341285 0.20117430 0.74757594
-5.29420376 1.33984864 1.77674198 -0.61853063 0.25354972 0.73477173
-5.55768871 1.94332445 1.54301536 -0.64931405 0.36775005 0.63811409
-5.71220684 2.33730578 1.56206918 -0.66736662 0.44230613 0.64599377
-5.34939003 1.73672521 1.78658152 -0.62497813 0.32865369 0.73884088
-5.55775738 2.12222004 1.83405304 -0.64932203 0.40160382 0.75847274
-5.93886375 2.86444139 1.60634029 -0.69384736 0.54206002 0.66430211
-6.19536066 3.39846563 1.64715600 -0.72381431 0.64311743 0.68118143
-5.84676123 2.67379951 1.91706467 -0.68308687 0.50598335 0.79280221
-6.12187576 3.20004010 1.98948348 -0.71522892 0.60556787 0.82275099
-7.05228329 1.96806359 1.20356023 -0.82393003 0.37243161 0.49773240
-6.48333597 1.30254507 1.46728563 -0.75745893 0.24649049 0.60679603
-6.56399298 2.65015817 1.04713047 -0.76688224 0.50150955 0.43304086
-5.22649050 1.13511527 2.08794260 -0.61061960 0.21480648 0.86346877
-5.29435968 1.43968534 2.10299778 -0.61854887 0.27244258 0.86969483
-6.42371893 2.91413236 1.34350383 -0.75049376 0.55146337 0.55560607
-6.24529982 3.23357105 1.27473378 -0.72964877 0.61191320 0.52716625
-5.53448725 1.90570641 2.19152355 -0.64660335 0.36063129 0.90630466
-7.29444408 2.43642974 0.98379076 -0.85222203 0.46106410 0.40684670
-6.96044636 2.59325767 0.90790230 -0.81320053 0.49074185 0.37546304
-6.67637491 2.79507303 0.84030879 -0.78001201 0.52893287 0.34750974
-7.49280930 3.43955112 0.91826147 -0.87539738 0.65089238 0.37974706
-5.58561182 1.21824193 1.58916235 -0.65257633 0.23053718 0.65719819
-5.62399054 1.52632022 1.57419062 -0.65706021 0.28883716 0.65100658
-5.60089397 1.91890383 1.55181599 -0.65436178 0.36312875 0.64175355
-5.70166063 2.29117846 1.55505633 -0.66613454 0.43357709 0.64309365
-5.28213406 1.67858779 1.76007974 -0.61712050 0.31765190 0.72788107
-5.52101755 2.06834292 1.81726706 -0.64502966 0.39140823 0.75153089
-6.15506601 3.32599449 1.63048708 -0.71910661 0.62940317 0.67428803
-5.82848978 2.62142229 1.90544319 -0.68095219 0.49607164 0.78799611
-7.15767288 1.94936144 1.21989310 -0.83624285 0.36889246 0.50448686
-6.50863314 1.26507986 1.47127163 -0.76041442 0.23940067 0.60844445
-6.43238688 1.60040629 1.43250966 -0.75150645 0.30285704 0.59241444
-6.57684326 2.60739541 1.04652655 -0.76838356 0.49341723 0.43279111
-5.22259712 1.09999704 2.08351326 -0.61016470 0.20816079 0.86163700
-5.25831699 1.39428377 2.08483624 -0.61433792 0.26385090 0.86218411
-6.26199532 3.19247079 1.27400196 -0.73159933 0.60413551 0.52686357
-5.52684593 1.86439049 2.18369913 -0.64571059 0.35281277 0.90306890
-7.25124788 2.37163401 0.97483158 -0.84717536 0.44880232 0.40314165
-6.70298004 2.75681281 0.84164977 -0.78312033 0.52169263 0.34806430
-7.53775120 3.40307426 0.92156845 -0.88064802 0.64398956 0.38111469
-5.58938885 1.18233979 1.58806932 -0.65301758 0.22374314 0.65674615
-5.63346958 1.49095368 1.57419062 -0.65816766 0.28214449 0.65100658
-5.59267092 1.87698293 1.54612148 -0.65340108 0.35519573 0.63939863
-5.69615746 2.24742603 1.54954612 -0.66549158 0.42529750 0.64081490
-5.35805893 1.66546035 1.78226733 -0.62599093 0.31516770 0.73705673
-5.51780653 2.02763391 1.81187153 -0.64465451 0.38370454 0.74929959
-6.14668989 3.27162957 1.62261558 -0.71812803 0.61911529 0.67103273
-5.80803919 2.56861258 1.89324057 -0.67856288 0.48607805 0.78294975
-5.89152050 2.98497319 1.90061295 -0.68831617 0.56486917 0.78599858
-7.21358442 1.91611385 1.22755957 -0.84277511 0.36260077 0.50765729
-6.52220678 1.22522283 1.47260034 -0.76200026 0.23185822 0.60899395
-6.60597897 2.57107735 1.04864013 -0.77178752 0.48654449 0.43366519
-5.22393751 1.06606686 2.08129883 -0.61032134 0.20173992 0.86072123
-5.26697350 1.36121750 2.08483624 -0.61534929 0.25759351 0.86218411
-5.97926140 2.62406135 1.24114323 -0.69856709 0.49657106 0.51327485
-6.23630714 3.12999773 1.26448786 -0.72859818 0.59231323 0.52292901
-5.47803545 1.80990291 2.15951490 -0.64000803 0.34250167 0.89306748
-5.70350075 2.22568345 2.23782372 -0.66634947 0.42118299 0.92545211
-6.76800251 2.73380899 0.84862274 -0.79071701 0.51733941 0.35094798
-7.59158468 3.37021446 0.92614746 -0.88693750 0.63777125 0.38300833
-5.59482098 1.14681792 1.58752275 -0.65365225 0.21702106 0.65652013
-5.63526630 1.45357621 1.57206142 -0.65837753 0.27507126 0.65012610
-5.42784166 0.97510844 1.83272946 -0.63414377 0.18452717 0.75792533
-5.34068203 1.24507713 1.78430021 -0.62396079 0.23561540 0.73789746
-5.56577015 1.82927334 1.53525019 -0.65025818 0.34616730 0.63490278
-5.67229843 2.19678044 1.53902686 -0.66270405 0.41571343 0.63646466
-5.33379126 1.62137413 1.77055717 -0.62315571 0.30682492 0.73221397
-5.47844648 1.97398591 1.79448617 -0.64005601 0.37355235 0.74210984
-6.12066841 3.20841789 1.61011386 -0.71508789 0.60715330 0.66586268
-5.80121613 2.52222300 1.88568664 -0.67776573 0.47729939 0.77982581
-5.86042881 2.92290068 1.88430130 -0.68468368 0.55312270 0.77925289
-7.08621740 1.83428991 1.20322692 -0.82789457 0.34711662 0.49759457
-6.53553677 1.18524516 1.47392893 -0.76355767 0.22429293 0.60954338
-6.37411547 1.50085843 1.41479206 -0.74469852 0.28401884 0.58508730
-6.62569284 2.53094196 1.04924393 -0.77409071 0.47894937 0.43391487
-5.21775866 1.03075027 2.07613134 -0.60959941 0.19505671 0.85858423
-5.24292660 1.31978726 2.07175994 -0.61253983 0.24975337 0.85677642
-6.01006889 2.59261608 1.24421024 -0.70216638 0.49062043 0.51454324
-5.51600742 1.78398240 2.17018437 -0.64444435 0.33759654 0.89747983
-5.67015982 2.17154050 2.21902466 -0.66245419 0.41093710 0.91767776
-5.61702347 1.11458421 1.59189498 -0.65624619 0.21092123 0.65832824
-5.65176010 1.42004561 1.57419062 -0.66030455 0.26872602 0.65100658
-5.44880295 0.94351596 1.83786309 -0.63659275 0.17854869 0.76004839
-5.29290676 1.19870973 1.76540446 -0.61837912 0.22684094 0.73008311
-5.58820009 1.79777813 1.53835618 -0.65287870 0.34020719 0.63618726
-5.68237352 2.15970945 1.53802502 -0.66388118 0.40869823 0.63605034
-5.35117674 1.58997023 1.77302253 -0.62518692 0.30088213 0.73323357
-5.50152206 1.94337571 1.79808307 -0.64275199 0.36775973 0.74359733
-6.11308670 3.15553665 1.60270536 -0.71420211 0.59714615 0.66279888
-5.48037004 2.34317279 1.77470136 -0.64028078 0.44341639 0.73392785
-5.93888569 2.91581130 1.90398777 -0.69384992 0.55178112 0.78739423
-6.58322096 1.15108967 1.48322964 -0.76912868 0.21782944 0.61338967
-6.52608395 1.49389315 1.44720221 -0.76245326 0.28270075 0.59849054
-6.83121490 2.16643834 1.12588549 -0.79810220 0.40997157 0.46561000
-6.66180658 2.49695277 1.05256522 -0.77830994 0.47251734 0.43528840
-5.23824310 1.29234707 2.06740117 -0.61199266 0.24456064 0.85497385
-6.50148058 3.17491579 1.31242454 -0.75957882 0.60081345 0.54275322
-7.32064819 2.53362393 0.95285070 -0.85528350 0.47945690 0.39405146
-6.83830261 2.67499900 0.85452300 -0.79893029 0.50621039 0.35338804
-5.61087275 1.08594930 1.58861589 -0.65552759 0.20550244 0.65697217
-5.63781595 1.38825417 1.56833529 -0.65867543 0.26270989 0.64858514
-5.27812767 1.16916180 1.75847602 -0.61665243 0.22124936 0.72721785
-5.61689138 1.77776682 1.54405069 -0.65623075 0.33642033 0.63854223
-5.65808153 2.11988473 1.52850747 -0.66104311 0.40116188 0.63211435
-5.33849812 1.55894256 1.76624298 -0.62370563 0.29501054 0.73042989
-5.45662308 1.89842975 1.78009820 -0.63750637 0.35925427 0.73615968
-6.06040001 3.09200716 1.58464730 -0.70804662 0.58512402 0.65533096
-5.61848068 2.37045908 1.81653869 -0.65641648 0.44857997 0.75122964
-5.94566345 2.88442063 1.90173793 -0.69464177 0.54584080 0.78646380
-6.58087730 1.11877024 1.48145807 -0.76885486 0.21171339 0.61265707
-6.52733850 1.46182561 1.44590580 -0.76259983 0.27663237 0.59795439
-6.85455275 2.13830137 1.12812209 -0.80082881 0.40464699 0.46653494
-6.69758272 2.47450829 1.05649030 -0.78248972 0.46827000 0.43691161
-5.27997971 0.98264569 2.09680080 -0.61686885 0.18595350 0.86713207
-5.23358774 1.25631642 2.06231594 -0.61144876 0.23774229 0.85287088
-6.53191948 3.13914347 1.31462014 -0.76313502 0.59404397 0.54366124
-5.43880844 1.69355881 2.13177395 -0.63542503 0.32048500 0.88159519
-5.61818743 2.08080697 2.18908572 -0.65638220 0.39376691 0.90529650
-7.26708984 2.46386528 0.94252098 -0.84902620 0.46625593 0.38977960
-6.92535877 2.65878081 0.86471432 -0.80910122 0.50314128 0.35760266
-6.70705652 2.83712745 0.79488397 -0.78359658 0.53689116 0.32872429
-5.65164709 1.05691922 1.59845328 -0.66029131 0.20000885 0.66104043
-5.68014526 1.36100686 1.57791662 -0.66362083 0.25755367 0.65254748
-5.29649544 1.13841057 1.76225519 -0.61879838 0.21543008 0.72878075
-5.59469795 1.73227048 1.53473246 -0.65363789 0.32781070 0.63468868
-5.65858316 2.07957411 1.52500105 -0.66110170 0.39353359 0.63066423
-5.33536673 1.52176321 1.76192868 -0.62333977 0.28797480 0.72864568
-5.43597460 1.85291171 1.76930714 -0.63509399 0.35064057 0.73169708
-5.70918989 2.50487447 1.51698637 -0.66701418 0.47401640 0.62734979
-6.06581974 3.04683948 1.58094311 -0.70867980 0.57657659 0.65379912
-6.49539757 2.68911886 2.09952211 -0.75886810 0.50888240 0.86825746
-5.89621973 2.81455112 1.87980151 -0.68886518 0.53261888 0.77739203
-6.62436581 1.08326900 1.48987305 -0.77393568 0.20499521 0.61613709
-6.55927753 1.42583144 1.45109153 -0.76633132 0.26982090 0.60009897
-6.92266321 2.11174273 1.13738847 -0.80878627 0.39962110 0.47036704
