10.53769779 -1.02985561 2.48523664 0.95473289 -0.38577959 0.91186655
6.98364115 -2.64439583 2.44250441 0.63272947 -0.99057961 0.89618748
6.93434715 -2.57582712 2.41919947 0.62826335 -0.96489406 0.88763660
6.94326735 -2.52958798 2.41668010 0.62907153 -0.94757307 0.88671219
6.91584492 -2.48262215 2.40282321 0.62658697 -0.92997986 0.88162792
6.90089655 -2.42832398 2.39211559 0.62523264 -0.90964001 0.87769914
6.90526104 -2.38117385 2.38833642 0.62562811 -0.89197773 0.87631255
7.33265686 -2.66954398 2.11979079 0.66435087 -1.00000000 0.77777958
6.85053968 -1.91618824 2.37431574 0.62067026 -0.71779609 0.87116814
7.02646303 -2.32487679 2.42045927 0.63660920 -0.87088913 0.88809884
7.01206398 -2.27124429 2.41038156 0.63530463 -0.85079861 0.88440120
6.82029963 -1.73578358 2.34864807 0.61793041 -0.65021724 0.86175036
7.01768160 -2.31901789 2.00588012 0.63581359 -0.86869437 0.73598421
6.81819153 -1.68974400 2.34415627 0.61773944 -0.63297105 0.86010224
7.00462389 -2.26590252 1.99789572 0.63463050 -0.84879762 0.73305464
6.86184311 -1.65476882 2.35570669 0.62169433 -0.61986947 0.86434025
7.01137733 -2.21949911 1.99576652 0.63524240 -0.83141506 0.73227340
6.87025928 -1.61119509 2.35506511 0.62245685 -0.60354692 0.86410487
7.03301191 -2.04812837 2.39526486 0.63720250 -0.76722032 0.87885469
6.99758434 -2.16677141 1.98778212 0.63399273 -0.81166351 0.72934383
6.89503193 -1.57132101 2.36019850 0.62470132 -0.58861029 0.86598837
7.01655197 -1.99550891 2.38518715 0.63571125 -0.74750930 0.87515700
6.90051031 -1.53840482 2.35955691 0.62519765 -0.57628000 0.86575294
7.06058741 -1.97222149 2.39715433 0.63970089 -0.73878592 0.87954795
6.91753149 -1.67526853 1.98703122 0.62673980 -0.62754858 0.72906828
6.92300797 -1.49778414 2.36404872 0.62723601 -0.56106365 0.86740106
7.06185961 -1.92479432 2.39337516 0.63981616 -0.72101986 0.87816131
6.96165085 -1.63961458 1.99686861 0.63073707 -0.61419278 0.73267776
6.91187716 -1.45003688 2.35699010 0.62622750 -0.54317772 0.86481112
6.94178963 -1.58905816 1.98812425 0.62893766 -0.59525454 0.72946936
6.95428419 -1.41327465 2.36854053 0.63006967 -0.52940679 0.86904913
7.03244352 -1.56313241 2.01162481 0.63715100 -0.58554286 0.73809201
6.99836111 -1.37639666 2.38073254 0.63406312 -0.51559240 0.87352258
7.31310081 -1.57656217 2.09032416 0.66257906 -0.59057361 0.76696783
7.05900478 -1.34215736 2.39870000 0.63955754 -0.50276655 0.88011509
7.14903831 -1.50646067 2.04059052 0.64771473 -0.56431389 0.74871993
7.05593348 -1.30717897 2.39549136 0.63927925 -0.48966378 0.87893778
7.19985533 -1.46986377 2.05261397 0.65231884 -0.55060482 0.75313151
7.10878277 -1.27069318 2.41089201 0.64406747 -0.47599635 0.88458848
7.08053732 -1.39959013 2.01545048 0.64150840 -0.52428061 0.73949569
7.20440626 -1.24087036 2.44105148 0.65273112 -0.46482486 0.89565438
7.22721100 -1.38105345 2.05534673 0.65479726 -0.51733685 0.75413418
7.31301975 -1.21202755 2.47570276 0.66257173 -0.45402044 0.90836841
6.81523705 -1.97272551 2.26299834 0.61747175 -0.73897469 0.83032429
6.86967134 -2.38352251 2.24950552 0.62240362 -0.89285755 0.82537365
7.25088835 -1.33836854 2.05971885 0.65694249 -0.50134724 0.75573838
7.36353540 -1.17279017 2.49046159 0.66714853 -0.43932229 0.91378361
6.81650305 -1.92679179 2.25930023 0.61758649 -0.72176814 0.82896745
7.22693968 -1.28713822 2.05042791 0.65477270 -0.48215660 0.75232941
7.45880365 -1.13971150 2.52062106 0.67577994 -0.42693114 0.92484951
6.79726982 -1.87541187 2.24882293 0.61584389 -0.70252144 0.82512319
7.58219099 -1.12170160 2.56104732 0.68695909 -0.42018473 0.93968248
7.26533604 -1.21164370 2.05753279 0.65825146 -0.45387664 0.75493628
6.86166334 -1.81209314 2.26361465 0.62167805 -0.67880249 0.83055043
6.82771349 -2.18985558 2.21773219 0.61860216 -0.82031071 0.81371558
7.32411814 -1.17405164 2.07228875 0.66357726 -0.43979484 0.76035041
6.85816145 -1.76519287 2.25868392 0.62136078 -0.66123384 0.82874131
7.38651705 -1.13634324 2.08813810 0.66923070 -0.42566943 0.76616573
6.83402634 -1.71337712 2.24697399 0.61917412 -0.64182389 0.82444477
6.84922504 -2.10219026 2.21593356 0.62055111 -0.78747165 0.81305563
7.58962965 -1.11827588 2.14442992 0.68763304 -0.41890147 0.78681999
6.77621746 -1.65391099 2.22416997 0.61393654 -0.61954814 0.81607765
7.92620277 -1.11613977 2.23897839 0.71812707 -0.41810128 0.82151109
6.86427975 -1.62953579 2.25005555 0.62191510 -0.61041731 0.82557541
6.84034157 -2.00565720 2.20454311 0.61974627 -0.75131077 0.80887634
9.03508377 -1.06485462 2.03152728 0.81859356 -0.39889008 0.74539447
8.20962906 -1.10277593 2.31822419 0.74380600 -0.41309524 0.85058743
7.27529573 -1.36634111 2.00907373 0.65915382 -0.51182568 0.73715597
6.89478970 -1.59102166 2.25683498 0.62467939 -0.59599006 0.82806289
6.96644068 -1.99553418 2.24171209 0.63117105 -0.74751878 0.82251412
9.47201347 -1.05507886 2.12984896 0.85818011 -0.39522812 0.78147006
7.96481180 -1.32045412 1.75229013 0.72162515 -0.49463660 0.64293867
8.54682064 -1.10626411 2.41331935 0.77435613 -0.41440192 0.88547909
6.90035343 -1.55809951 2.25621867 0.62518346 -0.58365756 0.82783675
6.92621517 -1.94859159 2.22552562 0.62752658 -0.72993428 0.81657505
10.06182289 -1.31533718 1.73426199 0.91161782 -0.49271980 0.63632387
10.08597469 -1.07405925 2.26891637 0.91380602 -0.40233809 0.83249575
7.96130991 -1.28133047 1.75012946 0.72130787 -0.47998103 0.64214587
8.64747620 -2.12147570 1.40707088 0.78347564 -0.79469591 0.51627308
6.91186666 -1.51511478 2.25683498 0.62622654 -0.56755567 0.82806289
6.87765074 -1.88819194 2.20574212 0.62312657 -0.70730877 0.80931622
10.39338207 -1.04018521 2.33756423 0.94165760 -0.38964903 0.85768354
8.00778580 -1.23734391 1.75877213 0.72551864 -0.46350384 0.64531702
8.65294933 -2.06528449 1.40579271 0.78397155 -0.77364695 0.51580411
7.72877884 -1.13113356 2.55650902 0.70024014 -0.42371789 0.93801731
6.93614769 -1.47477961 2.26176572 0.62842649 -0.55244625 0.82987207
8.09264088 -1.19864190 1.77605760 0.73320669 -0.44900623 0.65165925
8.65613365 -2.00866675 1.40419507 0.78426003 -0.75243813 0.51521790
6.94900608 -1.43192697 2.26299834 0.62959146 -0.53639382 0.83032429
8.27009487 -1.17230320 1.81408560 0.74928427 -0.43913987 0.66561222
8.64546013 -1.94908190 1.40036070 0.78329301 -0.73011792 0.51381105
6.96533394 -1.38970482 2.26546359 0.63107079 -0.52057761 0.83122885
8.64664936 -1.36311030 1.44555378 0.78340077 -0.51061541 0.53039300
8.41851330 -1.13978148 1.84563148 0.76273125 -0.42695737 0.67718685
8.65753555 -1.89472270 1.40036070 0.78438705 -0.70975518 0.51381105
6.98888159 -1.34875476 2.27039409 0.63320422 -0.50523788 0.83303791
10.14226055 -1.53717780 1.69988024 0.91890562 -0.57582039 0.62370878
8.60943890 -1.11103845 1.88668442 0.78002942 -0.41619036 0.69224972
8.66540527 -1.83947778 1.39972174 0.78510004 -0.68906069 0.51357663
7.14565659 -1.91394436 1.87915206 0.64740831 -0.71695554 0.68948597
7.02322292 -1.32100141 2.27963901 0.63631564 -0.49484161 0.83643001
6.86608076 -1.66618180 2.18475986 0.62207830 -0.62414473 0.80161756
10.17669964 -1.49342918 1.70454681 0.92202586 -0.55943233 0.62542099
8.88386059 -1.10455739 1.94675124 0.80489248 -0.41376257 0.71428901
8.66043854 -1.79584777 1.39748502 0.78465009 -0.67271703 0.51275593
7.09763432 -1.85319018 1.86312258 0.64305741 -0.69419730 0.68360454
7.07446384 -1.28454363 2.29381442 0.64095813 -0.48118466 0.84163117
6.85600090 -1.61812818 2.17816520 0.62116504 -0.60614407 0.79919791
10.22297668 -1.43473864 1.71087992 0.92621863 -0.53744709 0.62774467
9.19889259 -1.08578980 2.01546097 0.83343488 -0.40673232 0.73949957
8.69866276 -1.74677718 1.40195835 0.78811324 -0.65433544 0.51439726
7.14122438 -1.41724360 1.91626406 0.64700675 -0.53089350 0.70310289
7.16164255 -1.82207036 1.87714839 0.64885670 -0.68253994 0.68875080
7.14989805 -1.25169086 2.31600189 0.64779258 -0.46887815 0.84977204
6.93479681 -1.59100211 2.20034671 0.62830406 -0.59598273 0.80733657
10.25914669 -1.37419701 1.71554649 0.92949569 -0.51476842 0.62945694
9.60521698 -1.07349133 2.10448074 0.87024856 -0.40212536 0.77216208
8.72303867 -1.69469237 1.40419507 0.79032177 -0.63482469 0.51521790
7.15947962 -1.37414050 1.91885245 0.64866072 -0.51474726 0.70405257
7.17670584 -1.77797830 1.87815022 0.65022141 -0.66602325 0.68911839
7.22519588 -1.21794045 2.33818960 0.65461469 -0.45623538 0.85791302
6.95954561 -1.55076075 2.20514274 0.63054633 -0.58090848 0.80909634
10.36145115 -1.32187188 1.73154604 0.93876463 -0.49516767 0.63532740
10.02144241 -1.05717182 2.19566154 0.90795928 -0.39601213 0.80561757
8.73933887 -1.64093053 1.40515363 0.79179859 -0.61468571 0.51556963
7.18317556 -1.33190453 1.92299390 0.65080762 -0.49892586 0.70557213
7.19337845 -1.73422778 1.87965298 0.65173203 -0.64963448 0.68966979
7.29283333 -1.18209577 2.35791183 0.66074276 -0.44280812 0.86514932
6.93560410 -1.49964774 2.19435167 0.62837720 -0.56176174 0.80513692
10.52913952 -1.04490173 2.30715251 0.95395750 -0.39141580 0.84652507
8.74947643 -1.58598757 1.40515363 0.79271704 -0.59410429 0.51556963
7.26165009 -1.31088209 1.94266582 0.65791750 -0.49105096 0.71279001
7.18263865 -1.69580960 1.87464380 0.65075898 -0.63524318 0.68783188
7.36977720 -1.15875137 2.38133216 0.66771400 -0.43406340 0.87374258
6.94819117 -1.46814728 2.19615030 0.62951761 -0.54996181 0.80579686
8.75296307 -1.54406214 1.40451467 0.79303294 -0.57839924 0.51533520
7.26212645 -1.26392627 1.94059503 0.65796065 -0.47346148 0.71203023
7.16108990 -1.64319611 1.86612809 0.64880663 -0.61553437 0.68470734
7.43525934 -1.12105918 2.40043807 0.67364681 -0.41994408 0.88075280
6.94606972 -1.42213345 2.19255328 0.62932539 -0.53272521 0.80447710
6.90240526 -1.87494087 2.13671088 0.62536937 -0.70234501 0.78398776
7.16560698 -1.59689033 1.86462533 0.64921588 -0.59818846 0.68415594
7.74734449 -1.11753356 2.50028205 0.70192224 -0.41862339 0.91738689
6.95673847 -1.37883854 2.19315267 0.63029200 -0.51650715 0.80469704
6.89368534 -1.82620239 2.13031912 0.62457931 -0.68408775 0.78164256
10.05033016 -1.63997555 1.61412561 0.91057658 -0.61432797 0.59224427
7.42626619 -1.19612932 1.98097420 0.67283201 -0.44806504 0.72684592
7.19819546 -1.55681062 1.87063646 0.65216845 -0.58317477 0.68636149
6.90687799 -1.78332555 2.13090014 0.62577456 -0.66802627 0.78185570
10.05848503 -1.57649374 1.61380601 0.91131538 -0.59054798 0.59212697
8.28304195 -1.12979352 1.75367689 0.75045735 -0.42321593 0.64344746
7.46419430 -1.15408611 1.98925722 0.67626834 -0.43231583 0.72988504
7.21541071 -1.51316309 1.87264013 0.65372819 -0.56682456 0.68709666
6.88637304 -1.73204827 2.12102199 0.62391680 -0.64881802 0.77823132
8.27639675 -1.07599568 1.75074887 0.74985528 -0.40306348 0.64237314
7.55159092 -1.11884236 2.01099968 0.68418664 -0.41911367 0.73786265
7.22856855 -1.46857929 1.87364197 0.65492028 -0.55012363 0.68746424
6.87479830 -1.68334830 2.11404896 0.62286812 -0.63057524 0.77567279
8.34124088 -1.03102934 1.76329768 0.75573021 -0.38621926 0.64697748
7.92011070 -1.12165046 2.10884166 0.71757513 -0.42016557 0.77376217
7.22815895 -1.42123806 1.87113738 0.65488315 -0.53238982 0.68654531
6.87219906 -1.63705301 2.10998154 0.62263262 -0.61323321 0.77418041
8.35726929 -0.97971487 1.76538920 0.75718242 -0.36699709 0.64774489
8.12634850 -1.11130071 2.16319823 0.73626065 -0.41628858 0.79370630
7.24808025 -1.38974953 1.87464380 0.65668809 -0.52059436 0.68783188
6.64485359 -1.55055583 2.03676605 0.60203475 -0.58083171 0.74731666
6.82248116 -1.97846198 2.04685569 0.61812806 -0.74112356 0.75101870
9.69151688 -1.08660102 2.05150390 0.87806749 -0.40703619 0.75272417
8.48575974 -1.10529351 2.25845170 0.76882386 -0.41403833 0.82865608
7.25857210 -1.34453928 1.87514472 0.65763867 -0.50365877 0.68801564
6.93273878 -1.57099652 2.12334609 0.62811762 -0.58848870 0.77908403
9.99968147 -1.05694067 2.11633992 0.90598768 -0.39592555 0.77651340
8.22613430 -1.30560398 1.67210412 0.74530137 -0.48907378 0.61351734
8.86649799 -1.09737408 2.35939980 0.80331939 -0.41107175 0.86569530
7.29545307 -1.30409527 1.88265848 0.66098011 -0.48850864 0.69077253
6.89197731 -1.51644802 2.10765719 0.62442458 -0.56805509 0.77332759
6.88746929 -1.90394032 2.05923009 0.62401611 -0.71320808 0.75555903
10.48303604 -1.04049659 2.21882248 0.94978040 -0.38976568 0.81411558
9.98633766 -1.16974580 2.65965509 0.90477872 -0.43818188 0.97586298
7.34355497 -1.26524436 1.89317787 0.66533822 -0.47395524 0.69463223
7.10174942 -1.51528299 2.16983223 0.64343023 -0.56761867 0.79614043
6.95317554 -2.02747583 2.49549413 0.62996924 -0.75948393 0.91563010
10.03766251 -1.11177957 2.67156196 0.90942883 -0.41646796 0.98023176
7.39909220 -1.22712827 1.90570092 0.67036998 -0.45967710 0.69922709
7.03799915 -1.45572126 2.14717031 0.63765436 -0.54530710 0.78782547
9.01133823 -2.33785343 1.69848013 0.81644219 -0.87575012 0.62319505
6.92041779 -1.97069240 2.47899961 0.62700129 -0.73821312 0.90957808
10.06174564 -1.05046022 2.67622113 0.91161084 -0.39349800 0.98194128
7.48501873 -1.19332337 1.92623866 0.67815506 -0.44701394 0.70676267
6.97002840 -1.39628005 2.12334609 0.63149613 -0.52304065 0.77908403
6.93507814 -1.93959999 2.48097897 0.62832958 -0.72656602 0.91030431
7.56898069 -1.17037737 1.94677639 0.68576217 -0.43841848 0.71429825
6.96901417 -1.36197245 2.12102199 0.63140422 -0.51018918 0.77823132
6.91800785 -1.88795173 2.47042227 0.62678295 -0.70721883 0.90643090
7.65468216 -1.13464379 1.96731412 0.69352686 -0.42503282 0.72183383
6.99624872 -1.32165682 2.12683272 0.63387173 -0.49508712 0.78036332
6.91332531 -1.84003055 2.46448421 0.62635875 -0.68926775 0.90425217
7.84179735 -1.11255491 2.01440072 0.71047980 -0.41675842 0.73911053
7.04397106 -1.28477108 2.13903522 0.63819546 -0.48126987 0.78484058
6.91379309 -1.79368079 2.46052551 0.62640113 -0.67190534 0.90279967
8.15743923 -1.10590398 2.09504890 0.73907751 -0.41426700 0.76870143
7.38698912 -1.45557046 1.83914375 0.66927344 -0.54525059 0.67480642
7.12356186 -1.25288284 2.16111612 0.64540648 -0.46932468 0.79294235
6.92649603 -1.60188961 2.04854298 0.62755203 -0.60006112 0.75163776
6.91029310 -1.74646223 2.45524716 0.62608397 -0.65421742 0.90086299
8.46177769 -1.09381199 2.17269158 0.76665109 -0.40973738 0.79718953
7.38835907 -1.40769589 1.83721173 0.66939759 -0.52731699 0.67409754
7.19358873 -1.21847296 2.18029165 0.65175104 -0.45643488 0.79997814
7.01315117 -1.57580602 2.07160449 0.63540310 -0.59029037 0.76009935
6.92113018 -1.70300949 2.45524716 0.62706584 -0.63794023 0.90086299
8.87578392 -1.09165955 2.27888680 0.80416071 -0.40893111 0.83615398
7.39514828 -1.36089993 1.83672881 0.67001265 -0.50978744 0.67392033
7.25023365 -1.18111491 2.19539952 0.65688318 -0.44244069 0.80552143
7.13910341 -1.55739617 2.10647774 0.64681458 -0.58339411 0.77289480
6.91807318 -1.66768932 2.45128846 0.62678891 -0.62470943 0.89941049
9.23454094 -1.09245026 2.37105632 0.83666468 -0.40922728 0.86997223
7.39956808 -1.32569897 1.83624578 0.67041314 -0.49660128 0.67374313
7.30677843 -1.15486217 2.21108842 0.66200620 -0.43260652 0.81127787
7.19138622 -1.53346765 2.11997700 0.65155149 -0.57443058 0.77784789
8.30331135 -1.28616202 1.60688126 0.75229377 -0.48179090 0.58958620
6.93025208 -1.62462533 2.45194840 0.62789232 -0.60857785 0.89965260
9.94147110 -1.11433959 2.55339146 0.90071374 -0.41742694 0.93687344
7.45367289 -1.28698218 1.84783769 0.67531508 -0.48209813 0.67799634
7.43314171 -1.12667549 2.24769616 0.67345494 -0.42204791 0.82470977
7.14264679 -1.47604942 2.10254025 0.64713562 -0.55292195 0.77145010
9.96802902 -1.47585309 1.93389857 0.90311992 -0.55284840 0.70957321
6.96423864 -1.58656955 2.46052551 0.63097155 -0.59432232 0.90279967
10.08688450 -1.06679416 2.58945775 0.91388845 -0.39961663 0.95010662
7.46735811 -1.24106336 1.84928668 0.67655504 -0.46489713 0.67852801
7.71289921 -1.11879778 2.33137107 0.69880146 -0.41909698 0.85541117
7.22137356 -1.44527030 2.12335181 0.65426838 -0.54139221 0.77908611
9.44248772 -1.33856857 1.82847095 0.85550505 -0.50142217 0.67089039
6.98328161 -1.54484630 2.46382451 0.63269687 -0.57869297 0.90401012
10.46132469 -1.04071796 2.68513370 0.94781333 -0.38984859 0.98521143
7.57279158 -1.20947182 1.87391937 0.68610746 -0.45306307 0.68756604
7.93784809 -1.09996939 2.39819455 0.71918219 -0.41204393 0.87992960
7.24914455 -1.40356910 2.12897658 0.65678447 -0.52577108 0.78114992
7.04450607 -1.51217997 2.48229837 0.63824391 -0.56645626 0.91078842
7.63013983 -1.16937983 1.88647723 0.69130331 -0.43804479 0.69217372
7.24273586 -1.35512853 2.12447667 0.65620387 -0.50762546 0.77949888
7.32358074 -1.52480960 2.57862711 0.66352856 -0.57118732 0.94613272
7.76796150 -1.14024413 1.91932082 0.70379019 -0.42713067 0.70422447
9.32976151 -1.15881884 1.80201817 0.84529185 -0.43408868 0.66118455
7.94817162 -1.12799895 1.96327341 0.72011751 -0.42254367 0.72035122
7.11927319 -1.25077796 2.08341622 0.64501792 -0.46853620 0.76443326
9.58254814 -1.12858689 1.85032320 0.86819476 -0.42276391 0.67890829
8.17827225 -1.10770452 2.01930070 0.74096501 -0.41494149 0.74090838
7.20075893 -1.21871829 2.10535264 0.65240067 -0.45652676 0.77248198
9.98946571 -1.11206830 1.92891479 0.90506214 -0.41657612 0.70774460
8.45270729 -1.09016609 2.08643699 0.76582927 -0.40837166 0.76554161
7.24993038 -1.18035138 2.11772704 0.65685570 -0.44215468 0.77702236
8.42889118 -1.34141672 1.55430388 0.76367152 -0.50248909 0.57029486
8.82743549 -1.08126235 2.17868900 0.79978025 -0.40503636 0.79939008
7.33681059 -1.14744937 2.14135098 0.66472721 -0.42982975 0.78569031
9.99543381 -1.53019512 1.84777927 0.90560287 -0.57320470 0.67797488
7.54234552 -1.33737397 2.64130688 0.68334901 -0.50097471 0.96913075
9.34314156 -1.08371055 2.30619955 0.84650409 -0.40595344 0.84617543
7.42925262 -1.11437130 2.16666222 0.67310262 -0.41743883 0.79497731
7.44270658 -1.27123034 2.60303926 0.67432153 -0.47619757 0.95508987
9.81675339 -1.07515740 2.42308426 0.88941413 -0.40274945 0.88906199
7.70007563 -1.10630023 2.24484563 0.69763958 -0.41441545 0.82366383
7.43192482 -1.22132969 2.59644127 0.67334467 -0.45750499 0.95266896
10.19985199 -1.05151939 2.51726818 0.92412347 -0.39389476 0.92361933
7.99008751 -1.09752810 2.32865405 0.72391516 -0.41112944 0.85441428
7.42827940 -1.18478215 2.59314251 0.67301440 -0.44381443 0.95145863
11.03732586 -1.08364892 2.72543907 1.00000000 -0.40593034 1.00000000
8.30899906 -1.10227120 2.42146182 0.75280905 -0.41290617 0.88846672
7.45423222 -1.14099276 2.59974027 0.67536581 -0.42741111 0.95387942
7.52660990 -1.10389829 2.62283278 0.68192333 -0.41351569 0.96235240
