-6.30661678 -5.37471008 1.93747461 -0.87293559 -0.82367069 0.75351793
-4.95508718 -4.89469624 2.07976556 -0.68586254 -0.75010890 0.80885732
-4.03935099 -6.10228777 1.24121583 -0.55911011 -0.93517148 0.48273063
-4.29611588 -5.83116531 1.19022727 -0.59465045 -0.89362216 0.46290028
-4.72215128 -5.66343307 1.15943599 -0.65362048 -0.86791730 0.45092502
-2.90019369 -4.45828724 2.07613134 -0.40143272 -0.68322951 0.80744392
-3.20752931 -4.41456938 2.09137440 -0.44397286 -0.67652977 0.81337225
-6.45439720 -5.77201939 1.57735741 -0.89339077 -0.88455808 0.61346197
-4.80573702 -5.87944460 0.96962947 -0.66519010 -0.90102088 0.37710592
-3.17582297 -4.87351847 1.61758161 -0.43958420 -0.74686342 0.62910587
-2.87067723 -4.64865923 1.81540394 -0.39734718 -0.71240389 0.70604247
-3.09598851 -4.48259878 1.77233291 -0.42853382 -0.68695521 0.68929142
-3.87536073 -4.66838551 1.59115982 -0.53641129 -0.71542692 0.61883003
-4.44240856 -4.81516886 1.66024971 -0.61489969 -0.73792136 0.64570028
-3.57007647 -4.50236607 1.82602620 -0.49415511 -0.68998456 0.71017367
-4.04890537 -4.60308838 1.89100540 -0.56043261 -0.70542020 0.73544520
-5.20407057 -4.99684000 1.76089859 -0.72032577 -0.76576233 0.68484437
-6.14283419 -5.30267286 1.89672816 -0.85026550 -0.81263101 0.73767090
-4.85948133 -4.86057997 2.05187392 -0.67262918 -0.74488056 0.79800981
-5.84243059 -5.25179815 2.26734471 -0.80868489 -0.80483449 0.88181019
-4.26754236 -5.86918545 1.19256055 -0.59069544 -0.89944869 0.46380773
-4.68772459 -5.69451904 1.15975547 -0.64885533 -0.87268120 0.45104927
-2.87611556 -4.48269510 2.07908416 -0.39809993 -0.68697000 0.80859232
-3.16226530 -4.41047096 2.07975101 -0.43770760 -0.67590171 0.80885172
-6.39317513 -5.79007959 1.57113659 -0.88491666 -0.88732576 0.61104262
-3.71180868 -4.51391363 2.18796706 -0.51377308 -0.69175422 0.85093880
-4.77489424 -5.91724110 0.97107446 -0.66092098 -0.90681320 0.37766790
-3.13789749 -4.88202238 1.61375594 -0.43433470 -0.74816662 0.62761801
-2.84434962 -4.67146921 1.81732893 -0.39370301 -0.71589947 0.70679116
-3.04949164 -4.47536373 1.76162529 -0.42209792 -0.68584645 0.68512702
-3.84595203 -4.69264269 1.59115982 -0.53234065 -0.71914428 0.61883003
-3.52420545 -4.50217247 1.81678128 -0.48780584 -0.68995488 0.70657814
-3.99227333 -4.59683657 1.87781644 -0.55259383 -0.70446211 0.73031580
-5.09902620 -4.95752430 1.73529994 -0.70578599 -0.75973725 0.67488861
-6.02571917 -5.26837921 1.87033546 -0.83405495 -0.80737555 0.72740632
-4.76450205 -4.82545805 2.02398252 -0.65948254 -0.73949820 0.78716236
-5.71400213 -5.20208502 2.22965908 -0.79090840 -0.79721600 0.86715358
-4.24443102 -5.91507149 1.19656038 -0.58749646 -0.90648067 0.46536335
-4.66674423 -5.74228716 1.16358984 -0.64595127 -0.88000160 0.45254052
-2.85382080 -4.51012468 2.08351326 -0.39501399 -0.69117355 0.81031489
-3.12367177 -4.41508150 2.07248640 -0.43236563 -0.67660826 0.80602634
-6.15191031 -5.64322376 1.51954055 -0.85152179 -0.86482024 0.59097600
-3.55668116 -4.37997293 2.11114597 -0.49230099 -0.67122787 0.82106173
-4.22126913 -4.66972399 2.30187941 -0.58429050 -0.71563202 0.89524132
-4.76588678 -5.98280287 0.97772163 -0.65967417 -0.91686046 0.38025311
-3.91956663 -4.53612852 2.54670405 -0.54253006 -0.69515860 0.99045795
-3.11535573 -4.91466999 1.61812806 -0.43121457 -0.75316983 0.62931842
-3.39939046 -4.80893707 1.59122396 -0.47052947 -0.73696637 0.61885494
-2.80525303 -4.67297125 1.81091201 -0.38829145 -0.71612966 0.70429546
-3.02983141 -4.50700665 1.76666415 -0.41937664 -0.69069570 0.68708670
-3.77282786 -4.66250324 1.57252324 -0.52221912 -0.71452546 0.61158192
-3.47500420 -4.49705219 1.80568755 -0.48099560 -0.68917018 0.70226359
-3.93837428 -4.59294462 1.86582649 -0.54513335 -0.70386565 0.72565269
-5.03743649 -4.95942211 1.72467399 -0.69726098 -0.76002806 0.67075598
-5.93118000 -5.25211811 1.85088837 -0.82096922 -0.80488354 0.71984297
-4.63419771 -4.75223351 1.98040187 -0.64144635 -0.72827655 0.77021307
-5.62745333 -5.18858910 2.20828509 -0.77892864 -0.79514778 0.85884088
-4.22205544 -5.96250391 1.20089364 -0.58439934 -0.91374969 0.46704862
-4.63057232 -5.77149534 1.16358984 -0.64094454 -0.88447773 0.45254052
-4.91315794 -5.51386166 1.09393001 -0.68005884 -0.84499556 0.42544860
-4.68333197 -6.08814621 1.60852814 -0.64824730 -0.93300426 0.62558484
-4.29051590 -5.02674389 1.31968248 -0.59387535 -0.77034509 0.51324767
-2.82933855 -4.53428936 2.08646607 -0.39162526 -0.69487679 0.81146330
-3.07656646 -4.40719128 2.05941010 -0.42584550 -0.67539907 0.80094075
-5.75393009 -5.34675360 1.42769229 -0.79643506 -0.81938636 0.55525458
-3.58845043 -4.47682905 2.14742255 -0.49669835 -0.68607104 0.83517033
-4.14673615 -4.64594603 2.27681422 -0.57397395 -0.71198809 0.88549304
-3.83593249 -4.49657679 2.51029730 -0.53095376 -0.68909734 0.97629869
-3.08644271 -4.93741703 1.61922109 -0.42721254 -0.75665581 0.62974352
-3.38019180 -4.84597540 1.59654689 -0.46787205 -0.74264246 0.62092513
-2.79596853 -4.72481394 1.82438755 -0.38700631 -0.72407454 0.70953637
-2.98457289 -4.50070620 1.75658643 -0.41311213 -0.68973017 0.68316734
-3.72544909 -4.66341448 1.56475806 -0.51566112 -0.71466511 0.60856187
-4.24634027 -4.78111362 1.61967504 -0.58776075 -0.73270243 0.62992007
-3.42256188 -4.48694134 1.79274476 -0.47373676 -0.68762070 0.69722992
-3.87106729 -4.57258558 1.84724200 -0.53581703 -0.70074564 0.71842486
-4.94313383 -4.92776108 1.70245624 -0.68420798 -0.75517607 0.66211516
-5.77756023 -5.18177271 1.81245697 -0.79970580 -0.79410315 0.70489633
-4.56190395 -4.73701572 1.96180737 -0.63143975 -0.72594446 0.76298136
-5.48786211 -5.12458086 2.16553712 -0.75960702 -0.78533852 0.84221542
-4.21625996 -6.03408861 1.21022677 -0.58359712 -0.92471999 0.47067845
-4.34728384 -6.51631069 1.69913745 -0.60173291 -0.99862021 0.66082442
-4.60276890 -5.81133318 1.16582656 -0.63709611 -0.89058286 0.45341042
-4.91771841 -5.58904457 1.10298800 -0.68069011 -0.85651731 0.42897141
-4.19928837 -4.98336887 1.30081713 -0.58124799 -0.76369792 0.50591063
-2.81958652 -4.56659508 2.09532452 -0.39027542 -0.69982761 0.81490850
-3.04830766 -4.41093779 2.05432487 -0.42193404 -0.67597324 0.79896301
-4.92389393 -5.12737703 1.35423839 -0.68154490 -0.78576708 0.52668709
-3.56152916 -4.48634863 2.14386606 -0.49297202 -0.68752986 0.83378714
-4.07618523 -4.61081314 2.24966002 -0.56420857 -0.70660400 0.87493229
-3.81231999 -4.51180553 2.50871444 -0.52768546 -0.69143116 0.97568309
-3.07320523 -4.96830320 1.62468636 -0.42538026 -0.76138908 0.63186908
-3.37052917 -4.88084126 1.60293436 -0.46653461 -0.74798560 0.62340933
-2.78508353 -4.75759649 1.83208787 -0.38549966 -0.72909844 0.71253115
-2.97799683 -4.53688240 1.76540446 -0.41220191 -0.69527417 0.68659681
-3.70581889 -4.68395662 1.56579340 -0.51294398 -0.71781319 0.60896456
-3.38083601 -4.47561789 1.78165102 -0.46796122 -0.68588543 0.69291538
-3.82362700 -4.56016111 1.83465254 -0.52925050 -0.69884157 0.71352857
-4.88712168 -4.91786432 1.69086444 -0.67645502 -0.75365937 0.65760690
-5.64320230 -5.10998106 1.77726686 -0.78110856 -0.78310114 0.69121027
-4.49081326 -4.70707607 1.94030762 -0.62159967 -0.72135621 0.75461972
-5.37124252 -5.06374550 2.12841415 -0.74346501 -0.77601558 0.82777762
-4.21368456 -6.09112024 1.21789324 -0.58324069 -0.93346006 0.47366008
-4.58261776 -5.84229946 1.16774368 -0.63430685 -0.89532846 0.45415601
-4.85484028 -5.57052374 1.09453392 -0.67198676 -0.85367900 0.42568347
-4.15937614 -4.98359823 1.29559898 -0.57572353 -0.76373303 0.50388122
-2.79468036 -4.59058619 2.09827733 -0.38682801 -0.70350420 0.81605691
-3.00786614 -4.41157627 2.04560733 -0.41633630 -0.67607105 0.79557264
-4.83502293 -5.09823036 1.33813667 -0.66924375 -0.78130037 0.52042484
-3.49424672 -4.45847559 2.11968184 -0.48365906 -0.68325835 0.82438147
-4.82848310 -5.85383034 0.93051606 -0.66833854 -0.89709556 0.36189404
-3.77562594 -4.52582550 2.50317430 -0.52260643 -0.69357967 0.97352844
-3.03694773 -4.97928476 1.62195373 -0.42036164 -0.76307201 0.63080627
-3.33215904 -4.89079618 1.59920835 -0.46122357 -0.74951118 0.62196022
-2.76266098 -4.78815556 1.83722138 -0.38239601 -0.73378158 0.71452767
-2.94735694 -4.55232477 1.76414466 -0.40796086 -0.69764066 0.68610686
-3.63961482 -4.65982533 1.54974520 -0.50378031 -0.71411508 0.60272312
-3.34925318 -4.49218321 1.77980196 -0.46358967 -0.68842405 0.69219625
-3.77535152 -4.56064606 1.82506049 -0.52256840 -0.69891590 0.70979810
-4.82495356 -4.91652203 1.67975557 -0.66784996 -0.75345367 0.65328646
-5.62248421 -5.15582657 1.78097117 -0.77824086 -0.79012692 0.69265097
-4.44414616 -4.71703815 1.93275368 -0.61514020 -0.72288293 0.75168186
-5.26415968 -5.02603340 2.09804058 -0.72864306 -0.77023619 0.81596482
-4.21886063 -6.18087912 1.23089290 -0.58395714 -0.94721556 0.47871587
-4.56749916 -5.89913607 1.17349529 -0.63221419 -0.90403861 0.45639291
-4.81068802 -5.59045219 1.09242034 -0.66587538 -0.85673302 0.42486146
-4.11547422 -4.99455214 1.29158509 -0.56964678 -0.76541173 0.50232011
-2.78004003 -4.63201571 2.10935020 -0.38480157 -0.70985329 0.82036334
-2.98217988 -4.43347263 2.04706025 -0.41278091 -0.67942667 0.79613769
-3.46388745 -4.47737741 2.11825919 -0.47945687 -0.68615508 0.82382822
-3.97123146 -4.60785770 2.22320223 -0.54968131 -0.70615107 0.86464238
-4.79160738 -5.88405323 0.93051606 -0.66323435 -0.90172720 0.36189404
-3.79050159 -4.60176659 2.53245807 -0.52466542 -0.70521760 0.98491740
-3.01447344 -5.01313782 1.62687242 -0.41725084 -0.76826000 0.63271928
-3.31757784 -4.93558073 1.60719275 -0.45920530 -0.75637442 0.62506551
-2.74554586 -4.82852030 1.84620500 -0.38002703 -0.73996747 0.71802157
-2.90944743 -4.55638933 1.75847602 -0.40271360 -0.69826359 0.68390220
-3.63609886 -4.71634865 1.56113422 -0.50329363 -0.72277725 0.60715252
-4.06314468 -4.73797846 1.58010232 -0.56240356 -0.72609198 0.61452955
-3.28842115 -4.46857786 1.76192868 -0.45516956 -0.68480653 0.68524498
-3.70418406 -4.53271389 1.80407810 -0.51271772 -0.69463533 0.70163769
-4.73875856 -4.88943577 1.65995276 -0.65591919 -0.74930274 0.64558476
-4.16628551 -4.47647476 1.82176840 -0.57667989 -0.68601674 0.70851773
-5.13009501 -4.96057415 2.05641770 -0.71008641 -0.76020461 0.79977697
-3.43419766 -6.01790047 1.53903377 -0.47534734 -0.92223918 0.59855723
-4.53631687 -5.93557739 1.17509294 -0.62789810 -0.90962321 0.45701429
-4.79087877 -5.63860607 1.09604359 -0.66313350 -0.86411256 0.42627060
-4.08401155 -5.02031136 1.29158509 -0.56529188 -0.76935929 0.50232011
-2.75182199 -4.65099478 2.11008835 -0.38089573 -0.71276182 0.82065040
-2.90245533 -4.37468624 2.01073718 -0.40174577 -0.67041773 0.78201097
-4.80379057 -5.19470930 1.34772098 -0.66492069 -0.79608566 0.52415234
-3.39390922 -4.44393539 2.09194088 -0.46977076 -0.68103009 0.81359255
-3.87511086 -4.55440855 2.18490815 -0.53637671 -0.69796002 0.84974915
-3.81853437 -4.69512415 2.57123899 -0.52854562 -0.71952462 1.00000000
-2.99169326 -5.04690456 1.63179123 -0.41409773 -0.77343470 0.63463229
-3.29078507 -4.96274042 1.60932183 -0.45549676 -0.76053661 0.62589353
-2.74275017 -4.89535284 1.86545575 -0.37964004 -0.75020951 0.72550851
-2.88381433 -4.57938719 1.76036561 -0.39916557 -0.70178801 0.68463707
-3.59241819 -4.72060585 1.55492210 -0.49724755 -0.72342962 0.60473651
-4.00817490 -4.73394203 1.57008398 -0.55479485 -0.72547340 0.61063325
-3.25249243 -4.47834635 1.75761449 -0.45019644 -0.68630356 0.68356717
-3.66961527 -4.54849386 1.80108058 -0.50793284 -0.69705361 0.70047188
-4.68520260 -4.89520931 1.65174186 -0.64850622 -0.75018752 0.64239144
-5.40095043 -5.07986784 1.73003805 -0.74757707 -0.77848631 0.67284220
-4.43097067 -4.82339144 1.95367241 -0.61331648 -0.73918146 0.75981748
-5.04519463 -4.94049311 2.03448129 -0.69833481 -0.75712723 0.79124552
-4.51788807 -5.98923254 1.18020535 -0.62534726 -0.91784585 0.45900258
-4.79615021 -5.71695423 1.10570538 -0.66386312 -0.87611938 0.43002823
-4.05115604 -5.04434919 1.29118371 -0.56074417 -0.77304310 0.50216401
-2.73743105 -4.69393969 2.12189937 -0.37890381 -0.71934307 0.82524395
-2.93239188 -4.47992802 2.05141902 -0.40588948 -0.68654591 0.79783291
-5.56932402 -6.10403538 1.57966173 -0.77088261 -0.93543929 0.61435819
-3.36480069 -4.46367502 2.09122944 -0.46574169 -0.68405515 0.81331587
-3.81009269 -4.53572321 2.16402054 -0.52737713 -0.69509649 0.84162557
-2.95992374 -5.06560230 1.63179123 -0.40970030 -0.77630013 0.63463229
-3.25741673 -4.98009920 1.60825729 -0.45087805 -0.76319683 0.62547952
-2.71557570 -4.91913605 1.86802244 -0.37587866 -0.75385427 0.72650671
-2.87110400 -4.62315750 1.77044332 -0.39740625 -0.70849574 0.68855649
-3.95217061 -4.72792149 1.55956459 -0.54704297 -0.72455078 0.60654205
-3.20885229 -4.47698593 1.74898589 -0.44415596 -0.68609506 0.68021131
-3.61469817 -4.53871727 1.78789163 -0.50033146 -0.69555533 0.69534248
-5.30959940 -5.05750561 1.71059084 -0.73493260 -0.77505928 0.66527879
-4.17761803 -4.60380983 1.85256541 -0.57824850 -0.70553076 0.72049522
-4.91428328 -4.87372875 1.99342084 -0.68021464 -0.74689561 0.77527636
-3.32633543 -6.00248337 1.52397549 -0.46041748 -0.91987652 0.59270084
-4.52950621 -6.08414602 1.19362557 -0.62695539 -0.93239123 0.46422195
-4.76646185 -5.75457191 1.10721505 -0.65975380 -0.88188422 0.43061537
-2.71524644 -4.72396660 2.12780499 -0.37583309 -0.72394466 0.82754076
-2.90316939 -4.49670267 2.05069256 -0.40184462 -0.68911666 0.79755032
-3.30448890 -4.44112015 2.07060170 -0.45739359 -0.68059868 0.80529338
-2.94235277 -5.10915709 1.63998902 -0.40726823 -0.78297484 0.63782054
-3.23761916 -5.01824856 1.61411250 -0.44813776 -0.76904321 0.62775671
-2.70169568 -4.96778059 1.88021457 -0.37395746 -0.76130903 0.73124844
-2.85296988 -4.65887213 1.77737176 -0.39489621 -0.71396899 0.69125110
-3.91124988 -4.73925686 1.55505633 -0.54137892 -0.72628790 0.60478872
-3.15989375 -4.46746778 1.73727584 -0.43737933 -0.68463641 0.67565709
-3.56597257 -4.53591013 1.77770019 -0.49358708 -0.69512516 0.69137883
-5.23980618 -5.05440092 1.69808912 -0.72527212 -0.77458352 0.66041666
-4.19059896 -4.67713928 1.87174082 -0.58004522 -0.71676844 0.72795290
-4.83874273 -4.85975981 1.97485924 -0.66975862 -0.74475491 0.76805747
-3.29041433 -6.02669382 1.52486134 -0.45544544 -0.92358673 0.59304535
-4.55408525 -6.19856930 1.21088016 -0.63035750 -0.94992656 0.47093257
-4.77164984 -5.83480072 1.11717880 -0.66047192 -0.89417928 0.43449044
-2.70938277 -4.76585722 2.14109254 -0.37502149 -0.73036438 0.83270848
-2.88497472 -4.51503277 2.05287194 -0.39932618 -0.69192570 0.79839796
-3.26918221 -4.43702650 2.06135464 -0.45250657 -0.67997128 0.80169702
-3.55802846 -4.33319139 2.04635286 -0.49248749 -0.66405863 0.79586256
-4.38398695 -4.68380690 2.27520609 -0.60681319 -0.71779025 0.88486761
-2.91256499 -5.11291599 1.63670993 -0.40314510 -0.78355092 0.63654524
-3.21602154 -5.03669214 1.61517715 -0.44514829 -0.77186966 0.62817079
-2.68360257 -4.99048615 1.88406467 -0.37145308 -0.76478863 0.73274583
-2.83989143 -4.68684292 1.78304052 -0.39308593 -0.71825552 0.69345576
-3.86426616 -4.72773361 1.54503787 -0.53487563 -0.72452199 0.60089236
-3.12360811 -4.46043253 1.72864735 -0.43235683 -0.68355829 0.67230129
-3.51629901 -4.51663065 1.76331222 -0.48671147 -0.69217056 0.68578309
-5.16001987 -5.02489758 1.67956805 -0.71422845 -0.77006215 0.65321350
-4.10775995 -4.62793493 1.84384930 -0.56857902 -0.70922792 0.71710539
-4.75225306 -4.81847334 1.94842303 -0.65778708 -0.73842776 0.75777596
-4.53408241 -6.23275805 1.21343637 -0.62758881 -0.95516592 0.47192672
-4.72787046 -5.83729267 1.11325371 -0.65441215 -0.89456117 0.43296391
-4.41250563 -6.33254671 1.61647570 -0.61076063 -0.97045851 0.62867576
-2.68299437 -4.78928661 2.14404535 -0.37136891 -0.73395491 0.83385688
-2.85554981 -4.53149748 2.05214548 -0.39525330 -0.69444895 0.79811543
-3.21936488 -4.42716265 2.04712868 -0.44561106 -0.67845970 0.79616427
-3.62442136 -4.47018194 2.10135722 -0.50167727 -0.68505234 0.81725472
-3.07242489 -4.43289900 2.33628774 -0.42527226 -0.67933875 0.90862334
-4.38501835 -4.74452019 2.29147267 -0.60695595 -0.72709453 0.89119399
-4.06054354 -4.56359529 2.51776981 -0.56204355 -0.69936788 0.97920489
-2.89629340 -5.15968990 1.64600074 -0.40089285 -0.79071897 0.64015859
-3.19567299 -5.07470608 1.62103236 -0.44233173 -0.77769524 0.63044792
-2.68389630 -5.06762552 1.90716553 -0.37149376 -0.77661020 0.74173015
-2.81822348 -4.71760130 1.78807938 -0.39008674 -0.72296917 0.69541550
-3.82105446 -4.73538971 1.53952777 -0.52889442 -0.72569525 0.59874940
-3.10197544 -4.48938704 1.73234522 -0.42936251 -0.68799549 0.67373949
-3.47383475 -4.52052975 1.75611818 -0.48083374 -0.69276810 0.68298519
-5.08111238 -5.01090384 1.66382504 -0.70330644 -0.76791763 0.64709079
-4.05346823 -4.62478638 1.83222771 -0.56106418 -0.70874536 0.71258551
-4.67084122 -4.79614305 1.92704916 -0.64651841 -0.73500568 0.74946326
-4.51777411 -6.29326010 1.21982694 -0.62533146 -0.96443784 0.47441211
-4.70720577 -5.88691378 1.11717880 -0.65155178 -0.90216553 0.43449044
-4.44878912 -6.47154951 1.64533818 -0.61578286 -0.99176055 0.63990092
-2.66623306 -4.83050919 2.15511823 -0.36904886 -0.74027228 0.83816332
-2.83790612 -4.56671858 2.06013656 -0.39281115 -0.69984651 0.80122328
-4.26760864 -4.89796972 1.23462594 -0.59070462 -0.75061053 0.48016772
-3.18064308 -4.43207598 2.04001546 -0.44025135 -0.67921263 0.79339784
-3.57861114 -4.47097254 2.09091330 -0.49533644 -0.68517351 0.81319290
-3.04656720 -4.45514584 2.33789873 -0.42169315 -0.68274808 0.90924990
-3.99660516 -4.54870129 2.49539590 -0.55319345 -0.69708538 0.97050327
-2.86474252 -5.17947245 1.64654732 -0.39652571 -0.79375064 0.64037114
-3.16167951 -5.09141588 1.61996770 -0.43762651 -0.78025603 0.63003391
-2.79337287 -4.74337626 1.79122877 -0.38664705 -0.72691917 0.69664031
-3.77184248 -4.73513746 1.53151298 -0.52208275 -0.72565663 0.59563231
-3.05238938 -4.47726679 1.72001886 -0.42249903 -0.68613809 0.66894555
-3.42451000 -4.51497746 1.74532723 -0.47400641 -0.69191724 0.67878842
-5.00534773 -4.99886036 1.64900815 -0.69281936 -0.76607198 0.64132822
-3.96943855 -4.58630991 1.80666041 -0.54943317 -0.70284891 0.70264196
-4.57521963 -4.75780964 1.89948797 -0.63328284 -0.72913110 0.73874426
-4.69347858 -5.94579601 1.12291551 -0.64965177 -0.91118920 0.43672156
-4.38398075 -6.46370268 1.63613570 -0.60681236 -0.99055803 0.63632190
-2.64817715 -4.87007332 2.16545296 -0.36654964 -0.74633545 0.84218270
-2.81601381 -4.59555531 2.06522179 -0.38978091 -0.70426571 0.80320102
-4.31710577 -5.01868486 1.25877845 -0.59755582 -0.76911008 0.48956105
-4.91955519 -5.15423155 1.29193246 -0.68094432 -0.78988248 0.50245523
-3.13661408 -4.42903042 2.02934599 -0.43415704 -0.67874593 0.78924829
-3.51892352 -4.45376205 2.07211447 -0.48707473 -0.68253601 0.80588168
-3.01444221 -4.46811438 2.33467698 -0.41724652 -0.68473548 0.90799689
-4.20956707 -4.67028713 2.22911716 -0.58267075 -0.71571833 0.86694282
-3.94746971 -4.54995918 2.48228002 -0.54639232 -0.69727814 0.96540231
-2.83763099 -5.20752478 1.64982641 -0.39277306 -0.79804963 0.64164644
-3.14076233 -5.12922859 1.62582302 -0.43473125 -0.78605080 0.63231111
-2.63117766 -5.12289619 1.91550756 -0.36419666 -0.78508037 0.74497455
-2.77885866 -4.78704453 1.80130649 -0.38463804 -0.73361135 0.70055974
-3.73961234 -4.75570679 1.53051114 -0.51762158 -0.72880882 0.59524268
-3.01891804 -4.48844290 1.71693718 -0.41786605 -0.68785083 0.66774702
-3.38573360 -4.52269506 1.73993170 -0.46863914 -0.69309998 0.67668998
-4.28412342 -4.81124067 1.56866670 -0.59299052 -0.73731935 0.61008203
-3.88481617 -4.54550409 1.78051209 -0.53772008 -0.69659543 0.69247240
-4.52402115 -4.76425982 1.89048851 -0.62619615 -0.73011959 0.73524415
-4.67309904 -5.99695587 1.12714255 -0.64683092 -0.91902941 0.43836552
-4.36603308 -6.52531433 1.64491987 -0.60432810 -1.00000000 0.63973820
-2.63321519 -4.91616726 2.17874050 -0.36447868 -0.75339931 0.84735042
-2.79484034 -4.62588835 2.07103348 -0.38685015 -0.70891428 0.80546129
-4.28801966 -5.04871082 1.25954521 -0.59352982 -0.77371150 0.48985925
-4.85325623 -5.14936495 1.28278422 -0.67176753 -0.78913671 0.49889731
-3.10233426 -4.43943357 2.02507806 -0.42941219 -0.68034017 0.78758842
-3.47349524 -4.45367002 2.06167054 -0.48078674 -0.68252194 0.80181986
-2.98227477 -4.48085499 2.33145523 -0.41279405 -0.68668801 0.90674388
-3.32610130 -4.46642447 2.36308765 -0.46038508 -0.68447649 0.91904628
-4.14274693 -4.65435600 2.20878386 -0.57342178 -0.71327692 0.85903484
-3.88532448 -4.53532124 2.46067762 -0.53779042 -0.69503492 0.95700073
-2.81480050 -5.24393177 1.65583825 -0.38961297 -0.80362898 0.64398456
-3.10145879 -5.13733196 1.62209690 -0.42929101 -0.78729266 0.63086200
-2.61506605 -5.17150211 1.92769957 -0.36196655 -0.79252917 0.74971622
-2.75062346 -4.80769825 1.80256617 -0.38072985 -0.73677647 0.70104963
-3.69773388 -4.76385403 1.52550197 -0.51182491 -0.73005742 0.59329450
-2.99274898 -4.51050138 1.71816981 -0.41424385 -0.69123131 0.66822642
-3.33104467 -4.50867748 1.72614324 -0.46106932 -0.69095176 0.67132741
-4.21422482 -4.79275465 1.55369389 -0.58331543 -0.73448640 0.60425884
-3.85372090 -4.56688976 1.77934992 -0.53341597 -0.69987273 0.69202042
-4.44262838 -4.73814774 1.86855209 -0.61493009 -0.72611791 0.72671270
-4.66677666 -6.06686020 1.13499284 -0.64595580 -0.92974222 0.44141865
-2.61605549 -4.95897007 2.19055152 -0.36210349 -0.75995880 0.85194397
-2.77723503 -4.66252518 2.07975101 -0.38441330 -0.71452880 0.80885172
-4.24490356 -5.06198168 1.25609481 -0.58756185 -0.77574527 0.48851734
-4.79930687 -5.15678978 1.27692938 -0.66430008 -0.79027456 0.49662027
-3.06277132 -4.44186687 2.01725388 -0.42393604 -0.68071312 0.78454548
-3.42476010 -4.44873953 2.04913783 -0.47404101 -0.68176633 0.79694569
-2.95605993 -4.50257301 2.33306623 -0.40916550 -0.69001627 0.90737045
-3.25752592 -4.43262243 2.33380389 -0.45089316 -0.67929637 0.90765733
-4.06020594 -4.61934471 2.17963934 -0.56199682 -0.70791143 0.84770000
-3.80571795 -4.49889088 2.42750216 -0.52677161 -0.68945199 0.94409823
-2.78447676 -5.26662540 1.65747774 -0.38541567 -0.80710679 0.64462221
-3.07903504 -5.17325020 1.62741983 -0.42618722 -0.79279709 0.63293213
-2.59844708 -5.22010612 1.93989170 -0.35966623 -0.79997772 0.75445795
-2.78323102 -4.93544149 1.84476686 -0.38524324 -0.75635308 0.71746224
-2.96538568 -4.53081226 1.71878612 -0.41045633 -0.69434392 0.66846609
-3.29022336 -4.51260376 1.71954882 -0.45541900 -0.69155347 0.66876274
-3.87252879 -4.64851713 1.80201185 -0.53601933 -0.71238208 0.70083404
-4.37351990 -4.72384119 1.85167789 -0.60536438 -0.72392547 0.72015005
-4.64776134 -6.12120581 1.13982379 -0.64332378 -0.93807065 0.44329751
-2.60546136 -4.99601078 2.20162439 -0.36063710 -0.76563525 0.85625041
-2.75808883 -4.68036652 2.08193040 -0.38176316 -0.71726298 0.80969930
-4.20101023 -5.05770779 1.24996078 -0.58148634 -0.77509028 0.48613170
-3.03027749 -4.43922472 2.00942945 -0.41943839 -0.68030816 0.78150243
-3.37520599 -4.42765617 2.03173137 -0.46718195 -0.67853528 0.79017603
-2.92687583 -4.50414276 2.32662296 -0.40512595 -0.69025683 0.90486455
-3.22791195 -4.43607426 2.32747245 -0.44679412 -0.67982537 0.90519494
-3.98423457 -4.57580471 2.14981699 -0.55148113 -0.70123899 0.83610159
-4.66850758 -4.82535934 2.31075430 -0.64619535 -0.73948306 0.89869291
-3.74434972 -4.46854782 2.40127063 -0.51827729 -0.68480194 0.93389630
-2.76848125 -5.29676914 1.66294301 -0.38320163 -0.81172627 0.64674777
-3.05757380 -5.19267654 1.62901676 -0.42321664 -0.79577416 0.63355321
-2.56800795 -5.22037458 1.93539989 -0.35545295 -0.80001885 0.75271100
-2.69945598 -4.84096050 1.80382597 -0.37364745 -0.74187392 0.70153958
-2.93783116 -4.53513145 1.71508825 -0.40664235 -0.69500583 0.66702795
-3.25096250 -4.50337124 1.70995677 -0.44998467 -0.69013858 0.66503221
-4.93336487 -5.16450548 1.66521418 -0.68285578 -0.79145694 0.64763105
-3.78143954 -4.58234310 1.76889062 -0.52341110 -0.70224100 0.68795264
-4.29133177 -4.67952108 1.82580423 -0.59398824 -0.71713346 0.71008736
-3.38406134 -6.03547287 1.49689782 -0.46840766 -0.92493212 0.58216983
-4.60932589 -6.13042307 1.13740838 -0.63800371 -0.93948317 0.44235811
-2.59256887 -5.04872656 2.21786475 -0.35885260 -0.77371395 0.86256653
-2.73993039 -4.71689701 2.09064794 -0.37924975 -0.72286129 0.81308967
-4.17410898 -5.09009027 1.25149429 -0.57776278 -0.78005290 0.48672810
-4.66530085 -5.12513971 1.25570548 -0.64575154 -0.78542417 0.48836592
-2.99609590 -4.44885063 2.00516152 -0.41470712 -0.68178332 0.77984256
-3.33146191 -4.42785931 2.02198386 -0.46112707 -0.67856646 0.78638506
-2.90833783 -4.53789377 2.33467698 -0.40256000 -0.69542915 0.90799689
-3.18489981 -4.43543720 2.31639194 -0.44084057 -0.67972773 0.90088552
-3.94196463 -4.58500767 2.14236140 -0.54563034 -0.70264930 0.83320194
-4.59753704 -4.81240034 2.29030085 -0.63637191 -0.73749709 0.89073825
-3.71619916 -4.49198580 2.40127063 -0.51438081 -0.68839377 0.93389630
-2.73951936 -5.32262707 1.66567564 -0.37919286 -0.81568897 0.64781052
-3.03170061 -5.22343397 1.63274276 -0.41963536 -0.80048770 0.63500232
-2.70947289 -4.93087912 1.83153975 -0.37503394 -0.75565386 0.71231800
-2.90826011 -4.55189323 1.71447194 -0.40254924 -0.69757456 0.66678822
-3.21370101 -4.51130915 1.70516086 -0.44482711 -0.69135505 0.66316700
-3.74294400 -4.59410954 1.76424205 -0.51808274 -0.70404416 0.68614471
-4.22693872 -4.66809177 1.81061745 -0.58507526 -0.71538192 0.70418090
-2.57162142 -5.08652020 2.22746134 -0.35595313 -0.77950579 0.86629885
-2.71862602 -4.74854231 2.09718609 -0.37630090 -0.72771090 0.81563252
-4.12235832 -5.09174538 1.24536037 -0.57059968 -0.78030652 0.48434252
-4.62905073 -5.14997578 1.25460768 -0.64073390 -0.78923029 0.48793897
-2.96294165 -4.45978308 2.00160503 -0.41011804 -0.68345875 0.77845937
-3.28447890 -4.42318439 2.01014757 -0.45462388 -0.67785001 0.78178167
-2.87976813 -4.55607748 2.33467698 -0.39860550 -0.69821578 0.90799689
-3.13882136 -4.42995119 2.30293751 -0.43446258 -0.67888701 0.89565283
-4.51521730 -4.78641748 2.26390958 -0.62497759 -0.73351526 0.88047421
-3.68092871 -4.50664759 2.39664149 -0.50949883 -0.69064069 0.93209594
-2.71725225 -5.36208248 1.67278039 -0.37611073 -0.82173550 0.65057367
-3.00556135 -5.25407076 1.63646877 -0.41601729 -0.80518275 0.63645142
-2.55234671 -5.35843515 1.97518468 -0.35328519 -0.82117653 0.76818401
-2.69026399 -4.96946478 1.83972800 -0.37237513 -0.76156712 0.71550250
-2.89270949 -4.59105301 1.72248411 -0.40039679 -0.70357579 0.66990429
-3.17977738 -4.52362728 1.70216334 -0.44013155 -0.69324279 0.66200119
-3.98586345 -4.75351477 1.50925839 -0.55170661 -0.72847289 0.58697706
-3.66862130 -4.56071424 1.74216115 -0.50779527 -0.69892639 0.67755705
-4.16671133 -4.66031933 1.79711819 -0.57673883 -0.71419078 0.69893080
-4.61634111 -6.30247974 1.15914750 -0.63897473 -0.96585077 0.45081282
-2.56181288 -5.14758682 2.24739242 -0.35459545 -0.78886420 0.87405038
-2.70164013 -4.78820276 2.10735655 -0.37394977 -0.73378885 0.81958795
-4.09760904 -5.12676907 1.24766064 -0.56717396 -0.78567386 0.48523712
-4.55076838 -5.12762403 1.24180019 -0.62989837 -0.78580493 0.48295790
-2.93588042 -4.47987890 2.00231624 -0.40637234 -0.68653840 0.77873594
-3.23545957 -4.41507864 1.99691856 -0.44783884 -0.67660779 0.77663672
-2.86167216 -4.59121084 2.34353662 -0.39610073 -0.70359993 0.91144252
-3.08870578 -4.41805649 2.28631687 -0.42752579 -0.67706418 0.88918877
-3.80338168 -4.53728676 2.09695029 -0.52644825 -0.69533610 0.81554079
-4.46568680 -4.79402971 2.25401258 -0.61812174 -0.73468179 0.87662506
-3.66637874 -4.54697180 2.40589976 -0.50748485 -0.69682032 0.93569666
-4.12031269 -4.59486103 2.48075151 -0.57031649 -0.70415932 0.96480781
-2.69886208 -5.41008949 1.68261778 -0.37356526 -0.82909256 0.65439963
-2.97915673 -5.28458452 1.64019489 -0.41236246 -0.80985898 0.63790059
-2.53219366 -5.40357208 1.98609340 -0.35049570 -0.82809377 0.77242661
-2.67247534 -5.01134586 1.84917581 -0.36991289 -0.76798534 0.71917695
-3.74078441 -5.12642717 1.60715210 -0.51778382 -0.78562146 0.62504965
-2.87378693 -4.62533617 1.72864735 -0.39777762 -0.70882964 0.67230129
-3.13817382 -4.52475119 1.69496930 -0.43437293 -0.69341505 0.65920335
-3.92509937 -4.74098921 1.49718356 -0.54329592 -0.72655338 0.58228099
-3.63989329 -4.58367443 1.74216115 -0.50381887 -0.70244503 0.67755705
-4.09782553 -4.64193296 1.77968156 -0.56720394 -0.71137309 0.69214940
-2.54159617 -5.18866348 2.25846529 -0.35179716 -0.79515916 0.87835681
-2.67697072 -4.81483459 2.11171508 -0.37053514 -0.73787016 0.82128310
-4.05562735 -5.14005566 1.24459362 -0.56136304 -0.78771007 0.48404431
-4.47425175 -5.10596848 1.22935855 -0.61930728 -0.78248620 0.47811913
-2.90767479 -4.49823713 2.00231624 -0.40246823 -0.68935180 0.77873594
-3.18998551 -4.41107845 1.98577845 -0.44154450 -0.67599481 0.77230412
-2.83753181 -4.61691666 2.34756351 -0.39275932 -0.70753932 0.91300869
-3.05983686 -4.43586826 2.28552556 -0.42352986 -0.67979383 0.88888103
-3.73417807 -4.51166821 2.07390594 -0.51686937 -0.69141012 0.80657846
-4.35339689 -4.73331547 2.21178651 -0.60257906 -0.72537738 0.86020261
-3.55879116 -4.47003031 2.35266495 -0.49259305 -0.68502909 0.91499269
-4.05562639 -4.58056784 2.45884895 -0.56136292 -0.70196891 0.95628953
-2.66650081 -5.43039942 1.68371093 -0.36908594 -0.83220506 0.65482473
-2.95437050 -5.31833839 1.64498556 -0.40893164 -0.81503177 0.63976377
-2.51314783 -5.45211220 1.99828553 -0.34785944 -0.83553249 0.77716833
-2.65248847 -5.04984379 1.85736406 -0.36714640 -0.77388513 0.72236151
-3.69486237 -5.13101864 1.60114098 -0.51142746 -0.78632516 0.62271184
-2.85257173 -4.65631008 1.73357785 -0.39484110 -0.71357638 0.67421889
-3.10643220 -4.53966761 1.69317079 -0.42997941 -0.69570100 0.65850383
-3.89523363 -4.76555729 1.49718356 -0.53916204 -0.73031843 0.58228099
-3.59809184 -4.58984184 1.73576939 -0.49803287 -0.70339018 0.67507118
-4.04959106 -4.64594889 1.77124441 -0.56052750 -0.71198851 0.68886805
-4.40873289 -6.46310902 1.56854510 -0.61023843 -0.99046707 0.61003476
-2.53698921 -5.26323271 2.28430223 -0.35115948 -0.80658686 0.88840526
-2.65928316 -4.85439253 2.12188554 -0.36808690 -0.74393237 0.82523853
-4.02805710 -5.17164564 1.24612713 -0.55754685 -0.79255122 0.48464072
-4.42271709 -5.11173439 1.22386968 -0.61217409 -0.78336984 0.47598442
-2.88634634 -4.52747726 2.00729537 -0.39951605 -0.69383281 0.78067243
-3.14469004 -4.40668154 1.97463834 -0.43527490 -0.67532098 0.76797152
-2.81978130 -4.65348434 2.35722852 -0.39030239 -0.71314335 0.91676754
-3.00904465 -4.42168617 2.26811361 -0.41649944 -0.67762041 0.88210922
-3.56111908 -4.35677624 1.99121690 -0.49291527 -0.66767299 0.77441925
-3.50225925 -4.45593214 2.33337688 -0.48476812 -0.68286860 0.90749127
-4.02431870 -4.60317945 2.45733857 -0.55702943 -0.70543414 0.95570213
-2.64812231 -5.48001146 1.69409478 -0.36654207 -0.83980805 0.65886319
-2.93207097 -5.35705233 1.65137303 -0.40584505 -0.82096463 0.64224797
-2.50911760 -5.53518248 2.02331138 -0.34730160 -0.84826297 0.78690135
-2.64178252 -5.10680008 1.87248075 -0.36566454 -0.78261364 0.72824067
-3.62875128 -5.10689116 1.58611333 -0.50227666 -0.78262758 0.61686730
-2.83303571 -4.69046450 1.73974109 -0.39213699 -0.71881050 0.67661583
-3.06603980 -4.54174423 1.68657637 -0.42438847 -0.69601923 0.65593916
-3.84336567 -4.76267862 1.48848963 -0.53198266 -0.72987729 0.57889974
-3.55052781 -4.58807707 1.72647214 -0.49144927 -0.70311970 0.67145532
-3.97507596 -4.61908102 1.75099540 -0.55021346 -0.70787102 0.68099284
-3.78049207 -6.29017591 1.53532624 -0.52327996 -0.96396518 0.59711534
-4.37462616 -6.50041819 1.57095349 -0.60551751 -0.99618471 0.61097139
-2.55500007 -5.36590195 2.32416463 -0.35365248 -0.82232082 0.90390843
-2.64710069 -4.88649225 2.13060308 -0.36640066 -0.74885160 0.82862896
-4.00602961 -5.19368601 1.24689388 -0.55449796 -0.79592884 0.48493892
-4.38959169 -5.12209511 1.22130811 -0.60758901 -0.78495759 0.47498816
-2.86795330 -4.54578257 2.00942945 -0.39697015 -0.69663811 0.78150243
-3.12062621 -4.41687012 1.97254956 -0.43194407 -0.67688233 0.76715916
-2.99643040 -4.44797230 2.27444530 -0.41475341 -0.68164873 0.88457173
-3.60891080 -4.45858145 2.03052807 -0.49953040 -0.68327457 0.78970802
-4.17563820 -4.64233446 2.14646769 -0.57797444 -0.71143460 0.83479899
-3.47332525 -4.46216583 2.32797623 -0.48076320 -0.68382388 0.90539086
-3.94903564 -4.56067228 2.42410731 -0.54660904 -0.69891995 0.94277793
-2.62885380 -5.50634098 1.69846702 -0.36387500 -0.84384304 0.66056365
-2.91602659 -5.38773394 1.65669596 -0.40362427 -0.82566655 0.64431816
-2.49529624 -5.57464933 2.03357840 -0.34538850 -0.85431123 0.79089433
-2.63248134 -5.14787149 1.88318837 -0.36437711 -0.78890783 0.73240501
-3.66172504 -5.20451498 1.61166036 -0.50684071 -0.79758841 0.62680304
-2.80605125 -4.69557810 1.73665953 -0.38840193 -0.71959418 0.67541736
-3.04033923 -4.54981232 1.68417835 -0.42083108 -0.69725567 0.65500653
-3.80881310 -4.76553583 1.48365963 -0.52720004 -0.73031515 0.57702130
-4.27949381 -4.81992435 1.49945009 -0.59234971 -0.73865014 0.58316249
-3.51843905 -4.59105015 1.72124243 -0.48700768 -0.70357531 0.66942143
-3.93201613 -4.61300182 1.74143338 -0.54425329 -0.70693940 0.67727405
-3.72394586 -6.26245880 1.52403224 -0.51545310 -0.95971757 0.59272289
-2.54236984 -5.42736912 2.34409595 -0.35190424 -0.83174062 0.91166008
-2.63666105 -4.94076538 2.14731169 -0.36495563 -0.75716895 0.83512723
-3.98752856 -5.23753929 1.25149429 -0.55193710 -0.80264932 0.48672810
-4.34585094 -5.13609982 1.21801472 -0.60153461 -0.78710383 0.47370732
-2.85307503 -4.58598471 2.01938772 -0.39491075 -0.70279902 0.78537536
-3.08418870 -4.42411852 1.96697950 -0.42690054 -0.67799318 0.76499289
-2.96535683 -4.46213388 2.27207088 -0.41045234 -0.68381900 0.88364828
-3.57614803 -4.47527218 2.02781701 -0.49499550 -0.68583244 0.78865367
-4.10863638 -4.62625217 2.12667418 -0.56870031 -0.70897001 0.82710093
-3.42843604 -4.46189308 2.31640339 -0.47454983 -0.68378210 0.90088993
-3.88164091 -4.54048109 2.39993906 -0.53728056 -0.69582564 0.93337846
-2.60476279 -5.54542255 1.70557177 -0.36054042 -0.84983224 0.66332680
-2.88576770 -5.41274214 1.65882516 -0.39943594 -0.82949907 0.64514625
-2.48596716 -5.64925241 2.05539584 -0.34409723 -0.86574411 0.79937953
-2.61383772 -5.19138956 1.89326608 -0.36179653 -0.79557693 0.73632443
-3.64891887 -5.25598574 1.62067688 -0.50506812 -0.80547625 0.63030970
-2.78992772 -4.73611736 1.74528801 -0.38617018 -0.72580677 0.67877316
-3.01380420 -4.57200336 1.68537736 -0.41715822 -0.70065641 0.65547287
-3.77400708 -4.78326273 1.48172772 -0.52238232 -0.73303175 0.57626992
-4.24011421 -4.83650541 1.49620891 -0.58689892 -0.74119115 0.58190191
-3.47918105 -4.59929371 1.71601284 -0.48157376 -0.70483863 0.66738755
-3.88806534 -4.62004423 1.73468375 -0.53816980 -0.70801866 0.67464900
-2.53138375 -5.49396038 2.36624169 -0.35038358 -0.84194571 0.92027295
-2.61516786 -4.97534370 2.15530276 -0.36198065 -0.76246804 0.83823508
-3.95336723 -5.26091719 1.25111091 -0.54720861 -0.80623198 0.48657900
-4.31475973 -5.16480923 1.21838069 -0.59723109 -0.79150349 0.47384965
-2.82711840 -4.60861158 2.02152157 -0.39131796 -0.70626658 0.78620523
-3.04244208 -4.42337990 1.95792818 -0.42112216 -0.67787999 0.76147264
-2.93726206 -4.48067760 2.27207088 -0.40656358 -0.68666083 0.88364828
-3.50967431 -4.44876528 2.00545025 -0.48579448 -0.68177027 0.77995479
-4.09073353 -4.66471481 2.13261223 -0.56622231 -0.71486437 0.82941037
-3.37924886 -4.45533657 2.30174470 -0.46774155 -0.68277729 0.89518893
-2.57948279 -5.58266878 1.71213007 -0.35704127 -0.85554022 0.66587746
-2.86162281 -5.44950962 1.66468036 -0.39609390 -0.83513367 0.64742345
-2.46758842 -5.70480442 2.07015467 -0.34155330 -0.87425739 0.80511951
-2.59475088 -5.23487520 1.90334392 -0.35915461 -0.80224109 0.74024385
-3.62571621 -5.29315424 1.62518525 -0.50185651 -0.81117231 0.63206309
-2.77150655 -4.77334070 1.75268388 -0.38362038 -0.73151124 0.68164957
-2.98606420 -4.59244490 1.68597686 -0.41331857 -0.70378906 0.65570599
-3.73437905 -4.79459953 1.47786379 -0.51689720 -0.73476911 0.57476717
-4.18408108 -4.83371067 1.48694837 -0.57914305 -0.74076289 0.57830036
-3.43426108 -4.59953833 1.70787776 -0.47535610 -0.70487612 0.66422367
-3.85403419 -4.63849401 1.73243392 -0.53345937 -0.71084607 0.67377394
-2.51889896 -5.55892992 2.38764930 -0.34865549 -0.85190225 0.92859876
-2.60369468 -5.02966690 2.17201138 -0.36039257 -0.77079302 0.84473336
-3.93187857 -5.30145502 1.25494468 -0.54423428 -0.81244439 0.48807001
-4.28347874 -5.19333076 1.21874666 -0.59290129 -0.79587442 0.47399199
-2.80675840 -4.64071131 2.02792335 -0.38849980 -0.71118587 0.78869498
-3.01247191 -4.43931389 1.95653558 -0.41697380 -0.68032187 0.76093107
-2.93312693 -4.53597069 2.29106569 -0.40599120 -0.69513446 0.89103568
-3.47014475 -4.45584202 1.99867249 -0.48032299 -0.68285477 0.77731884
-3.95589423 -4.56934929 2.07653046 -0.54755843 -0.70024967 0.80759919
-3.32918000 -4.44685793 2.28631425 -0.46081123 -0.68147796 0.88918775
-2.54435515 -5.59876585 1.71213007 -0.35217905 -0.85800707 0.66587746
-2.82732630 -5.46738195 1.66468036 -0.39134672 -0.83787256 0.64742345
-2.43684340 -5.73241615 2.07464647 -0.33729771 -0.87848890 0.80686647
-2.58024955 -5.28854370 1.91720080 -0.35714740 -0.81046575 0.74563307
-3.14097309 -5.21582651 1.59685433 -0.43476042 -0.79932189 0.62104470
-3.59456539 -5.31903219 1.62618709 -0.49754477 -0.81513810 0.63245273
-2.74803281 -4.80224419 1.75699806 -0.38037124 -0.73594069 0.68332738
-2.96129417 -4.61752558 1.68837488 -0.40989000 -0.70763266 0.65663862
-3.37026930 -4.57314253 1.68986440 -0.46649864 -0.70083100 0.65721792
-3.77959061 -4.60786629 1.71162236 -0.52315521 -0.70615238 0.66567999
-3.43575883 -6.03194046 1.45041203 -0.47556344 -0.92439079 0.56409073
-2.57971096 -5.06084061 2.17854953 -0.35707283 -0.77557039 0.84727615
-3.90080023 -5.32922983 1.25571144 -0.53993249 -0.81670088 0.48836824
-4.25948668 -5.23078823 1.22130811 -0.58958042 -0.80161476 0.47498816
-2.78039837 -4.66308212 2.03005719 -0.38485116 -0.71461415 0.78952491
-2.98556852 -4.45970821 1.95723188 -0.41324997 -0.68344724 0.76120186
-2.91947079 -4.57748365 2.30293751 -0.40410098 -0.70149624 0.89565283
-3.41582680 -4.44315147 1.98308361 -0.47280452 -0.68090993 0.77125603
-3.93203282 -4.59983873 2.07916951 -0.54425561 -0.70492214 0.80862552
-3.28808069 -4.44983149 2.27705598 -0.45512244 -0.68193364 0.88558704
-3.67840171 -4.47165775 2.32516837 -0.50914901 -0.68527853 0.90429884
-2.52626801 -5.65334082 1.72415364 -0.34967551 -0.86637068 0.67055362
-2.80700517 -5.51247978 1.67319703 -0.38853395 -0.84478378 0.65073574
-2.56600285 -5.34394360 1.93168759 -0.35517544 -0.81895572 0.75126725
-3.10911989 -5.23712301 1.59737194 -0.43035144 -0.80258554 0.62124598
-3.52762055 -5.29167557 1.61065853 -0.48827854 -0.81094569 0.62641340
-2.72801876 -4.83768368 1.76377761 -0.37760100 -0.74137175 0.68596411
-2.94248199 -4.65212822 1.69436979 -0.40728611 -0.71293551 0.65897018
-4.03106546 -4.77764893 1.45314729 -0.55796331 -0.73217148 0.56515449
-3.31906700 -4.56319427 1.67824292 -0.45941141 -0.69930643 0.65269816
-3.73358297 -4.61069918 1.70374775 -0.51678699 -0.70658654 0.66261744
-2.56553888 -5.11186075 2.19380522 -0.35511121 -0.78338921 0.85320938
-3.87868404 -5.36958122 1.25954521 -0.53687131 -0.82288468 0.48985925
-4.21169806 -5.23910332 1.21691704 -0.58296567 -0.80288905 0.47328040
-2.76422071 -4.70307016 2.04001546 -0.38261190 -0.72074234 0.79339784
-2.95956683 -4.48150015 1.95862436 -0.40965092 -0.68678689 0.76174343
-2.89261961 -4.59883881 2.30452037 -0.40038437 -0.70476896 0.89626843
-3.37991834 -4.45400429 1.97833908 -0.46783420 -0.68257314 0.76941079
-3.82480764 -4.53237438 2.03694320 -0.52941394 -0.69458330 0.79220301
-3.23842216 -4.44050598 2.26162553 -0.44824889 -0.68050456 0.87958586
-3.68423605 -4.53625154 2.34707093 -0.50995660 -0.69517750 0.91281712
-2.50375462 -5.69908857 1.73344445 -0.34655929 -0.87338144 0.67416698
-2.77753210 -5.54033136 1.67639077 -0.38445443 -0.84905201 0.65197784
-2.54707742 -5.39080429 1.94302511 -0.35255584 -0.82613713 0.75567657
-3.08779478 -5.27660179 1.60358417 -0.42739969 -0.80863565 0.62366205
-3.52530432 -5.36055326 1.62518525 -0.48795792 -0.82150114 0.63206309
-2.70766783 -4.87306070 1.77055717 -0.37478411 -0.74679327 0.68860078
-2.88475251 -4.62529945 1.67758381 -0.39929542 -0.70882398 0.65244180
-3.93470764 -4.72386694 1.42860687 -0.54462582 -0.72392941 0.55561030
-3.25924110 -4.54031515 1.66197288 -0.45113057 -0.69580024 0.64637041
-3.66963625 -4.59071159 1.68743610 -0.50793576 -0.70352346 0.65627354
-2.55893373 -5.15888786 2.20906067 -0.35419694 -0.79059607 0.85914248
-3.86243320 -5.40060043 1.26261210 -0.53462189 -0.82763833 0.49105203
-4.19925642 -5.27423763 1.22057629 -0.58124357 -0.80827332 0.47470355
-2.74576163 -4.72252178 2.04286075 -0.38005689 -0.72372329 0.79450440
-2.94047904 -4.49852800 1.96001697 -0.40700886 -0.68939638 0.76228499
-2.87579823 -4.62019730 2.30847764 -0.39805600 -0.70804209 0.89780748
-3.33639383 -4.43971491 1.96478355 -0.46180972 -0.68038332 0.76413882
-3.61860490 -4.33078814 1.93665588 -0.50087219 -0.66369033 0.75319946
-3.20241523 -4.43471813 2.25082445 -0.44326496 -0.67961752 0.87538517
-3.47513270 -4.32188988 2.22547436 -0.48101339 -0.66232669 0.86552608
-2.76173162 -5.57405424 1.68277836 -0.38226739 -0.85422003 0.65446204
-2.53054142 -5.42163801 1.94995356 -0.35026699 -0.83086234 0.75837117
-3.07251763 -5.30784512 1.60876095 -0.42528510 -0.81342369 0.62567538
-3.50318861 -5.38196421 1.62668800 -0.48489678 -0.82478237 0.63264751
-2.70105743 -4.91584110 1.78165102 -0.37386912 -0.75334930 0.69291538
-2.87905478 -4.66476107 1.68717587 -0.39850676 -0.71487147 0.65617234
-3.98574853 -4.83066368 1.45592546 -0.55169070 -0.74029595 0.56623501
-3.19920540 -4.50088644 1.64163518 -0.44282067 -0.68975782 0.63846076
-3.61924648 -4.57193708 1.67393684 -0.50096101 -0.70064628 0.65102345
-2.54952502 -5.22166872 2.22940159 -0.35289463 -0.80021721 0.86705345
-3.84758162 -5.45208454 1.26912951 -0.53256619 -0.83552825 0.49358675
-4.16603470 -5.30051804 1.22057629 -0.57664520 -0.81230080 0.47470355
-2.72157502 -4.74943209 2.04712868 -0.37670907 -0.72784728 0.79616427
-2.91930938 -4.52791786 1.96489072 -0.40407863 -0.69390035 0.76418048
-2.84961200 -4.64286041 2.31085181 -0.39443141 -0.71151519 0.89873087
-3.29281688 -4.43937445 1.95529461 -0.45577800 -0.68033111 0.76044840
-3.69509888 -4.47831821 1.99339736 -0.51146019 -0.68629920 0.77526724
-3.15211821 -4.42311192 2.23462248 -0.43630308 -0.67783892 0.86908394
-3.53119063 -4.44777012 2.27985287 -0.48877269 -0.68161774 0.88667482
-2.73005724 -5.59821701 1.68490744 -0.37788314 -0.85792297 0.65529007
-2.51318216 -5.47360086 1.96318054 -0.34786421 -0.83882564 0.76351541
-3.03530025 -5.32032061 1.60669029 -0.42013362 -0.81533551 0.62487006
-3.36943817 -5.24939489 1.57910049 -0.46638361 -0.80446619 0.61413991
-2.60803986 -4.81703520 1.73912477 -0.36099401 -0.73820740 0.67637616
-2.84968853 -4.68275881 1.68717587 -0.39444202 -0.71762961 0.65617234
-3.92200804 -4.81498909 1.44342375 -0.54286802 -0.73789382 0.56137282
-3.14790678 -4.48791170 1.62943268 -0.43572015 -0.68776941 0.63371497
-3.58570075 -4.58855438 1.67168689 -0.49631774 -0.70319283 0.65014839
-2.53292441 -5.27111959 2.24393082 -0.35059685 -0.80779552 0.87270409
-3.82441711 -5.49229431 1.27296317 -0.52935988 -0.84169036 0.49507773
-4.14474821 -5.34208775 1.22423553 -0.57369876 -0.81867135 0.47612670
-2.70628953 -4.79253531 2.05850959 -0.37459332 -0.73445278 0.80059052
-2.89788604 -4.55721951 1.96976447 -0.40111330 -0.69839078 0.76607597
-2.82995176 -4.67635202 2.31876636 -0.39171013 -0.71664780 0.90180898
-3.23942375 -4.42496109 1.93970573 -0.44838753 -0.67812228 0.75438565
-3.67527103 -4.51166391 1.99801588 -0.50871569 -0.69140941 0.77706349
-3.11159611 -4.42466974 2.22536421 -0.43069416 -0.67807764 0.86548322
-3.50202727 -4.46841574 2.27909756 -0.48473603 -0.68478167 0.88638109
-2.70574617 -5.63781929 1.69182730 -0.37451813 -0.86399198 0.65798134
-2.49605608 -5.52728605 1.97703755 -0.34549367 -0.84705287 0.76890463
-3.00934124 -5.35278368 1.61083174 -0.41654047 -0.82031047 0.62648076
-3.30620074 -5.22311592 1.56457376 -0.45763054 -0.80043900 0.60849023
-2.65329742 -4.97630882 1.79151213 -0.36725837 -0.76261598 0.69675052
-2.82811141 -4.71363115 1.69197190 -0.39145541 -0.72236079 0.65803760
-3.88678026 -4.83348799 1.44157159 -0.53799194 -0.74072874 0.56065249
-3.10773110 -4.49024773 1.62304080 -0.43015918 -0.68812740 0.63122904
-3.53678107 -4.58522844 1.66212487 -0.48954651 -0.70268315 0.64642954
-2.52222133 -5.33402061 2.26427174 -0.34911537 -0.81743503 0.88061506
-3.81417823 -5.55188274 1.28139746 -0.52794266 -0.85082227 0.49835798
-4.11830235 -5.37736893 1.22643113 -0.57003826 -0.82407814 0.47698060
-2.67792964 -4.81271791 2.05993199 -0.37066787 -0.73754579 0.80114371
-2.87220144 -4.58009100 1.97185326 -0.39755815 -0.70189583 0.76688838
-2.80808926 -4.70663118 2.32509804 -0.38868400 -0.72128803 0.90427148
-3.19730568 -4.42534637 1.93089461 -0.44255772 -0.67818135 0.75095880
-3.58862138 -4.46277761 1.96568644 -0.49672201 -0.68391764 0.76448995
-3.06490183 -4.41677427 2.21147680 -0.42423093 -0.67686766 0.86008215
-3.44200659 -4.44943237 2.25795054 -0.47642821 -0.68187249 0.87815660
-2.68767595 -5.69126081 1.70300543 -0.37201691 -0.87218189 0.66232872
-2.48378730 -5.59309626 1.99530351 -0.34379548 -0.85713822 0.77600861
-2.97937155 -5.37835789 1.61290240 -0.41239220 -0.82422972 0.62728608
-3.28980899 -5.27001190 1.57258856 -0.45536166 -0.80762577 0.61160731
-2.64218426 -5.03169870 1.80568755 -0.36572012 -0.77110440 0.70226359
-2.81505561 -4.75916481 1.70216334 -0.38964826 -0.72933877 0.66200119
-3.84054303 -4.83805513 1.43555224 -0.53159195 -0.74142867 0.55831146
-3.10843587 -4.55246496 1.63872981 -0.43025675 -0.69766217 0.63733083
-3.49271750 -4.58756161 1.65481281 -0.48344740 -0.70304072 0.64358574
-2.51399374 -5.40374136 2.28751850 -0.34797654 -0.82811970 0.88965613
-3.77483416 -5.56922531 1.27986395 -0.52249682 -0.85347998 0.49776158
-4.08800554 -5.40783358 1.22752893 -0.56584471 -0.82874686 0.47740754
-2.66548824 -4.86229658 2.07415819 -0.36894578 -0.74514365 0.80667657
-2.85527253 -4.61713791 1.98020840 -0.39521492 -0.70757324 0.77013785
-2.78970551 -4.74313927 2.33459544 -0.38613942 -0.72688287 0.90796518
-3.16400409 -4.43766737 1.92750573 -0.43794826 -0.68006951 0.74964082
-3.57465959 -4.50293207 1.97360384 -0.49478948 -0.69007128 0.76756918
-3.03087020 -4.42678547 2.20684767 -0.41952044 -0.67840189 0.85828179
-3.40269017 -4.45629311 2.25039792 -0.47098619 -0.68292391 0.87521929
-2.66985798 -5.74644232 1.71471584 -0.36955062 -0.88063842 0.66688311
-2.48303366 -5.68676281 2.02364707 -0.34369117 -0.87149256 0.78703189
-2.96299720 -5.42924833 1.62273836 -0.41012573 -0.83202863 0.63111144
-3.29234505 -5.34817362 1.59012079 -0.45571268 -0.81960398 0.61842591
-2.61832857 -5.06343937 1.81123447 -0.36241814 -0.77596867 0.70442092
-2.78896594 -4.78333759 1.70456135 -0.38603705 -0.73304325 0.66293383
-3.07870746 -4.57031441 1.63814878 -0.42614186 -0.70039761 0.63710481
-3.46150732 -4.60635567 1.65368783 -0.47912741 -0.70592088 0.64314824
-2.53232932 -5.53277826 2.33619118 -0.35051447 -0.84789455 0.90858579
-4.05748844 -5.43812943 1.22862673 -0.56162065 -0.83338964 0.47783452
-2.63753176 -4.88389206 2.07629204 -0.36507615 -0.74845314 0.80750644
-2.82915211 -4.63977814 1.98229718 -0.39159945 -0.71104288 0.77095020
-2.77468181 -4.78594303 2.34725857 -0.38405991 -0.73344254 0.91289008
-3.09944201 -4.40499878 1.90446126 -0.42901185 -0.67506307 0.74067843
-3.49131441 -4.45565176 1.94259393 -0.48325318 -0.68282562 0.75550890
-2.98656368 -4.42121410 2.19450355 -0.41338772 -0.67754805 0.85348099
-3.33766413 -4.42891407 2.22547436 -0.46198556 -0.67872810 0.86552608
-2.65468001 -5.80862617 1.72855544 -0.36744976 -0.89016801 0.67226559
-2.47214723 -5.75973463 2.04443264 -0.34218431 -0.88267541 0.79511577
-2.94791865 -5.48355341 1.63360965 -0.40803862 -0.84035087 0.63533950
-3.26776695 -5.38362169 1.59462905 -0.45231068 -0.82503641 0.62017924
-2.59074879 -5.08828402 1.81431603 -0.35860065 -0.77977610 0.70561939
-2.76842403 -4.81727505 1.71055627 -0.38319373 -0.73824412 0.66526538
-3.04993057 -4.58956814 1.63814878 -0.42215869 -0.70334822 0.63710481
-3.41871142 -4.60956383 1.64693820 -0.47320378 -0.70641255 0.64052320
