-4.44611025 -10.39019299 2.53199291 -0.93000400 -0.87094057 0.97825742
-4.34310102 -10.32796288 2.50984836 -0.90845728 -0.86572421 0.96970171
-4.27219152 -10.34061623 2.50630522 -0.89362496 -0.86678487 0.96833277
-4.58790302 -10.52912903 1.96739459 -0.95966315 -0.88258660 0.76011997
-4.20948935 -10.32629299 2.49789047 -0.88050944 -0.86558425 0.96508163
-4.55950832 -10.64656258 1.98421860 -0.95372379 -0.89243031 0.76662010
-4.16761494 -10.41052055 2.51206279 -0.87175041 -0.87264448 0.97055727
-4.48948002 -10.66773129 1.98284519 -0.93907577 -0.89420474 0.76608944
-4.38937998 -10.61555481 1.96773791 -0.91813761 -0.88983113 0.76025259
-4.34031105 -10.68676758 1.97597826 -0.90787375 -0.89580041 0.76343632
-4.78074312 -10.37507057 1.89687490 -1.00000000 -0.86967295 0.73287410
-4.50855494 -10.37168121 2.46833920 -0.94306570 -0.86938882 0.95366424
-4.70238543 -10.37618828 1.89154172 -0.98360974 -0.86976659 0.73081356
-4.41941500 -10.34417915 2.45494294 -0.92442012 -0.86708349 0.94848853
-4.36985826 -10.36309242 2.45451093 -0.91405421 -0.86866885 0.94832158
-4.29414988 -10.36510658 2.44846106 -0.89821810 -0.86883771 0.94598418
-4.47523928 -10.34737206 1.87154233 -0.93609703 -0.86735117 0.72308660
-4.22080708 -10.37200165 2.44370747 -0.88287675 -0.86941570 0.94414759
-4.39851618 -10.34808445 1.86654246 -0.92004865 -0.86741084 0.72115487
-4.13517189 -10.34758091 2.43160772 -0.86496425 -0.86736864 0.93947273
-4.32043505 -10.34460545 1.86087596 -0.90371621 -0.86711925 0.71896559
-4.08082342 -10.40060616 2.43808961 -0.85359603 -0.87181342 0.94197708
-4.27936745 -10.58457470 1.25453591 -0.89512599 -0.88723427 0.48470083
-4.21699476 -10.57325268 1.25041687 -0.88207936 -0.88628519 0.48310941
-4.18784952 -10.34581947 1.85254276 -0.87598294 -0.86722100 0.71574599
-4.15552235 -10.61248970 1.25211298 -0.86922103 -0.88957417 0.48376471
-4.11617661 -10.35544682 1.84954286 -0.86099094 -0.86802799 0.71458691
-4.59547281 -10.39955521 2.39743495 -0.96124655 -0.87172532 0.92626977
-4.43329430 -11.53961849 1.36986935 -0.92732328 -0.96728921 0.52926093
-4.04382849 -10.36274719 1.84620965 -0.84585774 -0.86863995 0.71329910
-4.76259899 -10.38076019 1.81447017 -0.99620473 -0.87014985 0.70103627
-4.43691683 -10.21279812 2.34723949 -0.92808098 -0.85607070 0.90687633
-4.41787624 -11.71966743 1.38973761 -0.92409825 -0.98238152 0.53693718
-4.71731949 -10.55102253 1.54850948 -0.98673350 -0.88442183 0.59828007
-3.97580314 -10.38058949 1.84487629 -0.83162868 -0.87013555 0.71278393
-4.67463541 -10.36005020 1.80552340 -0.97780520 -0.86841387 0.69757962
-4.43231010 -10.38087940 2.37986660 -0.92711741 -0.87015986 0.91948211
-3.91910601 -10.59204578 1.23951352 -0.81976920 -0.88786054 0.47889680
-3.89516521 -10.36478233 1.83754325 -0.81476146 -0.86881053 0.70995080
-4.59190559 -10.34948254 1.79849374 -0.96050036 -0.86752808 0.69486368
-4.35042286 -10.36881638 2.37066412 -0.90998882 -0.86914867 0.91592664
-4.25139046 -11.72196960 1.38295329 -0.88927400 -0.98257446 0.53431600
-3.81899667 -10.35946655 1.83221006 -0.79882908 -0.86836493 0.70789027
-4.51106548 -10.34190941 1.79210317 -0.94359088 -0.86689323 0.69239461
-4.26663685 -10.35070801 2.36020660 -0.89246309 -0.86763078 0.91188627
-3.76607585 -10.36623478 1.83021009 -0.78775948 -0.86893231 0.70711756
-4.45761538 -10.35216331 1.79018605 -0.93241054 -0.86775279 0.69165391
-3.68623567 -10.34885025 1.82287693 -0.77105916 -0.86747503 0.70428431
-4.38328981 -10.35813141 1.78635168 -0.91686368 -0.86825305 0.69017249
-4.08180189 -10.21887302 2.31921363 -0.85380071 -0.85657996 0.89604831
-3.62375355 -10.37924957 1.82421029 -0.75798959 -0.87002325 0.70479947
-4.30227327 -10.34715652 1.77964151 -0.89991724 -0.86733305 0.68757993
-4.72560549 -10.39520931 2.30509830 -0.98846674 -0.87136102 0.89059472
-4.25704336 -10.52542496 1.51874185 -0.89045644 -0.88227612 0.58677912
-3.55204988 -10.38316631 1.82087696 -0.74299115 -0.87035155 0.70351160
-4.23197317 -10.36118031 1.77740490 -0.88521242 -0.86850858 0.68671578
-4.02508831 -10.45748901 2.36229801 -0.84193778 -0.87658149 0.91269433
-4.18428230 -10.53540039 1.51614070 -0.87523681 -0.88311231 0.58577412
-3.47098994 -10.35856247 1.81254387 -0.72603565 -0.86828917 0.70029205
-3.23820281 -10.40904713 2.37802291 -0.67734301 -0.87252098 0.91876978
-4.15800858 -10.36556149 1.77357054 -0.86974108 -0.86887586 0.68523437
-3.92560434 -10.39286041 2.34180164 -0.82112849 -0.87116414 0.90477538
-4.56215191 -10.38028717 2.28864121 -0.95427674 -0.87011021 0.88423640
-4.27329063 -10.96186829 1.57885516 -0.89385492 -0.91886026 0.61000437
-3.40460062 -10.37642193 1.81187725 -0.71214885 -0.86978620 0.70003450
-2.56956053 -10.45198822 2.40975523 -0.53748143 -0.87612045 0.93102986
-3.17445278 -10.43478966 2.37931919 -0.66400826 -0.87467879 0.91927063
-4.08055544 -10.36023140 1.76813853 -0.85354000 -0.86842906 0.68313569
-4.70550394 -10.29306507 1.69447410 -0.98426205 -0.86279893 0.65467477
-3.85549355 -10.40447426 2.33887362 -0.80646324 -0.87213767 0.90364414
-4.48669767 -10.38538265 2.28342319 -0.93849379 -0.87053734 0.88222039
-3.35017538 -10.61492157 1.21964514 -0.70076454 -0.88977802 0.47122049
-4.25361109 -11.11797047 1.59908557 -0.88973850 -0.93194526 0.61782056
-3.33266521 -10.37696743 1.80821061 -0.69710189 -0.86983192 0.69861788
-2.48358297 -10.38253021 2.38982534 -0.51949728 -0.87029821 0.92332977
-3.09426475 -10.40589046 2.36808372 -0.64723510 -0.87225634 0.91492969
-4.00049925 -10.34696770 1.76142836 -0.83679444 -0.86731726 0.68054312
-3.77808070 -10.39538479 2.33134413 -0.79027057 -0.87137574 0.90073502
-4.40136290 -10.36651325 2.27298689 -0.92064410 -0.86895561 0.87818819
-3.29485059 -10.61351776 1.21746457 -0.68919212 -0.88966036 0.47037801
-4.14346409 -10.98410511 1.57509804 -0.86669874 -0.92072421 0.60855281
-3.27416563 -10.36248875 1.80287743 -0.68486542 -0.86861825 0.69655734
-2.43198204 -10.38271999 2.38716793 -0.50870377 -0.87031412 0.92230302
-3.03912997 -10.39974976 2.36333013 -0.63570243 -0.87174159 0.91309309
-3.94469714 -10.34724331 1.75823307 -0.82512218 -0.86734033 0.67930859
-3.72183585 -10.39280605 2.32674289 -0.77850574 -0.87115955 0.89895731
-4.34561872 -10.37088776 2.26937437 -0.90898395 -0.86932230 0.87679249
-3.22695279 -10.63020802 1.21697998 -0.67498976 -0.89105940 0.47019076
-4.28082085 -11.57079220 1.66237807 -0.89543003 -0.96990228 0.64227420
-3.20489120 -10.36967564 1.80054414 -0.67037511 -0.86922073 0.69565582
-2.37656999 -10.44155407 2.39735436 -0.49711308 -0.87524581 0.92623866
-2.97102952 -10.40925598 2.36116958 -0.62145770 -0.87253845 0.91225833
-3.87616467 -10.36257172 1.75663543 -0.81078708 -0.86862522 0.67869133
-3.65388536 -10.40859985 2.32506967 -0.76429236 -0.87248349 0.89831084
-4.26538897 -10.36177826 2.26134658 -0.89220208 -0.86855870 0.87369084
-3.15897560 -10.64646530 1.21649528 -0.66077083 -0.89242214 0.47000352
-4.24499226 -11.69984055 1.67827344 -0.88793564 -0.98071957 0.64841551
-4.24506474 -10.49746799 1.45705485 -0.88795084 -0.87993270 0.56294578
-3.13737774 -10.38206100 1.79921091 -0.65625316 -0.87025887 0.69514072
-2.29881668 -10.40102959 2.38451052 -0.48084924 -0.87184888 0.92127633
-2.90292954 -10.41831684 2.35900879 -0.60721302 -0.87329799 0.91142350
-3.79879880 -10.35333633 1.75088394 -0.79460424 -0.86785108 0.67646921
-3.57512593 -10.39249039 2.31628561 -0.74781805 -0.87113309 0.89491707
-4.19060993 -10.36477757 2.25612855 -0.87656039 -0.86881012 0.87167484
-3.07828832 -10.61840916 1.21043789 -0.64389324 -0.89007038 0.46766317
-4.18724203 -11.77105618 1.68520951 -0.87585586 -0.98668909 0.65109533
-4.17168188 -10.50554085 1.45426309 -0.87260115 -0.88060939 0.56186718
-3.06646252 -10.38266659 1.79587770 -0.64141965 -0.87030965 0.69385290
-2.23179889 -10.40763664 2.38273907 -0.46683097 -0.87240273 0.92059189
-2.83431721 -10.42505074 2.35641599 -0.59286124 -0.87386245 0.91042179
-3.72502756 -10.35283470 1.74673009 -0.77917331 -0.86780906 0.67486435
-3.50292516 -10.39434814 2.31168437 -0.73271561 -0.87128884 0.89313930
-4.12249851 -10.38362408 2.25452304 -0.86231333 -0.87038994 0.87105453
-3.00721240 -10.62225151 1.20849955 -0.62902611 -0.89039248 0.46691430
-4.13849163 -11.87005329 1.69648087 -0.86565864 -0.99498737 0.65545011
-4.27685595 -10.96854115 1.52042937 -0.89460063 -0.91941959 0.58743107
-2.99566388 -10.38279152 1.79254436 -0.62661052 -0.87032014 0.69256508
-2.15928292 -10.38706875 2.37476707 -0.45166260 -0.87067866 0.91751188
-2.76170301 -10.41624069 2.35036612 -0.57767230 -0.87312394 0.90808433
-3.65206623 -10.35367775 1.74289572 -0.76391184 -0.86787969 0.67338288
-3.43084264 -10.39570999 2.30708289 -0.71763796 -0.87140298 0.89136147
-4.04073381 -10.36736393 2.24529099 -0.84521037 -0.86902696 0.86748767
-2.94041204 -10.64093685 1.20849955 -0.61505336 -0.89195871 0.46691430
-4.77791405 -10.34577465 2.19152546 -0.99940825 -0.86721724 0.84671485
-4.25904942 -11.12827969 1.54053056 -0.89087600 -0.93280941 0.59519732
-2.92767668 -10.39192295 1.79087782 -0.61238945 -0.87108552 0.69192117
-2.09473944 -10.40425682 2.37565279 -0.43816188 -0.87211943 0.91785407
-2.69472528 -10.42771816 2.34906983 -0.56366241 -0.87408602 0.90758353
-3.58694029 -10.37642002 1.74289572 -0.75028926 -0.86978602 0.67338288
-3.36187029 -10.40588856 2.30457330 -0.70321083 -0.87225622 0.89039189
-4.00646305 -10.47301006 2.26295209 -0.83804190 -0.87788254 0.87431115
-2.88249207 -10.62592030 1.20486510 -0.60293806 -0.89069998 0.46551007
-4.71125698 -10.32885361 2.18309116 -0.98546541 -0.86579889 0.84345621
-4.01274920 -11.92985344 1.69879282 -0.83935678 -1.00000000 0.65634334
-4.26555586 -11.30377007 1.56398189 -0.89223701 -0.94751960 0.60425800
-2.87073278 -10.37710953 1.78587794 -0.60047835 -0.86984384 0.68998945
-2.06169486 -10.49633503 2.39469719 -0.43124989 -0.87983769 0.92521203
-2.63734102 -10.40813732 2.34172344 -0.55165923 -0.87244469 0.90474516
-3.52977705 -10.36889553 1.73874187 -0.73833227 -0.86915529 0.67177802
-3.30219436 -10.38804626 2.29704380 -0.69072825 -0.87076062 0.88748282
-3.90982270 -10.36719894 2.23565745 -0.81782740 -0.86901313 0.86376566
-2.80962086 -10.62077904 1.20195746 -0.58769542 -0.89026904 0.46438670
-4.68787432 -10.45145702 2.20302653 -0.98057443 -0.87607592 0.85115844
-3.92723918 -11.92285919 1.69387972 -0.82147044 -0.99941373 0.65444511
-4.27594757 -11.54936504 1.59692550 -0.89441067 -0.96810621 0.61698604
-2.80806231 -10.40445614 1.78754461 -0.58736944 -0.87213612 0.69063336
-2.57142186 -10.42260742 2.34129119 -0.53787076 -0.87365764 0.90457815
-3.45834804 -10.37212753 1.73554659 -0.72339129 -0.86942625 0.67054349
-4.08671236 -10.37150002 1.66850793 -0.85482782 -0.86937362 0.64464253
-3.23916864 -10.41606331 2.29871702 -0.67754501 -0.87310910 0.88812929
-3.84733987 -10.39890480 2.23726320 -0.80475771 -0.87167078 0.86438602
-2.73840475 -10.62091255 1.19977689 -0.57279897 -0.89028025 0.46354422
-4.55821514 -10.33511448 2.17197323 -0.95345324 -0.86632365 0.83916068
-3.49029493 -10.81848431 1.52076483 -0.73007375 -0.90684134 0.58756071
-4.24199915 -11.68204594 1.61283886 -0.88730955 -0.97922796 0.62313432
-4.28404808 -10.54078293 1.40056336 -0.89610505 -0.88356352 0.54111981
-2.73757958 -10.40283298 1.78421128 -0.57262635 -0.87200004 0.68934548
-1.89690590 -10.34102631 2.35306549 -0.39678055 -0.86681920 0.90912730
-2.49899292 -10.41008854 2.33480930 -0.52272058 -0.87260824 0.90207386
-3.38519049 -10.36923885 1.73139274 -0.70808876 -0.86918408 0.66893864
-4.00641775 -10.35827732 1.66216731 -0.83803242 -0.86826527 0.64219278
-3.17422462 -10.43808270 2.29913545 -0.66396052 -0.87495482 0.88829094
-3.76647758 -10.38053989 2.22803116 -0.78784353 -0.87013137 0.86081916
-4.41309929 -10.17790985 2.13248587 -0.92309904 -0.85314626 0.82390440
-4.16180229 -11.18898296 1.12221527 -0.87053460 -0.93789780 0.43357760
-4.16651344 -11.70287418 1.61200142 -0.87152004 -0.98097384 0.62281072
-4.20822620 -10.54354572 1.39707685 -0.88024521 -0.88379508 0.53977275
-2.66722822 -10.40073490 1.78087807 -0.55791080 -0.87182420 0.68805772
-1.80433297 -10.19520569 2.31674838 -0.37741685 -0.85459608 0.89509583
-2.43353558 -10.42558479 2.33480930 -0.50902873 -0.87390721 0.90207386
-3.31280327 -10.36772251 1.72755837 -0.69294733 -0.86905700 0.66745716
-3.93843603 -10.37585735 1.66095960 -0.82381254 -0.86973888 0.64172614
-3.08808899 -10.38841820 2.28365850 -0.64594328 -0.87079179 0.88231128
-3.69589996 -10.38924217 2.22481990 -0.77308065 -0.87086082 0.85957849
-4.43258095 -10.40242100 2.17427349 -0.92717403 -0.87196553 0.84004945
-4.06607914 -11.14582062 1.11444294 -0.85051197 -0.93427974 0.43057472
-3.26002741 -10.55499363 1.47394586 -0.68190807 -0.88475466 0.56947178
-4.60041046 -11.74606705 1.56791556 -0.96227938 -0.98459440 0.60577780
-2.59893727 -10.40581417 1.77887809 -0.54362619 -0.87224996 0.68728501
-1.77069879 -10.38712502 2.35838008 -0.37038150 -0.87068337 0.91118062
-2.36667538 -10.43495846 2.33351278 -0.49504340 -0.87469292 0.90157288
-3.24115467 -10.36759281 1.72404349 -0.67796046 -0.86904609 0.66609919
-3.86553812 -10.38003159 1.65763831 -0.80856431 -0.87008876 0.64044297
-3.01571059 -10.38318729 2.27822065 -0.63080370 -0.87035328 0.88021034
-3.61563468 -10.36973476 2.21558809 -0.75629133 -0.86922568 0.85601169
-2.59196496 -10.90057850 1.22861016 -0.54216778 -0.91372275 0.47468421
-4.33392000 -10.35033894 2.15740514 -0.90653688 -0.86759984 0.83353221
-3.98048711 -11.12810230 1.10961151 -0.83260846 -0.93279457 0.42870805
-3.21184087 -10.63592625 1.48319399 -0.67182881 -0.89153874 0.57304490
-4.39196205 -11.42303276 1.51695895 -0.91867769 -0.95751661 0.58609027
-2.53068805 -10.41044617 1.77687812 -0.52935034 -0.87263823 0.68651229
-1.71007931 -10.42692471 2.36502337 -0.35770157 -0.87401950 0.91374731
-2.29682875 -10.43056011 2.32919145 -0.48043340 -0.87432426 0.89990330
-3.17250729 -10.37641811 1.72212636 -0.66360128 -0.86978590 0.66535848
-3.79956079 -10.40225887 1.65733635 -0.79476362 -0.87195194 0.64032626
-2.94723129 -10.39063454 2.27571082 -0.61647975 -0.87097758 0.87924063
-3.54722428 -10.38298321 2.21358109 -0.74198180 -0.87033617 0.85523623
-2.57227993 -11.05001259 1.24581325 -0.53805023 -0.92624879 0.48133075
-4.28360462 -10.36701679 2.15663838 -0.89601231 -0.86899781 0.83323598
-3.91803908 -11.11861515 1.10646057 -0.81954604 -0.93199933 0.42749065
-3.40683198 -11.48236179 1.60977888 -0.71261555 -0.96248978 0.62195206
-4.00115395 -11.88379192 1.62847316 -0.83693141 -0.99613899 0.62917471
-4.32549334 -11.41022301 1.51213157 -0.90477425 -0.95644283 0.58422518
-2.47930002 -10.41266918 1.77521157 -0.51860142 -0.87282455 0.68586838
-1.66122758 -10.43679428 2.36546636 -0.34748313 -0.87484682 0.91391844
-2.24847960 -10.44508457 2.33005571 -0.47032011 -0.87554175 0.90023726
-3.11510253 -10.36287594 1.71733344 -0.65159380 -0.86865073 0.66350669
-3.74242377 -10.39773941 1.65371323 -0.78281212 -0.87157309 0.63892645
-2.89041495 -10.37613297 2.26943636 -0.60459530 -0.86976200 0.87681645
-3.49888468 -10.40143967 2.21398234 -0.73187047 -0.87188327 0.85539126
-2.53104138 -11.19187069 1.26156259 -0.52942425 -0.93813986 0.48741564
-3.84092474 -11.12234592 1.10414982 -0.80341583 -0.93231201 0.42659786
-3.37351036 -11.63856030 1.63029838 -0.70564562 -0.97558284 0.62987995
-3.92142200 -11.89365864 1.62623966 -0.82025367 -0.99696600 0.62831181
-3.92426515 -10.54682541 1.38366723 -0.82084835 -0.88406998 0.53459185
-1.59038532 -10.41231155 2.35749435 -0.33266488 -0.87279457 0.91083843
-2.17274261 -10.41123581 2.31925225 -0.45447800 -0.87270445 0.89606321
-3.67437410 -10.41359615 1.65250552 -0.76857805 -0.87290227 0.63845986
-2.82312560 -10.38653564 2.26776314 -0.59052026 -0.87063396 0.87616998
-3.42298222 -10.39160156 2.20715880 -0.71599376 -0.87105858 0.85275495
-2.49783349 -11.37825775 1.28288472 -0.52247810 -0.95376343 0.49565363
-4.12622690 -10.35251045 2.14245367 -0.86309320 -0.86778188 0.82775557
-3.76327777 -11.12366390 1.10162914 -0.78717422 -0.93242252 0.42562398
-3.33782291 -11.79288387 1.65052879 -0.69818079 -0.98851877 0.63769615
-3.45779538 -10.72003269 1.44867945 -0.72327572 -0.89858878 0.55970985
-4.25884581 -11.67606449 1.54270554 -0.89083344 -0.97872657 0.59603769
-2.34302258 -10.41992378 1.77121162 -0.49009588 -0.87343270 0.68432295
-1.53301227 -10.47807884 2.37033820 -0.32066402 -0.87830740 0.91580075
-2.10416007 -10.40937519 2.31579518 -0.44013244 -0.87254846 0.89472759
-2.98139048 -10.38980961 1.71541619 -0.62362492 -0.87090838 0.66276592
-2.75382948 -10.38893700 2.26441669 -0.57602543 -0.87083524 0.87487704
-3.35520363 -10.40544891 2.20555329 -0.70181632 -0.87221932 0.85213464
-2.51364446 -11.80746937 1.33449399 -0.52578533 -0.98974138 0.51559335
-4.05540371 -10.36359787 2.13938665 -0.84827894 -0.86871123 0.82657057
-3.69394064 -11.14897633 1.10183918 -0.77267081 -0.93454427 0.42570513
-3.28566122 -11.89377689 1.66266704 -0.68726999 -0.99697596 0.64238584
-4.23190546 -11.83330154 1.56147897 -0.88519824 -0.99190670 0.60329098
-4.20625257 -10.55582809 1.31815708 -0.87983239 -0.88482463 0.50928140
-1.45781922 -10.41988182 2.35483694 -0.30493569 -0.87342918 0.90981168
-2.05423498 -10.50093460 2.33351278 -0.42968947 -0.88022327 0.90157288
-2.91076040 -10.38931656 1.71222091 -0.60885102 -0.87086707 0.66153139
-2.68510032 -10.39277363 2.26148868 -0.56164914 -0.87115687 0.87374580
-3.28204894 -10.40204906 2.20033503 -0.68651438 -0.87193435 0.85011852
-3.99931359 -10.41271210 2.14437056 -0.83654642 -0.87282819 0.82849616
-4.66981840 -10.43603039 2.09368372 -0.97679758 -0.87478280 0.80891287
-3.09074807 -10.83636284 1.12862206 -0.64649951 -0.90833998 0.43605292
-3.62073231 -11.16251183 1.10078883 -0.75735766 -0.93567890 0.42529932
-3.20881867 -11.90653992 1.66151106 -0.67119664 -0.99804580 0.64193922
-3.25171065 -10.53379822 1.41489828 -0.68016845 -0.88297802 0.54665822
-4.58055210 -11.70264244 1.47256970 -0.95812553 -0.98095441 0.56894010
-1.98784912 -10.51171684 2.33308077 -0.41580337 -0.88112706 0.90140599
-2.84180570 -10.39406204 1.70998430 -0.59442759 -0.87126487 0.66066730
-3.46241617 -10.43599415 1.64525914 -0.72424227 -0.87477976 0.63566017
-2.61501074 -10.39046383 2.25730562 -0.54698837 -0.87096322 0.87212962
-3.20848870 -10.39626980 2.19471574 -0.67112762 -0.87144995 0.84794748
-3.89591980 -10.33654213 2.12328482 -0.81491929 -0.86644334 0.82034951
-4.63516045 -10.53530121 2.10795498 -0.96954811 -0.88310397 0.81442672
-3.02524877 -10.86514568 1.12973964 -0.63279885 -0.91075265 0.43648472
-3.55234027 -11.19072533 1.10141909 -0.74305189 -0.93804383 0.42554283
-4.50764656 -11.73304272 1.47282410 -0.94287568 -0.98350269 0.56903839
-1.35050321 -10.62703323 2.39824009 -0.28248814 -0.89079326 0.92658085
-1.89872468 -10.39917850 2.30499196 -0.39716098 -0.87169373 0.89055365
-2.77088618 -10.39071751 1.70646942 -0.57959318 -0.87098449 0.65930927
-3.38756323 -10.42935467 1.64073014 -0.70858508 -0.87422317 0.63391030
-2.54320931 -10.38008308 2.25144958 -0.53196943 -0.87009311 0.86986709
-3.13285279 -10.38247871 2.18749070 -0.65530664 -0.87029392 0.84515601
-3.83424234 -10.31980228 2.11600089 -0.80201805 -0.86504018 0.81753528
-4.49501228 -10.34978771 2.06587315 -0.94023299 -0.86755365 0.79816800
-2.98442698 -10.91764259 1.13421011 -0.62426007 -0.91515315 0.43821192
-3.50612330 -11.22821331 1.10372972 -0.73338461 -0.94118619 0.42643556
-3.36524630 -11.33743382 1.52796733 -0.70391697 -0.95034140 0.59034342
-4.44595480 -11.73746777 1.47053456 -0.92997152 -0.98387361 0.56815380
-2.09766316 -10.47609806 1.77187836 -0.43877345 -0.87814140 0.68458056
-1.85073495 -10.41377640 2.30628824 -0.38712287 -0.87291735 0.89105445
-2.72387481 -10.41130352 1.70774758 -0.56975973 -0.87271011 0.65980309
-2.50332284 -10.43000412 2.25981545 -0.52362633 -0.87427765 0.87309933
-3.08669519 -10.40651417 2.18949747 -0.64565176 -0.87230861 0.84593135
-3.76731992 -10.33815289 2.11485076 -0.78801972 -0.86657834 0.81709093
-4.41981697 -10.35433578 2.06111622 -0.92450416 -0.86793488 0.79633015
-2.93204474 -10.99766064 1.14136291 -0.61330312 -0.92186052 0.44097546
-3.44835758 -11.29184818 1.10835111 -0.72130156 -0.94652027 0.42822108
-3.33944416 -11.51424408 1.55086029 -0.69851989 -0.96516222 0.59918833
-3.91475010 -10.54049397 1.30289388 -0.81885809 -0.88353926 0.50338435
-1.78060091 -10.39826202 2.30023837 -0.37245274 -0.87161690 0.88871706
-2.65211225 -10.40332985 1.70359373 -0.55474895 -0.87204170 0.65819824
-2.42715931 -10.39979649 2.24977636 -0.50769496 -0.87174553 0.86922061
-3.01082015 -10.38996601 2.18187118 -0.62978077 -0.87092149 0.84298486
-3.69506168 -10.34127331 2.11063361 -0.77290529 -0.86683995 0.81546164
-4.34627008 -10.36197186 2.05709100 -0.90912020 -0.86857498 0.79477495
-2.88026357 -11.08322239 1.14918637 -0.60247195 -0.92903256 0.44399813
-3.38993025 -11.35519791 1.11297250 -0.70908022 -0.95183045 0.43000659
-3.35444164 -11.84163094 1.59580874 -0.70165694 -0.99260491 0.61655456
-4.34450960 -11.91907406 1.48783290 -0.90875196 -0.99909645 0.57483715
-1.71780169 -10.42465401 2.30369544 -0.35931689 -0.87382919 0.89005274
-2.58433414 -10.41020298 1.70199609 -0.54057163 -0.87261784 0.65758097
-2.35833693 -10.39957619 2.24642992 -0.49329925 -0.87172705 0.86792767
-2.94118261 -10.39360428 2.17865992 -0.61521453 -0.87122649 0.84174418
-3.61968660 -10.33462524 2.10449958 -0.75713891 -0.86628264 0.81309170
-4.26603031 -10.35274315 2.04977226 -0.89233625 -0.86780137 0.79194731
-2.83381915 -11.19362259 1.15991557 -0.59275705 -0.93828666 0.44814345
-3.29802465 -11.92734337 1.60530102 -0.68985605 -0.99978960 0.62022197
-3.39848757 -10.70076847 1.38018072 -0.71087015 -0.89697403 0.53324479
-4.22326136 -11.81731510 1.47028017 -0.88339013 -0.99056667 0.56805551
-1.65288639 -10.43909740 2.30455971 -0.34573838 -0.87503988 0.89038664
-2.51565433 -10.41279507 1.69975936 -0.52620572 -0.87283510 0.65671676
-3.11469889 -10.41918278 1.62684119 -0.65150934 -0.87337059 0.62854421
-2.29128075 -10.40654564 2.24475694 -0.47927293 -0.87231129 0.86728132
-2.86951780 -10.38922787 2.17384338 -0.60022420 -0.87085962 0.83988327
-3.54580855 -10.33115482 2.09913230 -0.74168563 -0.86599177 0.81101799
-4.19497061 -10.36477280 2.04684496 -0.87747252 -0.86880976 0.79081631
-2.79601741 -11.34441471 1.17533875 -0.58484995 -0.95092660 0.45410231
-3.32043743 -11.65309238 1.14112091 -0.69454420 -0.97680098 0.44088197
-1.58666945 -10.44541645 2.30369544 -0.33188760 -0.87556958 0.89005274
-2.45062757 -10.43031883 1.70007885 -0.51260388 -0.87430400 0.65684021
-3.05196166 -10.44803143 1.62835085 -0.63838643 -0.87578875 0.62912750
-2.22139597 -10.39968967 2.24015570 -0.46465495 -0.87173659 0.86550361
-2.79443097 -10.37112617 2.16621685 -0.58451813 -0.86934227 0.83693665
-3.48082638 -10.35322952 2.09913230 -0.72809315 -0.86784214 0.81101799
-4.13633013 -10.40735912 2.05013824 -0.86520654 -0.87237948 0.79208869
-2.76839447 -11.54543877 1.19657373 -0.57907200 -0.96777707 0.46230665
-1.22313619 -10.66665459 1.83692276 -0.25584647 -0.89411449 0.70971107
-1.52271712 -10.46677113 2.30628824 -0.31851056 -0.87735957 0.89105445
-2.36935401 -10.37618923 1.68857586 -0.49560371 -0.86976671 0.65239596
-2.97751927 -10.43659782 1.62351990 -0.62281513 -0.87483037 0.62726098
-2.15483069 -10.40769386 2.23890066 -0.45073134 -0.87240750 0.86501873
-2.73171973 -10.39794922 2.16822386 -0.57140064 -0.87159067 0.83771211
-3.42034698 -10.33408928 2.09184837 -0.71544254 -0.86623776 0.80820376
-4.12833309 -10.53100586 2.07099628 -0.86353374 -0.88274395 0.80014735
-2.33101082 -10.60583019 1.44649017 -0.48758337 -0.88901597 0.55886406
-3.40025926 -11.38871288 1.46922064 -0.71124071 -0.95463979 0.56764615
-1.47254968 -10.46803093 2.30499196 -0.30801690 -0.87746519 0.89055365
-2.31957769 -10.38338375 1.68793678 -0.48519188 -0.87036979 0.65214902
-2.93421221 -10.47144318 1.62684119 -0.61375654 -0.87775117 0.62854421
-2.10038853 -10.39088440 2.23304462 -0.43934351 -0.87099850 0.86275619
-2.68022776 -10.40122509 2.16621685 -0.56062996 -0.87186527 0.83693665
-3.35354424 -10.34977055 2.09069824 -0.70146924 -0.86755222 0.80775940
-3.97269821 -10.32567787 2.02488899 -0.83097923 -0.86553270 0.78233343
-3.34960365 -11.48218822 1.47941196 -0.70064497 -0.96247524 0.57158363
-2.26382804 -10.44214916 1.69528592 -0.47353056 -0.87529570 0.65498841
-3.16028595 -11.54945660 1.79471576 -0.66104490 -0.96811390 0.69340402
-2.04546881 -10.45763969 2.24475694 -0.42785582 -0.87659413 0.86728132
-2.61145854 -10.40456390 2.16340709 -0.54624534 -0.87214518 0.83585107
-3.28549981 -10.36127663 2.08878136 -0.68723619 -0.86851668 0.80701882
-3.90634632 -10.34675884 2.02415729 -0.81710023 -0.86729974 0.78205073
-1.37005687 -10.71034241 2.35511971 -0.28657821 -0.89777654 0.90992093
-2.20139384 -10.47163010 1.69784212 -0.46047106 -0.87776685 0.65597606
-3.13280582 -11.73710728 1.82128584 -0.65529686 -0.98384339 0.70366961
-2.01029539 -10.63368988 2.28031206 -0.42049852 -0.89135128 0.88101834
-2.54228449 -10.40554714 2.16019607 -0.53177601 -0.87222755 0.83461052
-3.21281910 -10.35732841 2.08379745 -0.67203343 -0.86818570 0.80509323
-3.83165050 -10.34530258 2.01903415 -0.80147594 -0.86717767 0.78007138
-3.26733875 -11.74879456 1.51105881 -0.68343741 -0.98482305 0.58381069
-1.55178082 -10.80190659 1.81054389 -0.32458988 -0.90545171 0.69951934
-1.26804376 -10.43772316 2.29245996 -0.26523989 -0.87492466 0.88571179
-2.12970042 -10.45622540 1.69304919 -0.44547477 -0.87647557 0.65412426
-3.07052231 -11.80054760 1.82823026 -0.64226884 -0.98916113 0.70635265
-1.89894927 -10.39975834 2.22677016 -0.39720798 -0.87174237 0.86033195
-2.47228813 -10.40226173 2.15618205 -0.51713467 -0.87195218 0.83305967
-3.14031792 -10.35287762 2.07881355 -0.65686816 -0.86781263 0.80316764
-3.75780249 -10.34516430 2.01427722 -0.78602892 -0.86716610 0.77823347
-2.44498754 -10.57905293 1.39144695 -0.51142418 -0.88677138 0.53759760
-3.22285676 -11.87816906 1.52634573 -0.67413300 -0.99566764 0.58971691
-3.27586436 -10.56735611 1.27974474 -0.68522072 -0.88579094 0.49444050
-1.20470774 -10.46487904 2.29678130 -0.25199172 -0.87720096 0.88738137
-2.06585145 -10.47908878 1.69464684 -0.43211931 -0.87839210 0.65474153
-3.01832318 -11.90581131 1.84181726 -0.63135022 -0.99798471 0.71160209
-1.79934716 -10.21495247 2.18410397 -0.37637395 -0.85625130 0.84384751
-2.40821433 -10.42331409 2.15738630 -0.50373220 -0.87371683 0.83352494
-3.06855440 -10.34980869 2.07421327 -0.64185721 -0.86755538 0.80139029
-3.68742347 -10.35376263 2.01134968 -0.77130759 -0.86788684 0.77710241
-2.37496996 -10.57875443 1.38921344 -0.49677840 -0.88674641 0.53673464
-1.14022088 -10.48388767 2.29937410 -0.23850286 -0.87879431 0.88838315
-2.00838685 -10.53648376 1.70199609 -0.42009929 -0.88320309 0.65758097
-2.94107270 -11.91494751 1.84030759 -0.61519152 -0.99875051 0.71101880
-1.77037930 -10.43630123 2.22969818 -0.37031466 -0.87480551 0.86146325
-2.33964682 -10.42486286 2.15457654 -0.48938978 -0.87384671 0.83243936
-3.01538372 -10.34906960 2.07114625 -0.63073534 -0.86749345 0.80020535
-3.63793731 -10.36917019 2.01098371 -0.76095647 -0.86917835 0.77696103
-3.43022895 -11.50528336 1.40057826 -0.71750957 -0.96441114 0.54112554
-1.09512460 -10.52992344 2.30844903 -0.22906995 -0.88265324 0.89188933
-1.94979155 -10.49728680 1.69400775 -0.40784279 -0.87991750 0.65449458
-2.87834144 -11.90178204 1.83608055 -0.60206985 -0.99764699 0.70938563
-1.69697893 -10.29589081 2.19748926 -0.35496134 -0.86303580 0.84901905
-2.28752923 -10.42238235 2.15176678 -0.47848821 -0.87363875 0.83135378
-2.94229436 -10.33947659 2.06539559 -0.61544704 -0.86668932 0.79798353
-3.55600405 -10.34350872 2.00146961 -0.74381828 -0.86702728 0.77328515
-3.36568475 -11.55325985 1.40413976 -0.70400870 -0.96843266 0.54250157
-1.03145778 -10.56185722 2.31406665 -0.21575260 -0.88533002 0.89405972
-1.88689888 -10.52682590 1.69688356 -0.39468735 -0.88239354 0.65560567
-2.41693974 -10.28824425 1.58004165 -0.50555736 -0.86239487 0.61046278
-1.65914750 -10.47832394 2.23471785 -0.34704804 -0.87832797 0.86340261
-2.21747065 -10.41547775 2.14735150 -0.46383387 -0.87305999 0.82964790
-2.87727189 -10.35775948 2.06539559 -0.60184616 -0.86822188 0.79798353
-3.49031305 -10.36378574 2.00110364 -0.73007751 -0.86872697 0.77314377
-0.97559184 -10.68090057 2.33913064 -0.20406699 -0.89530861 0.90374345
-1.81540132 -10.50733566 1.69177115 -0.37973204 -0.88075984 0.65363044
-1.58747756 -10.44985867 2.22635174 -0.33205664 -0.87594193 0.86017030
-2.14679003 -10.40426922 2.14213347 -0.44904944 -0.87212044 0.82763183
-2.80550694 -10.35099125 2.06041169 -0.58683491 -0.86765450 0.79605794
-3.41769552 -10.36311722 1.99671257 -0.71488792 -0.86867094 0.77144724
-2.54648328 -10.62125778 1.33887899 -0.53265429 -0.89030915 0.51728749
-3.28166103 -11.81434917 1.43339419 -0.68643326 -0.99031806 0.55380428
-0.91996121 -10.81910801 2.36851573 -0.19243059 -0.90689361 0.91509658
-1.75158775 -10.53217220 1.69400775 -0.36638400 -0.88284171 0.65449458
-2.63882422 -11.88832092 1.82581484 -0.55196947 -0.99651861 0.70541942
-2.08021331 -10.41179085 2.14092922 -0.43512341 -0.87275094 0.82716656
-2.73742700 -10.35702229 2.05811143 -0.57259446 -0.86816007 0.79516923
-3.34643936 -10.36568642 1.99305320 -0.69998312 -0.86888629 0.77003342
-1.68383825 -10.53321934 1.69241011 -0.35221267 -0.88292950 0.65387732
-2.25992966 -10.50392437 1.60691369 -0.47271514 -0.88047391 0.62084502
-1.45338202 -10.44960499 2.22216892 -0.30400756 -0.87592065 0.85855424
-2.01888371 -10.44580841 2.14534450 -0.42229494 -0.87560242 0.82887244
-2.66743779 -10.35499954 2.05427766 -0.55795461 -0.86799049 0.79368800
-3.27409434 -10.36402225 1.98866212 -0.68485051 -0.86874682 0.76833689
-1.38972497 -10.47404480 2.22551513 -0.29069224 -0.87796926 0.85984707
-1.99718106 -10.69125080 2.19391298 -0.41775537 -0.89617622 0.84763730
-2.62481356 -10.39220715 2.05926156 -0.54903883 -0.87110937 0.79561359
-3.21524048 -10.34743404 1.98244131 -0.67253989 -0.86735636 0.76593339
-2.74638081 -10.60245037 1.26549911 -0.57446736 -0.88873267 0.48893657
-2.16460919 -10.62690258 1.62231219 -0.45277673 -0.89078230 0.62679440
-1.36283386 -10.65899849 2.26399851 -0.28506738 -0.89347273 0.87471545
-1.89930034 -10.44232464 2.14012647 -0.39728141 -0.87531036 0.82685643
-2.54551291 -10.35128403 2.04776049 -0.53245133 -0.86767906 0.79117006
-3.14268541 -10.34298897 1.97768426 -0.65736336 -0.86698371 0.76409549
-2.67726517 -10.60988426 1.26422715 -0.56001025 -0.88935578 0.48844513
-1.51804686 -10.67805004 1.71158195 -0.31753367 -0.89506966 0.66128451
-2.07231569 -10.51231861 1.60238469 -0.43347147 -0.88117754 0.61909521
-1.26890302 -10.44208622 2.21547604 -0.26541963 -0.87529039 0.85596842
-1.82783496 -10.42125511 2.13330269 -0.38233280 -0.87354428 0.82422000
-2.48450208 -10.38426208 2.05121088 -0.51968950 -0.87044340 0.79250312
-3.07256675 -10.34557629 1.97439086 -0.64269650 -0.86720061 0.76282305
-1.45721102 -10.73434258 1.71925056 -0.30480847 -0.89978832 0.66424739
-2.00659823 -10.52707291 1.60268652 -0.41972518 -0.88241428 0.61921185
-1.20150912 -10.43430519 2.21212983 -0.25132266 -0.87463820 0.85467553
-1.75934994 -10.41515255 2.12969017 -0.36800763 -0.87303275 0.82282430
-2.40994406 -10.35950089 2.04315996 -0.50409400 -0.86836785 0.78939259
-3.00805473 -10.36656475 1.97475672 -0.62920231 -0.86895996 0.76296437
-1.39797378 -10.80791569 1.72979510 -0.29241768 -0.90595543 0.66832137
-1.13862598 -10.46693039 2.21756768 -0.23816924 -0.87737292 0.85677654
-1.69546497 -10.43566799 2.13169718 -0.35464466 -0.87475240 0.82359970
-2.34823895 -10.38976192 2.04622698 -0.49118701 -0.87090439 0.79057753
-2.93800426 -10.36824322 1.97146344 -0.61454970 -0.86910063 0.76169199
-1.33953047 -10.89488602 1.74257624 -0.28019294 -0.91324556 0.67325944
-1.07381594 -10.48360729 2.21965909 -0.22461277 -0.87877083 0.85758454
-1.62955689 -10.44417953 2.13129592 -0.34085849 -0.87546587 0.82344466
-2.27415466 -10.36403084 2.03817606 -0.47569063 -0.86874753 0.78746700
-2.87069011 -10.37892246 1.96999967 -0.60046941 -0.86999583 0.76112646
-2.20378375 -11.68139553 1.46948886 -0.46097097 -0.97917342 0.56774980
-1.55920482 -10.42321682 2.12487364 -0.32614276 -0.87370872 0.82096338
-2.22447419 -10.37079239 2.03740931 -0.46529883 -0.86931431 0.78717077
-2.81396675 -10.36388588 1.96451080 -0.58860445 -0.86873537 0.75900578
-1.23971939 -11.09146786 1.77229238 -0.25931519 -0.92972374 0.68474054
-1.80657482 -10.85997772 1.64737260 -0.37788579 -0.91031945 0.63647670
-0.97502136 -10.67984104 2.25939727 -0.20394766 -0.89521980 0.87293774
-1.51291418 -10.44983482 2.12888741 -0.31646004 -0.87593991 0.82251412
-2.15649772 -10.37110710 2.03472567 -0.45108002 -0.86934072 0.78613394
-2.74727273 -10.37566280 1.96341300 -0.57465392 -0.86972255 0.75858164
-1.18383658 -11.23257637 1.79402030 -0.24762607 -0.94155192 0.69313532
-0.92845744 -10.93328667 2.31252074 -0.19420777 -0.91646445 0.89346248
-1.45512283 -10.51540279 2.14052773 -0.30437168 -0.88143605 0.82701147
-2.09244347 -10.39022636 2.03587580 -0.43768165 -0.87094331 0.78657830
-2.67955208 -10.38320541 1.96158326 -0.56048864 -0.87035483 0.75787473
-1.13845646 -11.49917889 1.83619821 -0.23813379 -0.96389943 0.70943111
-1.70244074 -11.09086132 1.67967939 -0.35610378 -0.92967290 0.64895868
-0.88772392 -11.30356121 2.39074230 -0.18568744 -0.94750208 0.92368406
-1.41295266 -10.70299911 2.17745590 -0.29555085 -0.89716101 0.84127897
-2.02005601 -10.36654854 2.02859187 -0.42254016 -0.86895859 0.78376406
-2.60749865 -10.37315178 1.95646036 -0.54541701 -0.86951208 0.75589544
-2.35740662 -11.71132851 1.39294672 -0.49310464 -0.98168254 0.53817707
-1.31097245 -10.43956661 2.12126112 -0.27421939 -0.87507921 0.81956762
-1.95128560 -10.35973930 2.02475810 -0.40815529 -0.86838782 0.78228289
-2.54085803 -10.38360310 1.95536256 -0.53147763 -0.87038815 0.75547129
-1.56795895 -11.14661026 1.68511415 -0.32797390 -0.93434596 0.65105850
-1.24818134 -10.47093868 2.12607765 -0.26108521 -0.87770891 0.82142854
-1.92993748 -10.61521530 2.07306314 -0.40368986 -0.88980263 0.80094594
-2.47373033 -10.39171505 1.95389879 -0.51743639 -0.87106812 0.75490576
-1.51442337 -11.27770138 1.70383406 -0.31677574 -0.94533443 0.65829110
-1.18057871 -10.46300220 2.12286663 -0.24694461 -0.87704366 0.82018793
-1.87393308 -10.68902206 2.08533096 -0.39197528 -0.89598936 0.80568570
-2.40168452 -10.37833118 1.94840980 -0.50236636 -0.86994624 0.75278503
-1.45930171 -11.40855408 1.72255385 -0.30524579 -0.95630294 0.66552365
-1.11734939 -10.49358749 2.12768340 -0.23371877 -0.87960744 0.82204896
-1.82745624 -10.72096157 2.08993149 -0.38225359 -0.89866668 0.80746317
-2.35012388 -10.37803268 1.94621432 -0.49158129 -0.86992121 0.75193679
-1.06748331 -10.49483871 2.12688041 -0.22328815 -0.87971228 0.82173872
-1.71923280 -10.48034000 2.04009295 -0.35961622 -0.87849694 0.78820759
-2.28231549 -10.38107681 1.94401872 -0.47739765 -0.87017637 0.75108850
-1.65304744 -10.48899651 2.03970957 -0.34577206 -0.87922257 0.78805947
-2.21538949 -10.38752365 1.94255495 -0.46339858 -0.87071681 0.75052297
-1.61868536 -10.71079063 2.08149719 -0.33858445 -0.89781410 0.80420452
-2.14646387 -10.38391495 1.93926167 -0.44898123 -0.87041432 0.74925059
-1.75268543 -10.39244938 2.58826852 -0.36661360 -0.87112969 1.00000000
-1.55496299 -10.74601078 2.08648109 -0.32525551 -0.90076637 0.80613005
-2.08195710 -10.40105057 1.93999350 -0.43548816 -0.87185067 0.74953330
-1.68244112 -10.37259388 2.58054066 -0.35192043 -0.86946535 0.99701428
-0.84594017 -11.06137466 2.23846722 -0.17694743 -0.92720121 0.86485124
-1.43913734 -10.40159607 2.01670718 -0.30102795 -0.87189639 0.77917230
-2.01467729 -10.40427876 1.93816388 -0.42141509 -0.87212127 0.74882644
-1.61723530 -10.38296032 2.58054066 -0.33828115 -0.87033427 0.99701428
-1.38805652 -10.39269257 2.01364017 -0.29034325 -0.87115008 0.77798736
-1.96783650 -10.42524529 1.94035935 -0.41161728 -0.87387872 0.74967468
-1.56914687 -10.39622498 2.58198953 -0.32822236 -0.87144613 0.99757403
-1.32370579 -10.40899944 2.01517367 -0.27688286 -0.87251693 0.77857983
-1.25989962 -10.43075562 2.01785731 -0.26353636 -0.87434065 0.77961665
-1.82669795 -10.39300919 1.92974746 -0.38209498 -0.87117660 0.74557465
-1.19389808 -10.43456459 2.01709056 -0.24973065 -0.87465990 0.77932042
-1.76235700 -10.41009617 1.93084526 -0.36863661 -0.87260890 0.74599880
-1.13141918 -10.47113991 2.02284122 -0.23666178 -0.87772578 0.78154224
-1.69435608 -10.40544319 1.92791784 -0.35441270 -0.87221885 0.74486780
-1.87989402 -10.38408852 2.47690201 -0.39322212 -0.87042886 0.95697260
-1.07826912 -10.60500145 2.04776049 -0.22554424 -0.88894647 0.79117006
-1.62556064 -10.39452076 1.92389262 -0.34002259 -0.87130332 0.74331260
-1.80717051 -10.35354233 2.46671557 -0.37801036 -0.86786836 0.95303696
-1.03218055 -10.65100098 2.05581117 -0.21590379 -0.89280236 0.79428047
-1.57745492 -10.40789604 1.92499042 -0.32996020 -0.87242448 0.74373674
-1.76724982 -10.41371918 2.47921729 -0.36966008 -0.87291259 0.95786709
-0.97269207 -10.74135113 2.07229638 -0.20346044 -0.90037578 0.80064970
-1.51288795 -10.42343807 1.92608821 -0.31645456 -0.87372726 0.74416089
-1.70876181 -10.46684933 2.48940396 -0.35742599 -0.87736613 0.96180284
-0.91033715 -10.80985260 2.08456421 -0.19041750 -0.90611780 0.80538946
-1.44517457 -10.41716099 1.92316067 -0.30229077 -0.87320107 0.74302983
-1.62435210 -10.36016178 2.46115923 -0.33976978 -0.86842322 0.95089024
-0.85861403 -11.02870083 2.12635183 -0.17959845 -0.92446238 0.82153445
-1.36399055 -10.30911160 1.90120494 -0.28530931 -0.86414403 0.73454702
-1.32388711 -10.51056290 1.93743193 -0.27692077 -0.88103032 0.74854362
-1.50555587 -10.45869160 2.48014331 -0.31492090 -0.87668234 0.95822489
-1.25758445 -10.51672173 1.93706608 -0.26305208 -0.88154662 0.74840230
-1.19418085 -10.54785538 1.94145715 -0.24978979 -0.88415635 0.75009882
-1.16430938 -10.73316765 1.97512269 -0.24354151 -0.89968979 0.76310581
-1.10132420 -10.78329659 1.98317313 -0.23036674 -0.90389180 0.76621616
-1.03469646 -10.80174446 1.98536873 -0.21643005 -0.90543813 0.76706445
-0.92319584 -11.09993362 2.03879452 -0.19310719 -0.93043333 0.78770596
