-16.55238914 -10.57322311 1.58122420 -1.00000000 -0.86846036 0.66134512
-16.52406502 -10.70196533 1.58523619 -0.99828881 -0.87903494 0.66302311
-16.20185661 -10.63800049 1.55854774 -0.97882283 -0.87378103 0.65186071
-15.86454105 -10.55935764 1.53011489 -0.95844418 -0.86732143 0.63996875
-15.67079926 -10.57288837 1.51668346 -0.94673944 -0.86843282 0.63435102
-15.44629478 -10.56300259 1.49993777 -0.93317616 -0.86762083 0.62734717
-15.23072147 -10.55640030 1.48406422 -0.92015243 -0.86707854 0.62070811
-15.94632816 -10.83706570 0.88930017 -0.96338528 -0.89013177 0.37194872
-15.04544258 -10.53306675 1.46958625 -0.90895897 -0.86516196 0.61465269
-16.38182640 -10.58769608 1.46979856 -0.98969561 -0.86964911 0.61474150
-14.84907150 -10.53501701 1.45563149 -0.89709538 -0.86532217 0.60881615
-16.15315056 -10.58461857 1.45385849 -0.97588032 -0.86939633 0.60807461
-14.64680958 -10.53026009 1.44097900 -0.88487583 -0.86493146 0.60268778
-15.92184258 -10.57688713 1.43758965 -0.96190602 -0.86876130 0.60127014
-15.27655506 -10.80762005 0.85907727 -0.92292148 -0.88771313 0.35930803
-14.46128941 -10.53513145 1.42807090 -0.87366778 -0.86533159 0.59728897
-15.73594761 -10.59668446 1.42575788 -0.95067531 -0.87038738 0.59632152
-15.07535458 -10.80782604 0.85035098 -0.91076607 -0.88773006 0.35565829
-14.26347733 -10.52860928 1.41376722 -0.86171710 -0.86479586 0.59130645
-15.49606991 -10.57754135 1.40850317 -0.93618327 -0.86881500 0.58910477
-14.54821491 -10.52866936 2.05290437 -0.87891936 -0.86480081 0.85862482
-14.89251995 -10.81886578 0.84279525 -0.89972025 -0.88863689 0.35249811
-14.10298920 -10.54750919 1.40347564 -0.85202134 -0.86634827 0.58700204
-15.28494835 -10.57505608 1.39404202 -0.92342854 -0.86861086 0.58305639
-14.35430813 -10.49151134 2.03109765 -0.86720461 -0.86174870 0.84950417
-14.72391891 -10.80255032 0.83502674 -0.88953435 -0.88729674 0.34924895
-13.95146561 -10.53688335 1.39231181 -0.84286720 -0.86547548 0.58233273
-15.10904598 -10.55918694 1.38138855 -0.91280150 -0.86730742 0.57776409
-16.45216942 -10.63830566 1.36729717 -0.99394530 -0.87380606 0.57187039
-14.18289852 -10.50339317 2.01510596 -0.85684901 -0.86272466 0.84281564
-13.78380775 -10.54673004 1.38114798 -0.83273828 -0.86628425 0.57766348
-14.95124245 -10.58949661 1.37218606 -0.90326792 -0.86979699 0.57391518
-16.20834541 -10.62539387 1.35105395 -0.97921485 -0.87274551 0.56507671
-13.98811054 -10.49563885 1.99548006 -0.84508103 -0.86208773 0.83460712
-14.55991459 -10.96626282 0.83321762 -0.87962615 -0.90074372 0.34849226
-13.64017963 -10.57322598 1.37260079 -0.82406110 -0.86846060 0.57408863
-14.69966412 -10.55093670 1.35345232 -0.88806903 -0.86662978 0.56607980
-15.96700096 -10.61094952 1.33496392 -0.96463424 -0.87155908 0.55834705
-13.76398373 -10.46299267 1.97125030 -0.83154058 -0.85940623 0.82447308
-14.90279675 -10.53805637 1.98586690 -0.90034115 -0.86557180 0.83058643
-14.52403831 -11.08300781 0.83545238 -0.87745875 -0.91033286 0.34942695
-13.48737335 -10.59094143 1.36300683 -0.81482941 -0.86991566 0.57007599
-14.52015114 -10.56114578 1.34194922 -0.87722391 -0.86746836 0.56126869
-15.75292778 -10.61174965 1.32132566 -0.95170116 -0.87162483 0.55264288
-13.57382679 -10.45342541 1.95210886 -0.82005244 -0.85862041 0.81646723
-14.69569111 -10.53097057 1.96574843 -0.88782901 -0.86498982 0.82217193
-14.49831867 -11.20829678 0.83843213 -0.87590492 -0.92062384 0.35067323
-13.33955860 -10.61088371 1.35393631 -0.80589926 -0.87155366 0.56628227
-14.33948994 -10.56833744 1.33028173 -0.86630940 -0.86805904 0.55638874
-15.52631569 -10.60127354 1.30646157 -0.93801057 -0.87076432 0.54642600
-13.47503853 -10.51282215 1.94702065 -0.81408423 -0.86349916 0.81433904
-14.51018333 -10.53685284 1.94863605 -0.87662166 -0.86547297 0.81501472
-14.49516201 -11.35219669 0.84300810 -0.87571418 -0.93244344 0.35258713
-15.10005379 -10.93744659 0.75080526 -0.91225827 -0.89837682 0.31402341
-13.24627686 -10.67320633 1.35097086 -0.80026376 -0.87667274 0.56504196
-14.19448090 -10.59987736 1.32222950 -0.85754877 -0.87064964 0.55302089
-15.31357098 -10.59746456 1.29282331 -0.92515773 -0.87045145 0.54072183
-14.31927967 -10.50188637 1.92828619 -0.86508840 -0.86260092 0.80650342
-14.50254631 -11.46875858 0.84715843 -0.87616032 -0.94201756 0.35432300
-15.47273254 -11.31822872 0.77585119 -0.93477339 -0.92965341 0.32449883
-13.22825813 -10.76195240 1.35463405 -0.79917514 -0.88396209 0.56657410
-14.02650452 -10.57797432 1.31006896 -0.84740061 -0.86885059 0.54793477
-15.15077496 -10.59055519 1.28224993 -0.91532254 -0.86988395 0.53629953
-13.13229275 -10.47928715 1.91164529 -0.79337746 -0.86074466 0.79954338
-14.12853432 -10.49936771 1.91024888 -0.85356468 -0.86239403 0.79895931
-15.42693138 -10.54005051 1.96259451 -0.93200630 -0.86573559 0.82085282
-14.52675533 -11.63717556 0.85375637 -0.87762290 -0.95585096 0.35708258
-13.16037750 -10.84485531 1.35463405 -0.79507422 -0.89077157 0.56657410
-13.86940575 -10.59702301 1.30070210 -0.83790958 -0.87041521 0.54401708
-14.96524143 -10.60126209 1.27106345 -0.90411365 -0.87076336 0.53162074
-16.32951355 -10.67038918 1.23961329 -0.98653513 -0.87644136 0.51846677
-12.92582893 -10.44785500 1.88959622 -0.78090411 -0.85816288 0.79032135
-13.94156647 -10.49725723 1.89267409 -0.84226912 -0.86222064 0.79160869
-15.23468304 -10.54951191 1.94538307 -0.92039180 -0.86651278 0.81365412
-14.59280014 -11.84162998 0.86333406 -0.88161290 -0.97264439 0.36108842
-13.12865162 -10.95801353 1.35882044 -0.79315752 -0.90006614 0.56832504
-13.72051239 -10.62060928 1.29215693 -0.82891434 -0.87235254 0.54044312
-14.77532005 -10.60656452 1.25941741 -0.89263970 -0.87119889 0.52674985
-16.08905602 -10.65837479 1.22495830 -0.97200811 -0.87545449 0.51233733
-12.91517258 -10.57420635 1.89831901 -0.78026032 -0.86854112 0.79396963
-15.01529503 -10.53753662 1.92437172 -0.90713763 -0.86552912 0.80486619
-13.08538246 -11.06218433 1.36178577 -0.79054344 -0.90862250 0.56956530
-13.59071350 -10.65748215 1.28558373 -0.82107264 -0.87538117 0.53769386
-14.65198994 -10.65807152 1.25405407 -0.88518882 -0.87542957 0.52450663
-15.86265945 -10.65264797 1.21143055 -0.95833051 -0.87498409 0.50667936
-13.52379036 -10.45207310 1.85081816 -0.81702954 -0.85850936 0.77410251
-14.79666519 -10.52322578 1.90336037 -0.89392924 -0.86435366 0.79607821
-13.04887962 -11.17273045 1.36562335 -0.78833812 -0.91770250 0.57117033
-13.54222870 -10.75751972 1.28755569 -0.81814343 -0.88359803 0.53851861
-14.25914764 -10.50937748 1.22294664 -0.86145556 -0.86321622 0.51149595
-15.66998482 -10.66691875 1.20072114 -0.94669020 -0.87615627 0.50220019
-13.43280125 -10.51727390 1.84711826 -0.81153250 -0.86386478 0.77255499
-14.59653568 -10.51939011 1.88480771 -0.88183862 -0.86403859 0.78831857
-13.02202988 -11.29240322 1.37068200 -0.78671604 -0.92753214 0.57328612
-13.51633930 -10.87608528 1.29199266 -0.81657934 -0.89333671 0.54037440
-14.15931034 -10.57366753 1.21972871 -0.85542399 -0.86849684 0.51015007
-15.46461487 -10.67014313 1.18888438 -0.93428296 -0.87642109 0.49724948
-12.71693134 -10.78420258 1.89613831 -0.76828372 -0.88578969 0.79305756
-13.25050259 -10.47589207 1.82746220 -0.80051905 -0.86046576 0.76433390
-14.41996193 -10.49551582 1.86714923 -0.87117106 -0.86207765 0.78093296
-15.66781998 -10.53673458 1.85554385 -0.94655943 -0.86546326 0.77607900
-13.03006935 -11.40752316 1.37783372 -0.78720170 -0.93698782 0.57627732
-13.49590683 -10.96475983 1.29527926 -0.81534493 -0.90062028 0.54174900
-15.86624050 -11.05724907 1.22777665 -0.95854688 -0.90821713 0.51351613
-12.66547108 -10.87814045 1.89880359 -0.76517481 -0.89350557 0.79417235
-13.07732487 -10.47338295 1.81150603 -0.79005665 -0.86025971 0.75766021
-14.24825382 -10.50793457 1.85239661 -0.86079741 -0.86309767 0.77476269
-15.44999981 -10.53206730 1.83621812 -0.93339998 -0.86507988 0.76799601
-13.03855610 -11.56063843 1.38725317 -0.78771442 -0.94956434 0.58021700
-13.46988297 -11.08475304 1.29988050 -0.81377274 -0.91047621 0.54367346
-13.85221291 -10.58321762 1.20134008 -0.83687091 -0.86928123 0.50245905
-16.46098900 -10.74504948 1.14516795 -0.99447811 -0.88257378 0.47896513
-12.77941895 -11.11668587 1.92836380 -0.77205890 -0.91309911 0.80653584
-13.03905773 -10.57783699 1.81566858 -0.78774476 -0.86883932 0.75940120
-14.05310059 -10.50074005 1.83429110 -0.84900737 -0.86250675 0.76719004
-15.24432755 -10.53298378 1.81836283 -0.92097443 -0.86515516 0.76052809
-13.09153652 -11.75562763 1.40208018 -0.79091525 -0.96558034 0.58641833
-13.45207787 -11.21249771 1.30546772 -0.81269705 -0.92096889 0.54601032
-15.03766632 -10.76414871 1.16802919 -0.90848917 -0.88414252 0.48852682
-16.22849655 -10.73905659 1.13226938 -0.98043227 -0.88208151 0.47357032
-12.77777004 -11.25721169 1.93950939 -0.77195925 -0.92464161 0.81119746
-12.88015461 -10.58399200 1.80179369 -0.77814472 -0.86934489 0.75359803
-13.86335659 -10.49511623 1.81685615 -0.83754414 -0.86204481 0.75989789
-15.03762722 -10.53059769 1.80029738 -0.90848678 -0.86495918 0.75297225
-13.16908169 -11.97589302 1.42004693 -0.79560006 -0.98367244 0.59393293
-13.44996738 -11.35457897 1.31286263 -0.81256956 -0.93263912 0.54910320
-15.02953720 -10.90169621 1.17324293 -0.90799809 -0.89544034 0.49070746
-12.78077602 -11.40344810 1.95162427 -0.77214086 -0.93665314 0.81626451
-12.82256985 -10.67232513 1.80318117 -0.77466583 -0.87660033 0.75417835
-14.84617424 -10.53637600 1.78412259 -0.89692032 -0.86543381 0.74620712
-13.55123615 -11.58633137 1.33159637 -0.81868762 -0.95167470 0.55693859
-15.10422325 -12.00007153 1.34415817 -0.91251016 -0.98565841 0.56219256
-15.01705265 -11.03720474 1.17817497 -0.90724379 -0.90657073 0.49277028
-15.91250420 -10.81963062 1.11806786 -0.96134186 -0.88869971 0.46763054
-12.77067375 -11.53950119 1.96180069 -0.77153057 -0.94782817 0.82052082
-12.73853588 -10.73861599 1.80063736 -0.76958895 -0.88204533 0.75311440
-13.48734283 -10.47919941 1.78220963 -0.81482756 -0.86073744 0.74540704
-14.63423920 -10.52509594 1.76521695 -0.88411641 -0.86450726 0.73829991
-13.41632938 -11.61782074 1.32485878 -0.81053734 -0.95426118 0.55412060
-14.97623253 -11.15275860 1.18071139 -0.90477771 -0.91606206 0.49383113
-15.88690376 -10.94888783 1.12145543 -0.95979524 -0.89931655 0.46904740
-12.78061962 -11.65849781 1.97246182 -0.77213138 -0.95760232 0.82497978
-12.69990540 -10.80881119 1.80248737 -0.76725513 -0.88781101 0.75388819
-13.34407902 -10.46892262 1.76879811 -0.80617237 -0.85989332 0.73979771
-14.46529961 -10.50757599 1.74967229 -0.87391007 -0.86306822 0.73179835
-15.67325115 -10.53224564 1.76261139 -0.94688755 -0.86509454 0.73721009
-13.45005989 -11.75821495 1.33455431 -0.81257516 -0.96579283 0.55817574
-14.16711998 -10.65565491 1.11391830 -0.85589576 -0.87523109 0.46589500
-15.85968304 -11.04076099 1.12340975 -0.95815068 -0.90686280 0.46986479
-12.64529800 -10.90005016 1.80456865 -0.76395607 -0.89530516 0.75475866
-13.21119595 -10.49930573 1.75918663 -0.79814434 -0.86238891 0.73577768
-14.25951958 -10.49584198 1.73139691 -0.86147803 -0.86210442 0.72415471
-15.48022079 -10.54411888 1.74718475 -0.93522578 -0.86606979 0.73075795
-13.48198128 -11.93618202 1.34622180 -0.81450367 -0.98041064 0.56305563
-15.82626820 -12.05687237 1.26709151 -0.95613194 -0.99032390 0.52995950
-12.64324665 -11.82768440 1.97415793 -0.76383215 -0.97149891 0.82568920
-12.62000847 -11.01712227 1.81127477 -0.76242822 -0.90492117 0.75756353
-12.99339581 -10.45978642 1.73728108 -0.78498614 -0.85914290 0.72661573
-14.07680225 -10.49856091 1.71606231 -0.85043931 -0.86232775 0.71774101
-15.25330067 -10.53020668 1.72755098 -0.92151654 -0.86492705 0.72254616
-15.19541454 -11.72879124 1.21763086 -0.91801941 -0.96337605 0.50927263
-16.39231110 -10.82659531 1.03230000 -0.99032903 -0.88927174 0.43175822
-12.47455120 -11.02918243 1.79948115 -0.75364053 -0.90591180 0.75263083
-12.93819046 -10.55002403 1.73884583 -0.78165096 -0.86655480 0.72727019
-13.86761951 -10.47904968 1.69715667 -0.83780169 -0.86072516 0.70983374
-13.42540550 -10.44676685 2.25886798 -0.81108564 -0.85807353 0.94476885
-15.04509449 -10.52643299 1.71012092 -0.90893793 -0.86461711 0.71525604
-15.14815998 -11.84489822 1.22002637 -0.91516459 -0.97291279 0.51027459
-15.87969875 -11.50541592 1.14204097 -0.95935994 -0.94502854 0.47765726
-16.11644936 -10.79075146 1.01743209 -0.97366303 -0.88632762 0.42553976
-12.60502625 -11.28599930 1.83069968 -0.76152307 -0.92700613 0.76568794
-12.87470913 -10.63364315 1.73929286 -0.77781576 -0.87342310 0.72745717
-13.81573009 -10.57683945 1.69904721 -0.83466685 -0.86875737 0.71062446
-13.27387905 -10.46358681 2.24351287 -0.80193132 -0.85945505 0.93834656
-14.84403229 -10.52507305 1.69349217 -0.89679092 -0.86450541 0.70830107
-16.14990997 -10.56954288 1.65605438 -0.97568452 -0.86815804 0.69264275
-15.00976372 -11.01831913 1.07741773 -0.90680343 -0.90501952 0.45062867
-15.85657024 -10.76194859 1.00363457 -0.95796263 -0.88396180 0.41976896
-12.60900307 -11.43294144 1.84249330 -0.76176333 -0.93907565 0.77062064
-12.80002880 -10.70794106 1.73817527 -0.77330399 -0.87952578 0.72698975
-13.78360939 -10.69021320 1.70366859 -0.83272630 -0.87806964 0.71255738
-13.21716785 -10.55418491 2.24518800 -0.79850513 -0.86689657 0.93904722
-14.65004444 -10.52625751 1.67766488 -0.88507128 -0.86460268 0.70168132
-16.01675987 -10.62683773 1.64864850 -0.96764034 -0.87286413 0.68954527
-13.95687771 -12.08722210 1.28056431 -0.84319413 -0.99281675 0.53559446
-15.08221817 -12.10164738 1.22763574 -0.91118073 -0.99400163 0.51345718
-14.98823929 -11.14819527 1.08132637 -0.90550309 -0.91568720 0.45226347
-12.60137367 -11.57098293 1.85266817 -0.76130241 -0.95041406 0.77487624
-12.74764442 -10.80102062 1.74041045 -0.77013922 -0.88717109 0.72792459
-13.74121475 -10.79623795 1.70702958 -0.83016503 -0.88677824 0.71396309
-14.45181084 -10.52190495 1.66123652 -0.87309515 -0.86424518 0.69481021
-15.69666958 -10.55749035 1.62032080 -0.94830233 -0.86716807 0.67769724
-13.88065624 -12.17467594 1.28056431 -0.83858931 -1.00000000 0.53559446
-14.95784950 -12.15721607 1.22326732 -0.90366709 -0.99856591 0.51163012
-14.22992325 -10.72251415 1.02504158 -0.85969001 -0.88072276 0.42872241
-12.71169090 -10.87390995 1.74264574 -0.76796716 -0.89315808 0.72885948
-13.18331909 -10.45971775 1.63875926 -0.79646021 -0.85913724 0.68540913
-14.27231789 -10.49425697 1.64500856 -0.86225122 -0.86197424 0.68802285
-15.49344730 -10.52742195 1.60310197 -0.93602484 -0.86469835 0.67049551
-12.67462921 -10.98093319 1.74733973 -0.76572806 -0.90194869 0.73082274
-13.06768131 -10.50253296 1.63203728 -0.78947401 -0.86265403 0.68259764
-14.11840725 -10.51823711 1.63398957 -0.85295284 -0.86394393 0.68341416
-15.28748417 -10.52870369 1.58736432 -0.92358172 -0.86480361 0.66391325
-13.67225361 -10.48983574 2.19280457 -0.82599878 -0.86161107 0.91713792
-15.17555428 -11.70080757 1.11285627 -0.91681957 -0.96107751 0.46545079
-15.05381775 -10.74459171 0.96378851 -0.90946496 -0.88253617 0.40310338
-12.61881542 -11.07216644 1.74935150 -0.76235616 -0.90944237 0.73166418
-12.96901131 -10.55810165 1.62762594 -0.78351295 -0.86721832 0.68075264
-13.90128708 -10.49267197 1.61495674 -0.83983570 -0.86184406 0.67545372
-15.06904888 -10.51871204 1.57014549 -0.91038513 -0.86398292 0.65671146
-13.46536922 -10.46590042 2.16866732 -0.81350005 -0.85964507 0.90704250
-15.13473797 -11.82176018 1.11559236 -0.91435367 -0.97101229 0.46659517
-12.59797192 -11.19485855 1.75672781 -0.76109689 -0.91952002 0.73474932
-12.81025410 -10.56356907 1.61502218 -0.77392173 -0.86766738 0.67548108
-13.69610596 -10.47327232 1.59732640 -0.82743984 -0.86025059 0.66807985
-14.86599159 -10.51672935 1.55459309 -0.89811760 -0.86382008 0.65020669
-14.11267376 -12.03436565 1.17183387 -0.85260648 -0.98847526 0.49011812
-14.96918392 -10.97061920 0.96759468 -0.90435189 -0.90110153 0.40469533
-12.58788872 -11.32837486 1.76589239 -0.76048774 -0.93048674 0.73858237
-13.54044533 -10.48954964 1.58590662 -0.81803572 -0.86158758 0.66330355
-14.67327881 -10.51956558 1.54015148 -0.88647497 -0.86405301 0.64416653
-13.19502163 -10.52412701 2.14479804 -0.79716718 -0.86442769 0.89705920
-14.05794048 -12.14103222 1.17380667 -0.84929979 -0.99723661 0.49094322
-15.07990265 -12.08725166 1.12354004 -0.91104084 -0.99281919 0.46991929
-14.53581333 -10.79466724 0.94059449 -0.87817013 -0.88664925 0.39340252
-12.66466236 -11.54263496 1.78846836 -0.76512593 -0.94808561 0.74802476
-12.77074432 -10.80323696 1.62804604 -0.77153480 -0.88735312 0.68092829
-13.35384560 -10.47967911 1.57047999 -0.80676240 -0.86077684 0.65685135
-14.47950935 -10.51922989 1.52552474 -0.87476856 -0.86402547 0.63804889
-13.17946243 -10.64798927 2.15364838 -0.79622722 -0.87460142 0.90076089
-14.93864059 -12.12885857 1.11806786 -0.90250659 -0.99623668 0.46763054
-14.36072636 -10.80548191 0.93262523 -0.86759233 -0.88753754 0.39006940
-12.72423553 -10.86716652 1.62867630 -0.76872504 -0.89260417 0.68119192
-13.22017193 -10.47565269 1.55966139 -0.79868662 -0.86044610 0.65232652
-14.31729221 -10.50501060 1.51256442 -0.86496830 -0.86285752 0.63262826
-12.60815430 -11.74766159 1.79942107 -0.76171207 -0.96492600 0.75260574
-12.61956310 -10.91571617 1.62363470 -0.76240128 -0.89659190 0.67908329
-13.09362793 -10.50985718 1.55184793 -0.79104155 -0.86325562 0.64905852
-14.14543819 -10.51646519 1.50034463 -0.85458589 -0.86379838 0.62751734
-12.98679543 -10.73031044 2.14050698 -0.78458738 -0.88136315 0.89526451
-13.68878365 -10.48817635 2.07241321 -0.82699746 -0.86147481 0.86678433
-13.31361485 -11.99782848 2.38729215 -0.80433190 -0.98547417 0.99848211
-13.08594894 -10.63969421 1.55946100 -0.79057765 -0.87392014 0.65224272
-13.95172024 -10.50942993 1.48553276 -0.84288257 -0.86322051 0.62132227
-12.88571453 -10.78367233 2.13460684 -0.77848065 -0.88574612 0.89279675
-13.52850437 -10.50110626 2.05714989 -0.81731433 -0.86253685 0.86040050
-14.27056026 -12.00059700 1.07911146 -0.86214507 -0.98570156 0.45133707
-15.12046623 -11.79001999 1.00422931 -0.91349149 -0.96840525 0.42001772
-13.25700474 -12.09857655 2.39092135 -0.80091184 -0.99374938 1.00000000
-13.76816177 -10.50761700 1.47183168 -0.83179301 -0.86307162 0.61559182
-12.78447723 -10.83618927 2.12870646 -0.77236450 -0.89005977 0.89032894
-13.38733673 -10.52713108 2.04493928 -0.80878574 -0.86467445 0.85529339
-14.20246696 -12.09650230 1.07976294 -0.85803121 -0.99357897 0.45160955
-12.60708237 -11.32686520 1.65136302 -0.76164728 -0.93036276 0.69068062
-12.82145882 -10.69478893 1.54243171 -0.77459866 -0.87844545 0.64512020
-13.58518124 -10.50391483 1.45813072 -0.82073838 -0.86276752 0.60986143
-12.72064686 -10.92018032 2.12951112 -0.76850820 -0.89695859 0.89066547
-13.15319157 -10.47775078 2.01746559 -0.79464006 -0.86061847 0.84380257
-15.02884483 -12.02518272 1.00863028 -0.90795624 -0.98772097 0.42185840
-12.63875580 -11.49942684 1.66606736 -0.76356083 -0.94453657 0.69683069
-12.76615715 -10.78542519 1.54403448 -0.77125770 -0.88589013 0.64579058
-13.42319489 -10.51427269 1.44683671 -0.81095213 -0.86361825 0.60513771
-12.73993397 -11.07672024 2.14533448 -0.76967341 -0.90981644 0.89728361
-13.01446819 -10.50172520 2.00550938 -0.78625917 -0.86258763 0.83880192
-14.21408558 -11.52178383 0.95201308 -0.85873318 -0.94637293 0.39817834
-12.65188122 -11.62066746 1.67573023 -0.76435375 -0.95449501 0.70087218
-12.77266312 -10.89460659 1.55164754 -0.77165073 -0.89485806 0.64897472
-13.31408978 -10.53053761 1.43980110 -0.80436063 -0.86495423 0.60219508
-12.93096733 -10.53541279 1.99991298 -0.78121454 -0.86535466 0.83646119
-14.31117916 -11.71238613 0.96366954 -0.86459899 -0.96202856 0.40305364
-12.59173870 -11.71210766 1.67762089 -0.76072031 -0.96200567 0.70166296
-12.67838573 -10.95249844 1.54824173 -0.76595503 -0.89961314 0.64755028
-13.17765903 -10.55803585 1.43146944 -0.79611826 -0.86721289 0.59871036
-13.50814533 -12.00990105 2.30678654 -0.81608433 -0.98646575 0.96481073
-12.85532665 -10.60888767 1.99838662 -0.77664477 -0.87138975 0.83582282
-14.32345772 -11.87333107 0.97033036 -0.86534083 -0.97524822 0.40583950
-12.77009869 -12.02798271 1.71417177 -0.77149582 -0.98795098 0.71695030
-13.05688953 -10.59676838 1.42498922 -0.78882205 -0.87039429 0.59600002
-13.36326408 -12.03213024 2.29418135 -0.80733144 -0.98829162 0.95953858
-12.76708603 -10.67166424 1.99482524 -0.77131379 -0.87654608 0.83433330
-14.34804916 -12.04642773 0.97806174 -0.86682647 -0.98946601 0.40907314
-12.59331512 -11.15852451 1.55545413 -0.76081556 -0.91653568 0.65056682
-12.98081112 -10.67102051 1.42387831 -0.78422582 -0.87649322 0.59553540
-13.19962025 -12.03563309 2.27809000 -0.79744500 -0.98857933 0.95280844
-12.74070358 -10.78622913 2.00169373 -0.76971990 -0.88595617 0.83720601
-12.58657265 -11.29465485 1.56406903 -0.76040822 -0.92771709 0.65416998
-12.91963577 -10.75746059 1.42461884 -0.78052998 -0.88359320 0.59584510
-13.16155720 -12.15333271 2.28506279 -0.79514545 -0.99824691 0.95572478
-12.68021774 -10.87251568 2.00296569 -0.76606572 -0.89304352 0.83773798
-12.57567215 -11.42845917 1.57228315 -0.75974965 -0.93870747 0.65760553
-12.89445877 -10.87432003 1.42980301 -0.77900892 -0.89319175 0.59801340
-12.62664795 -10.96496105 2.00550938 -0.76282930 -0.90063679 0.83880192
-12.58905506 -11.54955578 1.58149910 -0.76055819 -0.94865406 0.66146010
-12.83396435 -10.92722702 1.42869222 -0.77535421 -0.89753741 0.59754884
-12.61963463 -11.06351852 2.01314116 -0.76240563 -0.90873206 0.84199387
-12.68661880 -11.78709984 1.60493946 -0.76645243 -0.96816540 0.67126399
-12.81940269 -11.05440140 1.43535745 -0.77447444 -0.90798324 0.60033655
-12.60630322 -11.19257259 2.02280784 -0.76160020 -0.91933227 0.84603697
-12.84104443 -12.08229637 1.63659406 -0.77578193 -0.99241215 0.68450350
-12.77521896 -11.15696812 1.43850505 -0.77180511 -0.91640782 0.60165304
-12.58446217 -11.31527042 2.03120255 -0.76028073 -0.92941040 0.84954804
-12.76160908 -11.28708267 1.44554067 -0.77098292 -0.92709512 0.60459566
-12.58506870 -11.45947552 2.04366755 -0.76031733 -0.94125509 0.85476154
-12.76023102 -11.42940712 1.45424259 -0.77089965 -0.93878531 0.60823524
-12.59457684 -11.61353302 2.05791306 -0.76089180 -0.95390898 0.86071968
-12.76051903 -11.57483006 1.46331489 -0.77091706 -0.95073003 0.61202973
-12.62296391 -11.78709126 2.07572007 -0.76260674 -0.96816468 0.86816746
-12.79404831 -11.71542263 1.47442377 -0.77294272 -0.96227801 0.61667597
-12.85613346 -11.92134762 1.49164259 -0.77669352 -0.97919220 0.62387770
