1.03548563 -10.65254021 2.39602566 0.18839556 -0.89964908 0.85666513
1.08766723 -10.50617409 2.36413765 0.19788945 -0.88728786 0.84526402
1.16449547 -10.59604549 2.38628221 0.21186751 -0.89487785 0.85318148
1.00713992 -10.93062973 1.87881100 0.18323836 -0.92313486 0.67174232
1.22967541 -10.57689857 2.38362479 0.22372632 -0.89326084 0.85223132
1.05651879 -10.73196125 1.84516311 0.19222231 -0.90635651 0.65971202
1.29321408 -10.54573917 2.37831020 0.23528649 -0.89062929 0.85033119
1.10625625 -10.71902561 1.84378970 0.20127152 -0.90526402 0.65922093
1.34389603 -10.54726505 2.38008165 0.24450754 -0.89075816 0.85096455
1.40646648 -10.51155567 2.37388134 0.25589156 -0.88774240 0.84874773
1.24109507 -10.70623398 1.84413302 0.22580400 -0.90418375 0.65934372
1.47330785 -10.50830460 2.37520981 0.26805264 -0.88746780 0.84922272
1.31173956 -10.72559929 1.84893990 0.23865701 -0.90581924 0.66106230
1.54045045 -10.50655651 2.37698150 0.28026852 -0.88732016 0.84985614
0.98475105 -10.74673367 2.35382318 0.17916495 -0.90760410 0.84157622
1.37221515 -10.66439533 1.83966947 0.24965990 -0.90065026 0.65774781
1.63810086 -10.70096684 2.42392778 0.29803497 -0.90373892 0.86664110
1.04515874 -10.66646957 2.33740211 0.19015548 -0.90082544 0.83570510
1.43812430 -10.64775467 1.83829618 0.26165137 -0.89924490 0.65725684
1.66675937 -10.45171261 2.36900949 0.30324906 -0.88268840 0.84700584
1.10937178 -10.63249588 2.33135223 0.20183836 -0.89795625 0.83354205
1.49077404 -10.65841675 1.84138620 0.27123043 -0.90014535 0.65836161
1.71567333 -10.44181824 2.36856651 0.31214845 -0.88185281 0.84684747
1.16008806 -10.63297462 2.33264852 0.21106564 -0.89799666 0.83400548
1.55829072 -10.65273762 1.84207296 0.28351435 -0.89966577 0.65860713
1.01162767 -10.82421780 1.80354416 0.18405485 -0.91414791 0.64483172
1.22467065 -10.60607338 2.32832718 0.22281575 -0.89572477 0.83246046
1.62248278 -10.62521172 1.83898282 0.29519343 -0.89734107 0.65750229
1.07692742 -10.79017067 1.79887760 0.19593544 -0.91127253 0.64316326
1.83367562 -10.34648323 2.35173678 0.33361772 -0.87380135 0.84083027
1.29058850 -10.59235191 2.32703090 0.23480880 -0.89456594 0.83199698
1.68795705 -10.60702705 1.83760941 0.30710575 -0.89580530 0.65701127
1.14183950 -10.75573158 1.79421103 0.20774551 -0.90836400 0.64149481
1.93069875 -10.50733757 2.39159679 0.35127002 -0.88738614 0.85508162
1.35393572 -10.55884838 2.32141304 0.24633415 -0.89173645 0.82998842
1.75684810 -10.60981369 1.84001291 0.31963974 -0.89604068 0.65787059
1.20874631 -10.74246502 1.79321110 0.21991849 -0.90724361 0.64113730
1.99962509 -10.51032162 2.39513993 0.36381045 -0.88763815 0.85634845
1.42050850 -10.55206871 2.32184505 0.25844637 -0.89116389 0.83014286
1.80314422 -10.58005905 1.83623600 0.32806283 -0.89352775 0.65652025
1.25799906 -10.72489548 1.79121113 0.22887950 -0.90575975 0.64042222
2.00613236 -10.28264046 2.34465051 0.36499438 -0.86840957 0.83829665
1.46649480 -10.51817417 2.31579518 0.26681307 -0.88830131 0.82797986
1.87305367 -10.58791637 1.83966947 0.34078211 -0.89419132 0.65774781
1.32750547 -10.73439693 1.79421103 0.24152544 -0.90656221 0.64149481
1.53144062 -10.50102043 2.31406665 0.27862927 -0.88685262 0.82736182
0.92020309 -10.77499866 2.27863884 0.16742113 -0.90999120 0.81469512
1.93990111 -10.57787609 1.84001291 0.35294428 -0.89334339 0.65787059
1.39517570 -10.72780037 1.79454434 0.25383732 -0.90600508 0.64161396
2.16607857 -10.40358448 2.37875295 0.39409488 -0.87862378 0.85048950
1.63541102 -10.74416065 2.37067652 0.29754558 -0.90738678 0.84760189
0.98077524 -10.69306183 2.26232529 0.17844158 -0.90307128 0.80886245
2.00521135 -10.55967331 1.83898282 0.36482680 -0.89180613 0.65750229
1.46176362 -10.71295929 1.79354441 0.26595229 -0.90475172 0.64125645
2.26611042 -10.54987907 2.41595578 0.41229460 -0.89097893 0.86379081
1.66720665 -10.50602722 2.31968451 0.30333045 -0.88727546 0.82937038
1.04696918 -10.67695808 2.26023388 0.19048487 -0.90171129 0.80811465
2.07535386 -10.56619263 1.84241629 0.37758848 -0.89235669 0.65872991
1.52849543 -10.69965839 1.79287779 0.27809343 -0.90362841 0.64101809
2.30769324 -10.42503357 2.39026809 0.41986015 -0.88043523 0.85460657
1.72815299 -10.46450806 2.31277037 0.31441900 -0.88376904 0.82689834
1.11051810 -10.63710690 2.25312281 0.20204692 -0.89834565 0.80557221
2.13695526 -10.52978134 1.83829618 0.38879621 -0.88928163 0.65725684
1.59454286 -10.68203926 1.79154444 0.29011005 -0.90214038 0.64054137
2.36921573 -10.39322090 2.38628221 0.43105352 -0.87774855 0.85318148
1.78505111 -10.40146160 2.30110264 0.32477099 -0.87844449 0.82272673
1.17798769 -10.63574982 2.25437760 0.21432228 -0.89823109 0.80602086
2.18938422 -10.53309250 1.84069955 0.39833510 -0.88956124 0.65811610
1.64634621 -10.68415451 1.79321110 0.29953513 -0.90231901 0.64113730
2.41593599 -10.37244797 2.38406777 0.43955377 -0.87599421 0.85238975
1.85586429 -10.51797390 2.32919145 0.33765468 -0.88828444 0.83276945
1.06278348 -11.18319798 1.78411496 0.19336210 -0.94446522 0.63788509
1.22490013 -10.60288715 2.24852157 0.22285751 -0.89545566 0.80392712
2.25843906 -10.53260899 1.84310293 0.41089886 -0.88952041 0.65897542
1.71869516 -10.70670986 1.79887760 0.31269825 -0.90422392 0.64316326
2.48655558 -10.37981319 2.38938236 0.45240223 -0.87661618 0.85428989
1.12674487 -11.11541939 1.77420962 0.20499919 -0.93874103 0.63434356
1.29053402 -10.58721828 2.24684834 0.23479889 -0.89413238 0.80332887
2.32285714 -10.51051807 1.84172964 0.42261904 -0.88765472 0.65848440
1.77918923 -10.65484047 1.79187775 0.32370448 -0.89984334 0.64066058
2.54843521 -10.35073471 2.38628221 0.46366057 -0.87416041 0.85318148
1.99004579 -10.50533867 2.33178425 0.36206758 -0.88721734 0.83369648
1.19269204 -11.07279491 1.76845801 0.21699758 -0.93514127 0.63228714
1.35576677 -10.56920338 2.24475694 0.24666730 -0.89261097 0.80258113
2.39634538 -10.52836227 1.84756649 0.43598947 -0.88916177 0.66057128
1.84843349 -10.65705681 1.79421103 0.33630273 -0.90003055 0.64149481
2.62112832 -10.36475658 2.39336848 0.47688630 -0.87534463 0.85571510
1.25564742 -11.00820827 1.75919175 0.22845164 -0.92968667 0.62897414
1.41950071 -10.54109859 2.24057388 0.25826299 -0.89023739 0.80108553
2.46335530 -10.51693249 1.84825313 0.44818121 -0.88819647 0.66081679
1.91501129 -10.64329052 1.79387772 0.34841585 -0.89886791 0.64137560
2.68669343 -10.34996986 2.39381123 0.48881519 -0.87409580 0.85587335
2.11652470 -10.45269680 2.32573438 0.38507909 -0.88277149 0.83153343
1.32167304 -10.97462463 1.75503778 0.24046430 -0.92685038 0.62748897
1.48791897 -10.54745960 2.24392033 0.27071097 -0.89077461 0.80228198
0.94306403 -10.76442623 2.17946267 0.17158043 -0.90909827 0.77923608
2.52892113 -10.49933243 1.84790981 0.46011019 -0.88671011 0.66069400
1.97862697 -10.61359406 1.79087782 0.35999006 -0.89635992 0.64030308
2.75318718 -10.33853626 2.39513993 0.50091302 -0.87313020 0.85634845
2.18493009 -10.45257759 2.32875943 0.39752471 -0.88276142 0.83261502
1.38808239 -10.94652271 1.75184250 0.25254676 -0.92447704 0.62634653
1.55069232 -10.51469135 2.23890066 0.28213191 -0.88800722 0.80048728
1.00565147 -10.70365810 2.16822386 0.18296754 -0.90396619 0.77521777
2.58310986 -10.50642300 1.85134327 0.46996927 -0.88730890 0.66192162
2.03192210 -10.62159061 1.79387772 0.36968654 -0.89703524 0.64137560
2.80187559 -10.32544708 2.39513993 0.50977135 -0.87202477 0.85634845
2.25845742 -10.55678463 2.35468745 0.41090220 -0.89156216 0.84188521
1.43625546 -10.91441917 1.74768865 0.26131135 -0.92176580 0.62486136
1.59843516 -10.49567032 2.23639083 0.29081821 -0.88640082 0.79958993
1.05381453 -10.67539883 2.16340709 0.19173031 -0.90157956 0.77349561
2.65053034 -10.49571419 1.85237336 0.48223570 -0.88640451 0.66228992
2.87511516 -10.33768749 2.40222621 0.52309650 -0.87305850 0.85888201
2.29305720 -10.39739799 2.32184505 0.41719729 -0.87810129 0.83014286
1.49413788 -10.82892418 1.73522699 0.27184245 -0.91454542 0.62040585
1.11966264 -10.65687275 2.16099882 0.20371066 -0.90001500 0.77263457
2.71592593 -10.47694683 1.85203004 0.49413374 -0.88481951 0.66216713
2.94592881 -10.34004021 2.40709805 0.53598028 -0.87325722 0.86062390
2.36220026 -10.39993095 2.32573438 0.42977712 -0.87831521 0.83153343
1.74277270 -10.54998684 2.25270438 0.31707889 -0.89098805 0.80542260
1.18446648 -10.63015079 2.15698481 0.21550103 -0.89775819 0.77119941
2.78323054 -10.46538544 1.85306001 0.50637907 -0.88384312 0.66253543
3.01138830 -10.32319736 2.40754080 0.54788995 -0.87183475 0.86078221
2.42882061 -10.39059067 2.32703090 0.44189799 -0.87752640 0.83199698
1.61459851 -10.70780563 1.71861148 0.29375896 -0.90431648 0.61446524
1.79765093 -10.47331238 2.23848248 0.32706338 -0.88451260 0.80033779
1.24988079 -10.61082077 2.15457654 0.22740246 -0.89612573 0.77033842
2.85623789 -10.47428989 1.85786688 0.51966196 -0.88459516 0.66425407
3.08124423 -10.32088280 2.41152692 0.56059951 -0.87163931 0.86220735
2.49994445 -10.39981937 2.33264852 0.45483822 -0.87830579 0.83400548
1.68277621 -10.70329952 1.71957016 0.30616316 -0.90393591 0.61480802
1.86758053 -10.48490810 2.24350190 0.33978635 -0.88549191 0.80213237
1.31652546 -10.60275841 2.15457654 0.23952775 -0.89544481 0.77033842
2.92092538 -10.45234394 1.85718024 0.53143120 -0.88274169 0.66400856
3.14545774 -10.29945469 2.41108394 0.57228243 -0.86982960 0.86204898
2.56477404 -10.38200951 2.33221650 0.46663326 -0.87680167 0.83385104
1.74967086 -10.69056702 1.71925056 0.31833392 -0.90286058 0.61469376
1.93055201 -10.45758629 2.24015570 0.35124332 -0.88318443 0.80093598
1.38236833 -10.58844757 2.15337229 0.25150716 -0.89423621 0.76990783
2.97449040 -10.45361614 1.85992694 0.54117680 -0.88284916 0.66499060
3.20385122 -10.31616402 2.41861320 0.58290654 -0.87124079 0.86474097
2.61603785 -10.37928009 2.33437705 0.47596017 -0.87657118 0.83462352
1.79870248 -10.67441845 1.71797252 0.32725471 -0.90149677 0.61423677
1.98312068 -10.46566010 2.24392033 0.36080763 -0.88386631 0.80228198
1.43095422 -10.57210445 2.15136528 0.26034683 -0.89285594 0.76919025
3.04233193 -10.44228268 1.86130035 0.55351985 -0.88189203 0.66548163
3.27038670 -10.30140305 2.41994190 0.59501195 -0.86999416 0.86521602
2.68022943 -10.35885525 2.33351278 0.48763913 -0.87484622 0.83431453
1.86504805 -10.65901756 1.71733344 0.33932558 -0.90019614 0.61400831
2.04997826 -10.45874882 2.24517512 0.37297165 -0.88328266 0.80273062
1.49626684 -10.55514336 2.14975977 0.27222979 -0.89142352 0.76861620
3.10958195 -10.42862320 1.86233044 0.56575525 -0.88073838 0.66584992
3.33504748 -10.28065109 2.41994190 0.60677630 -0.86824155 0.86521602
2.75222683 -10.36824799 2.33956265 0.50073826 -0.87563950 0.83647758
1.93269563 -10.65097237 1.71797252 0.35163334 -0.89951664 0.61423677
2.13446259 -10.53763580 2.26525331 0.38834268 -0.88994497 0.80990928
1.56482458 -10.56104374 2.15297103 0.28470314 -0.89192182 0.76976436
0.94670969 -11.02148819 2.12635183 0.17224371 -0.93080819 0.76024705
3.17678022 -10.41452980 1.86336040 0.57798123 -0.87954813 0.66621816
3.40451193 -10.27429581 2.42348504 0.61941463 -0.86770487 0.86648279
2.81884551 -10.35640621 2.34085917 0.51285887 -0.87463939 0.83694112
1.99921072 -10.63667965 1.71765292 0.36373505 -0.89830959 0.61412251
2.23657918 -10.69432640 2.30248165 0.40692171 -0.90317810 0.82321978
1.62701106 -10.52388668 2.14735150 0.29601729 -0.88878375 0.76775515
0.99222171 -10.76321983 2.07689667 0.18052414 -0.90899640 0.74256504
3.47528529 -10.27116489 2.42791390 0.63229108 -0.86744040 0.86806631
2.88907170 -10.35730934 2.34518051 0.52563578 -0.87471569 0.83848614
2.06486154 -10.61809635 1.71669436 0.37567952 -0.89674014 0.61377978
2.24674511 -10.41825199 2.24517512 0.40877128 -0.87986249 0.80273062
1.68910038 -10.48830128 2.14213347 0.30731377 -0.88577843 0.76588953
1.03540111 -10.68224239 2.06194520 0.18838018 -0.90215755 0.73721933
3.53193235 -10.27863693 2.43367147 0.64259738 -0.86807150 0.87012482
2.94102693 -10.35485649 2.34777331 0.53508848 -0.87450850 0.83941317
1.61785388 -11.21538925 1.69658768 0.29435125 -0.94718391 0.60659093
2.29751468 -10.41518497 2.24684834 0.41800827 -0.87960351 0.80332887
1.73945725 -10.48602581 2.14333749 0.31647569 -0.88558626 0.76632005
1.08894598 -10.54668427 2.03664255 0.19812210 -0.89070910 0.72817278
3.59449840 -10.25072384 2.43234277 0.65398061 -0.86571407 0.86964977
3.01144767 -10.35493469 2.35209465 0.54790074 -0.87451512 0.84095818
1.66704273 -11.06224918 1.67454660 0.30330062 -0.93425059 0.59871048
2.37208486 -10.44057751 2.25563264 0.43157551 -0.88174802 0.80646956
1.80958617 -10.49999905 2.14855576 0.32923490 -0.88676637 0.76818573
1.16498315 -10.62742138 2.05389428 0.21195625 -0.89752769 0.73434085
3.66939998 -10.25729942 2.43942904 0.66760814 -0.86626941 0.87218338
3.07921767 -10.34517193 2.35425544 0.56023079 -0.87369061 0.84173077
2.43584228 -10.41785240 2.25395942 0.44317549 -0.87982875 0.80587131
1.93045783 -10.79905033 2.21317959 0.35122618 -0.91202241 0.79129106
1.23518157 -10.64913273 2.05964494 0.22472809 -0.89936131 0.73639691
2.39583373 -10.77188301 1.47221172 0.43589637 -0.90972805 0.52636850
3.74452591 -10.26333714 2.44651508 0.68127650 -0.86677933 0.87471688
3.14641833 -10.33309746 2.35598397 0.57245725 -0.87267089 0.84234875
2.31828284 -10.58385181 1.71957016 0.42178681 -0.89384806 0.61480802
2.50125098 -10.40234280 2.25395942 0.45507592 -0.87851894 0.80587131
1.98802531 -10.73081875 2.20153928 0.36169997 -0.90626001 0.78712922
1.30013049 -10.62557793 2.05657792 0.23654486 -0.89737201 0.73530036
2.46613979 -10.76818562 1.47394586 0.44868782 -0.90941578 0.52698851
1.72224545 -10.45139885 2.70567155 0.31334418 -0.88266188 0.96737462
3.02234864 -10.50644588 1.81387722 0.54988408 -0.88731086 0.64852619
3.80688787 -10.23412704 2.44518661 0.69262260 -0.86431241 0.87424189
3.21589684 -10.32804871 2.35944104 0.58509809 -0.87224448 0.84358478
1.83263028 -10.77540112 1.63529527 0.33342752 -0.91002518 0.58467668
2.56939769 -10.39780807 2.25646925 0.46747449 -0.87813592 0.80676866
2.04736996 -10.67576790 2.19270873 0.37249711 -0.90161073 0.78397202
1.36483216 -10.60162830 2.05351090 0.24831665 -0.89534938 0.73420382
2.53695130 -10.76595592 1.47596884 0.46157122 -0.90922749 0.52771181
1.78981805 -10.45182610 2.70867705 0.32563829 -0.88269800 0.96844918
3.09107041 -10.49671268 1.81554377 0.56238729 -0.88648885 0.64912200
3.87875843 -10.23005199 2.45005822 0.70569867 -0.86396825 0.87598366
3.28308105 -10.31508636 2.36116958 0.59732157 -0.87114978 0.84420282
1.89689636 -10.74419785 1.63227594 0.34512004 -0.90738994 0.58359718
2.63516259 -10.38335323 2.25688744 0.47943971 -0.87691516 0.80691820
2.05287242 -10.34930992 2.12728190 0.37349823 -0.87404007 0.76057959
1.41424870 -10.59118938 2.05274415 0.25730744 -0.89446777 0.73392963
2.58858943 -10.75772858 1.47654688 0.47096622 -0.90853268 0.52791846
2.26887584 -11.18664360 1.46989727 0.41279775 -0.94475621 0.52554101
1.82476878 -10.36125088 2.68713737 0.33199719 -0.87504852 0.96074796
3.14050055 -10.48202991 1.81554377 0.57138056 -0.88524884 0.64912200
3.93747449 -10.23894596 2.45670176 0.71638143 -0.86471939 0.87835896
3.34061575 -10.32738686 2.36765146 0.60778940 -0.87218857 0.84652030
1.94785523 -10.73708534 1.63257790 0.35439146 -0.90678924 0.58370513
2.68801260 -10.38595963 2.26023388 0.48905519 -0.87713528 0.80811465
2.12172103 -10.43940258 2.14815426 0.38602448 -0.88164878 0.76804221
1.48131824 -10.58598137 2.05351090 0.26951003 -0.89402795 0.73420382
0.91508985 -10.71584129 1.96743822 0.16649082 -0.90499508 0.70342970
2.65565205 -10.73933125 1.47625780 0.48316753 -0.90697891 0.52781510
2.32503486 -11.10429859 1.46012592 0.42301527 -0.93780184 0.52204740
1.91013741 -10.46200180 2.71669173 0.34752911 -0.88355738 0.97131473
4.00744820 -10.22852135 2.46024489 0.72911239 -0.86383903 0.87962580
3.40056491 -10.29135132 2.36419439 0.61869645 -0.86914527 0.84528428
2.01564097 -10.72657871 1.63287985 0.36672434 -0.90590191 0.58381313
2.75169945 -10.36319828 2.25897884 0.50064236 -0.87521303 0.80766594
2.18567681 -10.41819191 2.14654875 0.39766055 -0.87985742 0.76746815
1.54607475 -10.56481457 2.05121088 0.28129178 -0.89224029 0.73338145
0.97360581 -10.61196232 1.94914174 0.17713718 -0.89622211 0.69688809
2.72749209 -10.73968792 1.47885895 0.49623805 -0.90700907 0.52874511
2.37983465 -11.01975536 1.45007527 0.43298551 -0.93066186 0.51845390
1.98117530 -10.47834206 2.72420549 0.36045370 -0.88493735 0.97400117
4.07889843 -10.22124100 2.46467376 0.74211204 -0.86322415 0.88120925
3.47633481 -10.30310726 2.37197304 0.63248199 -0.87013811 0.84806544
2.08598757 -10.72923374 1.63529527 0.37952316 -0.90612614 0.58467668
2.82296681 -10.36833763 2.26399851 0.51360869 -0.87564707 0.80946064
2.25930619 -10.44256973 2.15457654 0.41105664 -0.88191622 0.77033842
1.61452532 -10.56847095 2.05389428 0.29374564 -0.89254910 0.73434085
1.06435323 -10.85615826 1.99598062 0.19364771 -0.91684544 0.71363467
2.79743075 -10.73190975 1.48030400 0.50896263 -0.90635216 0.52926177
2.44134545 -10.96977520 1.44505000 0.44417673 -0.92644083 0.51665717
4.14894009 -10.20985508 2.46821690 0.75485533 -0.86226255 0.88247609
3.54226685 -10.28475666 2.37283731 0.64447761 -0.86858833 0.84837443
2.16995335 -10.79929447 1.64827847 0.39479986 -0.91204304 0.58931869
2.88911533 -10.35416126 2.26483512 0.52564371 -0.87444979 0.80975980
2.32571912 -10.43199444 2.15537930 0.42313975 -0.88102311 0.77062541
1.67777359 -10.53873920 2.05006075 0.30525300 -0.89003813 0.73297024
1.13715446 -10.89424419 2.00439715 0.20689312 -0.92006195 0.71664387
2.87046742 -10.73514080 1.48348308 0.52225089 -0.90662503 0.53039843
2.50407791 -10.92718220 1.44114149 0.45559025 -0.92284369 0.51525974
2.10509062 -10.41464710 2.71418715 0.38299876 -0.87955809 0.97041923
3.91750360 -10.15066338 1.86198711 0.71274793 -0.85726362 0.66572720
4.22723770 -10.21780109 2.47663164 0.76910079 -0.86293364 0.88548464
3.60939384 -10.26967144 2.37456584 0.65669066 -0.86731428 0.84899247
2.95519710 -10.33956242 2.26567173 0.53766656 -0.87321687 0.81005889
2.38991475 -10.41144371 2.15417504 0.43481946 -0.87928754 0.77019483
1.74233449 -10.51830959 2.04814386 0.31699917 -0.88831276 0.73228490
1.19153833 -10.75787544 1.98024571 0.21678768 -0.90854508 0.70800889
2.94102144 -10.72833920 1.48521709 0.53508747 -0.90605062 0.53101838
2.57133245 -10.90544796 1.44030392 0.46782649 -0.92100811 0.51496029
4.00510883 -10.18631458 1.87331748 0.72868681 -0.86027449 0.66977817
4.30275726 -10.21798038 2.48327518 0.78284073 -0.86294878 0.88785994
3.68433833 -10.27622032 2.38147998 0.67032605 -0.86786735 0.85146451
3.20414805 -11.82799053 1.94931138 0.58296055 -0.99892050 0.69694871
3.02673745 -10.34330273 2.27069116 0.55068254 -0.87353277 0.81185353
2.45796466 -10.40766811 2.15658355 0.44720042 -0.87896866 0.77105594
1.78854537 -10.49063873 2.04431009 0.32540673 -0.88597584 0.73091418
1.23600447 -10.69743824 1.96999967 0.22487782 -0.90344089 0.70434552
2.99850869 -10.73912716 1.48897409 0.54554665 -0.90696168 0.53236163
2.61809373 -10.87394714 1.43751204 0.47633421 -0.91834778 0.51396209
4.13296318 -10.36667633 1.91074228 0.75194854 -0.87550676 0.68315887
4.34547949 -10.18504333 2.48017478 0.79061359 -0.86016715 0.88675141
3.73737264 -10.27159882 2.38450480 0.67997503 -0.86747706 0.85254598
2.33944464 -10.68290615 1.63620114 0.42563698 -0.90221363 0.58500057
3.07993865 -10.34391212 2.27403760 0.56036198 -0.87358421 0.81304997
2.51199460 -10.41693115 2.16099882 0.45703059 -0.87975097 0.77263457
1.85477006 -10.48112583 2.04469347 0.33745560 -0.88517249 0.73105127
1.30061674 -10.66798592 1.96597445 0.23663333 -0.90095353 0.70290637
3.06428194 -10.71437073 1.48810709 0.55751336 -0.90487093 0.53205168
2.68636465 -10.85728264 1.43751204 0.48875538 -0.91694039 0.51396209
1.66761339 -10.44771385 2.59841132 0.30340445 -0.88235068 0.92902523
4.19801664 -10.34050369 1.91074228 0.76378429 -0.87329638 0.68315887
4.42654610 -10.19686699 2.48991847 0.80536282 -0.86116570 0.89023513
3.80589175 -10.25890636 2.38709760 0.69244134 -0.86640513 0.85347301
2.99253798 -10.59191322 1.74736917 0.54446036 -0.89452887 0.62474716
3.14831066 -10.33557510 2.27654743 0.57280153 -0.87288010 0.81394738
2.57973456 -10.41045570 2.16300583 0.46935517 -0.87920409 0.77335215
1.92094576 -10.47119522 2.04507685 0.34949556 -0.88433379 0.73118830
1.36268902 -10.62058926 1.95865583 0.24792671 -0.89695072 0.70028973
3.13881612 -10.71958256 1.49186420 0.57107407 -0.90531105 0.53339493
2.75501370 -10.84211063 1.43779123 0.50124532 -0.91565907 0.51406193
1.73226011 -10.43128777 2.59696245 0.31516623 -0.88096344 0.92850721
4.30372477 -10.41217804 1.92928302 0.78301680 -0.87934953 0.68978786
4.53562117 -10.27046585 2.51516318 0.82520783 -0.86738139 0.89926106
3.88333344 -10.26951885 2.39530826 0.70653105 -0.86730140 0.85640860
3.03694057 -10.49708176 1.73458803 0.55253893 -0.88652003 0.62017745
3.21962500 -10.33611774 2.28114867 0.58577639 -0.87292594 0.81559247
2.64749193 -10.40353966 2.16501260 0.48168290 -0.87862003 0.77406967
1.98632979 -10.45699120 2.04469347 0.36139151 -0.88313419 0.73105127
1.42861652 -10.60597038 1.95755804 0.25992152 -0.89571607 0.69989723
3.20610666 -10.69964981 1.49186420 0.58331686 -0.90362769 0.53339493
2.81960773 -10.81116581 1.43583703 0.51299751 -0.91304564 0.51336324
1.78842521 -10.36666393 2.58343863 0.32538489 -0.87550569 0.92367196
1.25134027 -10.70373535 2.53015041 0.22766800 -0.90397269 0.90461951
4.36752653 -10.38130188 1.92859638 0.79462481 -0.87674195 0.68954235
4.60969019 -10.26309681 2.52047777 0.83868390 -0.86675906 0.90116119
3.95546818 -10.26497459 2.40006185 0.71965522 -0.86691761 0.85810816
3.10396338 -10.48157692 1.73522699 0.56473297 -0.88521057 0.62040585
3.28748918 -10.32499695 2.28324008 0.59812355 -0.87198675 0.81634021
2.71526432 -10.39618301 2.16701961 0.49401337 -0.87799871 0.77478725
2.05505013 -10.45970726 2.04776049 0.37389442 -0.88336360 0.73214781
1.49631119 -10.60457420 1.95902181 0.27223784 -0.89559817 0.70042056
3.28260517 -10.70955086 1.49648833 0.59723496 -0.90446383 0.53504825
2.89561367 -10.82386112 1.44030392 0.52682596 -0.91411781 0.51496029
1.88532495 -10.53092194 2.62787414 0.34301475 -0.88937795 0.93955928
1.31177068 -10.63964844 2.51672244 0.23866268 -0.89856035 0.89981854
4.65700102 -10.19670677 2.51117706 0.84729159 -0.86115217 0.89783585
4.02769899 -10.25992870 2.40481520 0.73279685 -0.86649150 0.85980767
3.17148757 -10.46753216 1.73618567 0.57701832 -0.88402444 0.62074864
3.35412335 -10.30971336 2.28449488 0.61024696 -0.87069601 0.81678885
2.77801418 -10.36945057 2.16501260 0.50543004 -0.87574106 0.77406967
2.11915278 -10.43889713 2.04622698 0.38555723 -0.88160610 0.73159951
1.56007922 -10.57550621 1.95536256 0.28383976 -0.89314324 0.69911224
3.34625840 -10.67739010 1.49475431 0.60881597 -0.90174776 0.53442830
2.95888114 -10.78825665 1.43779123 0.53833681 -0.91111088 0.51406193
2.66379380 -11.38373566 1.44293785 0.48464885 -0.96140140 0.51590204
1.94108343 -10.46354866 2.61386728 0.35315940 -0.88368797 0.93455130
1.37415731 -10.59645653 2.50838804 0.25001326 -0.89491260 0.89683867
4.72674847 -10.17961693 2.51427746 0.85998142 -0.85970885 0.89894438
4.10290861 -10.26163769 2.41129732 0.74648041 -0.86663580 0.86212528
3.42565680 -10.30883789 2.28909636 0.62326169 -0.87062204 0.81843406
2.85135746 -10.38203621 2.17143488 0.51877403 -0.87680393 0.77636588
2.17678928 -10.46913719 2.05427766 0.39604357 -0.88415998 0.73447794
1.60989761 -10.56803703 1.95536256 0.29290369 -0.89251244 0.69911224
3.40016198 -10.67281055 1.49648833 0.61862320 -0.90136099 0.53504825
3.01233339 -10.78373528 1.43918717 0.54806191 -0.91072905 0.51456106
2.71276832 -11.35178852 1.44025588 0.49355924 -0.95870334 0.51494312
1.99000335 -10.45237923 2.61338425 0.36205986 -0.88274467 0.93437862
1.42203140 -10.57443237 2.50468373 0.25872344 -0.89305258 0.89551425
4.78715992 -10.18368340 2.52092075 0.87097263 -0.86005229 0.90131956
4.15633059 -10.25486660 2.41432214 0.75619996 -0.86606395 0.86320674
3.47734261 -10.30183983 2.29118776 0.63266534 -0.87003106 0.81918180
2.89500737 -10.34960556 2.16742110 0.52671570 -0.87406504 0.77493078
2.24086428 -10.44757938 2.05274415 0.40770134 -0.88233936 0.73392963
1.67687559 -10.56159878 1.95609438 0.30508962 -0.89196873 0.69937390
3.47824144 -10.68508816 1.50169039 0.63282889 -0.90239787 0.53690815
3.08760810 -10.79126549 1.44309580 0.56175733 -0.91136497 0.51595849
2.76975632 -11.27680302 1.43221009 0.50392759 -0.95237052 0.51206648
1.48549879 -10.54409027 2.49959040 0.27027065 -0.89049006 0.89369321
3.94188547 -10.17387390 1.81021059 0.71718401 -0.85922384 0.64721519
4.86624241 -10.18505287 2.52889276 0.88536084 -0.86016792 0.90416986
4.22735548 -10.24480820 2.41821146 0.76912218 -0.86521453 0.86459732
3.54840779 -10.29826736 2.29537082 0.64559489 -0.86972934 0.82067740
2.96855569 -10.36136436 2.17384338 0.54009700 -0.87505811 0.77722698
2.31244659 -10.46011543 2.05811143 0.42072496 -0.88339806 0.73584867
1.74256897 -10.54697323 1.95536256 0.31704181 -0.89073354 0.69911224
3.57481456 -10.75123310 1.51527369 0.65039933 -0.90798408 0.54176468
3.16918254 -10.81919193 1.45007527 0.57659894 -0.91372347 0.51845390
2.84006715 -11.25725651 1.43194187 0.51671988 -0.95071977 0.51197058
2.10908413 -10.36761379 2.59841132 0.38372535 -0.87558591 0.92902523
1.56487274 -10.62504387 2.52135277 0.28471190 -0.89732689 0.90147406
4.30293465 -10.24507141 2.42469358 0.78287303 -0.86523676 0.86691493
3.61891294 -10.29236317 2.29913545 0.65842259 -0.86923069 0.82202339
3.03414702 -10.34438896 2.17424464 0.55203068 -0.87362450 0.77737045
2.37592649 -10.43581390 2.05619454 0.43227446 -0.88134569 0.73516327
1.80814469 -10.53193855 1.95463061 0.32897261 -0.88946378 0.69885057
3.24444628 -10.82374001 1.45370471 0.59029233 -0.91410756 0.51975155
2.91224289 -11.24494267 1.43274653 0.52985150 -0.94967979 0.51225829
1.62167430 -10.54959869 2.50560975 0.29504633 -0.89095527 0.89584535
4.18069839 -10.40186405 1.86087596 0.76063347 -0.87847847 0.66532987
5.06658792 -10.26989269 2.56609535 0.92181158 -0.86733299 0.91747111
4.38326883 -10.25557041 2.43376827 0.79748899 -0.86612344 0.87015945
3.69280219 -10.29517746 2.30499148 0.67186594 -0.86946839 0.82411712
3.10803771 -10.35516357 2.18066692 0.56547427 -0.87453443 0.77966666
2.44460893 -10.43405151 2.05887818 0.44477049 -0.88119686 0.73612279
1.87632978 -10.53198814 1.95682621 0.34137818 -0.88946795 0.69963557
3.32277799 -10.83724117 1.45872998 0.60454398 -0.91524780 0.52154827
2.98796201 -11.24556828 1.43542838 0.54362780 -0.94973266 0.51321715
1.67758989 -10.47386074 2.48986697 0.30521956 -0.88455892 0.89021677
4.26233101 -10.41557312 1.86820900 0.77548563 -0.87963629 0.66795170
5.08453608 -10.14552593 2.54262233 0.92507708 -0.85682970 0.90907866
4.43831396 -10.20632076 2.42858267 0.80750382 -0.86196411 0.86830539
3.01969337 -10.62809944 1.65341127 0.54940099 -0.89758497 0.59115380
3.76281786 -10.28645611 2.30833793 0.68460453 -0.86873186 0.82531357
3.17475390 -10.34105301 2.18187118 0.57761258 -0.87334275 0.78009719
2.50965595 -10.41657829 2.05849481 0.45660511 -0.87972116 0.73598570
1.94282007 -10.52192593 1.95719218 0.35347536 -0.88861817 0.69976640
3.41142035 -10.88232803 1.46850145 0.62067151 -0.91905558 0.52504194
3.06380367 -11.24568653 1.43811035 0.55742639 -0.94974262 0.51417601
1.74779093 -10.48999119 2.49634933 0.31799191 -0.88592118 0.89253443
4.50286055 -10.81123447 1.94554031 0.81924742 -0.91305143 0.69560045
5.18547297 -10.18631268 2.56122375 0.94344145 -0.86027431 0.91572934
4.47167253 -10.10852909 2.41172934 0.81357306 -0.85370517 0.86227971
3.07598448 -10.57282734 1.64767456 0.55964255 -0.89291704 0.58910275
3.83218241 -10.27542877 2.31126595 0.69722468 -0.86780053 0.82636046
3.24024892 -10.32277203 2.18227243 0.58952868 -0.87179887 0.78024065
2.56296635 -10.42178345 2.06194520 0.46630436 -0.88016075 0.73721933
1.99093187 -10.50492287 1.95572841 0.36222881 -0.88718224 0.69924307
3.49614835 -10.97185898 1.48413563 0.63608688 -0.92661679 0.53063172
3.13116288 -11.28266239 1.44535148 0.56968164 -0.95286536 0.51676500
1.80110598 -10.50465775 2.50190568 0.32769200 -0.88715982 0.89452100
4.54612112 -10.77171326 1.94220710 0.82711822 -0.90971369 0.69440871
5.27105188 -10.23452091 2.57982516 0.95901161 -0.86434573 0.92238003
4.58763838 -10.24073029 2.44889307 0.83467180 -0.86487013 0.87556708
3.88751602 -10.27553558 2.31544900 0.70729202 -0.86780953 0.82785606
3.29655457 -10.33166790 2.18749070 0.59977293 -0.87255013 0.78210640
2.63081884 -10.41498470 2.06386209 0.47864941 -0.87958658 0.73790473
2.05764580 -10.49606705 1.95646036 0.37436667 -0.88643432 0.69950473
3.68026614 -11.30578995 1.53690124 0.66958511 -0.95481861 0.54949731
3.21507883 -11.30849648 1.45178819 0.58494925 -0.95504719 0.51906633
1.86977017 -10.50846386 2.50560975 0.34018472 -0.88748127 0.89584535
4.60751104 -10.72842979 1.93954051 0.83828747 -0.90605825 0.69345528
5.39238930 -10.30997944 2.60772705 0.98108768 -0.87071848 0.93235594
4.65108538 -10.20992470 2.44846106 0.84621531 -0.86226845 0.87541264
3.95553637 -10.26002502 2.31754041 0.71966761 -0.86649960 0.82860380
3.36683917 -10.32752705 2.19110322 0.61256045 -0.87220043 0.78339797
2.70116854 -10.41724110 2.06769586 0.49144879 -0.87977713 0.73927546
2.12471366 -10.48871517 1.95755804 0.38656896 -0.88581342 0.69989723
3.31894636 -11.40028954 1.46761155 0.60384685 -0.96279949 0.52472377
1.93401337 -10.48693848 2.50329471 0.35187307 -0.88566339 0.89501762
4.71729469 -10.79692459 1.95754004 0.85826141 -0.91184288 0.69989079
4.71923113 -10.18936729 2.45062160 0.85861373 -0.86053228 0.87618512
4.02638865 -10.25134087 2.32130504 0.73255843 -0.86576623 0.82994980
3.43473959 -10.31546974 2.19310999 0.62491417 -0.87118214 0.78411549
2.76606011 -10.39816761 2.06731248 0.50325513 -0.87816632 0.73913836
2.19057369 -10.47515774 1.95755804 0.39855149 -0.88466841 0.69989723
4.82732153 -10.86265469 1.97520614 0.87827963 -0.91739410 0.70620704
4.82956028 -10.25853634 2.47482133 0.87868690 -0.86637390 0.88483739
3.94906354 -10.48493481 1.77932203 0.71848994 -0.88549411 0.63617146
4.10093641 -10.25124264 2.32716131 0.74612159 -0.86575794 0.83204365
3.50763869 -10.31781578 2.19832826 0.63817739 -0.87138027 0.78598118
2.83549953 -10.39572525 2.07037950 0.51588887 -0.87796003 0.74023491
2.25552559 -10.45734215 1.95682621 0.41036880 -0.88316381 0.69963557
2.06638646 -10.46562672 2.50422072 0.37595695 -0.88386351 0.89534873
4.95049524 -10.95440197 1.99787223 0.90068978 -0.92514253 0.71431100
4.86957026 -10.17686176 2.46228933 0.88596630 -0.85947615 0.88035673
3.99993658 -10.42123508 1.77261198 0.72774577 -0.88011444 0.63377237
4.17193604 -10.24156284 2.33092594 0.75903922 -0.86494040 0.83338964
3.57686949 -10.30853844 2.20113802 0.65077323 -0.87059677 0.78698581
2.90288925 -10.38526154 2.07191300 0.52814972 -0.87707633 0.74078321
2.32626176 -10.46600628 1.96121740 0.42323849 -0.88389558 0.70120555
2.13479924 -10.46578598 2.50746202 0.38840392 -0.88387692 0.89650762
5.09962034 -11.09882450 2.03053808 0.92782146 -0.93733954 0.72599018
4.02199268 -10.28565216 1.75344014 0.73175865 -0.86866391 0.62691772
4.25426292 -10.25847244 2.34096503 0.77401769 -0.86636847 0.83697897
3.65262651 -10.31727982 2.20796156 0.66455638 -0.87133503 0.78942543
2.95395970 -10.37901497 2.07344651 0.53744143 -0.87654877 0.74133152
2.37339568 -10.44533634 1.95938778 0.43181401 -0.88214988 0.70055139
2.18291163 -10.44989395 2.50607300 0.39715746 -0.88253480 0.89601099
5.07051182 -10.30508518 2.50723147 0.92252547 -0.87030512 0.89642519
4.30712366 -10.24912071 2.34347486 0.78363514 -0.86557871 0.83787632
3.70977378 -10.32393932 2.21317959 0.67495376 -0.87189746 0.79129106
3.02243066 -10.37155056 2.07574654 0.54989898 -0.87591839 0.74215382
2.44430709 -10.45320320 1.96377885 0.44471559 -0.88281429 0.70212138
2.27249146 -10.54823685 2.53339148 0.41345555 -0.89084023 0.90577829
5.08643913 -10.17512131 2.48303175 0.92542332 -0.85932916 0.88777292
4.41159534 -10.31529140 2.36522627 0.80264270 -0.87116706 0.84565324
3.77322602 -10.29674435 2.21237683 0.68649817 -0.86960071 0.79100406
3.08753705 -10.35235500 2.07574654 0.56174439 -0.87429726 0.74215382
2.51130605 -10.44337749 1.96487665 0.45690534 -0.88198447 0.70251387
2.33663201 -10.52425003 2.53107643 0.42512524 -0.88881445 0.90495062
5.18022394 -10.20221519 2.49772453 0.94248646 -0.86161733 0.89302611
4.13927984 -11.84077263 1.88167238 0.75309777 -1.00000000 0.67276537
4.45516396 -10.23898697 2.35393214 0.81056952 -0.86472285 0.84161514
3.84603477 -10.29487419 2.21719360 0.69974494 -0.86944276 0.79272622
3.15886116 -10.35339165 2.07996368 0.57472104 -0.87438482 0.74366164
2.58202291 -10.44839859 1.96890187 0.46977150 -0.88240850 0.70395303
2.38550901 -10.43345928 2.51255536 0.43401790 -0.88114685 0.89832866
5.34679461 -10.36923885 2.54742002 0.97279221 -0.87572318 0.91079402
4.51702452 -10.20543098 2.35267735 0.82182437 -0.86188895 0.84116656
3.91272449 -10.27600288 2.21839786 0.71187848 -0.86784899 0.79315680
3.22149825 -10.32584858 2.07843018 0.58611721 -0.87205869 0.74311334
2.64954114 -10.43959618 1.97036564 0.48205572 -0.88166511 0.70447636
2.44880700 -10.40879059 2.51024008 0.44553429 -0.87906349 0.89750087
5.43170261 -10.37353325 2.55692697 0.98824030 -0.87608582 0.91419309
3.84099531 -10.55339813 1.68118906 0.69882810 -0.89127612 0.60108536
4.56332493 -10.13764572 2.34347486 0.83024824 -0.85616422 0.83787632
3.99061394 -10.28594685 2.22602415 0.72604960 -0.86868882 0.79588348
3.27250957 -10.31803322 2.07996368 0.59539819 -0.87139863 0.74366164
2.69675064 -10.41937733 1.96890187 0.49064499 -0.87995756 0.70395303
2.50369143 -10.42174053 2.51625943 0.45551991 -0.88015711 0.89965302
3.88591337 -10.52218914 1.67907560 0.70700043 -0.88864040 0.60032976
4.64850998 -10.19782257 2.36271644 0.84574676 -0.86124641 0.84475589
4.03547096 -10.25790405 2.22401714 0.73421085 -0.86632049 0.79516590
3.34031796 -10.30659866 2.08188057 0.60773522 -0.87043297 0.74434698
2.76717401 -10.42124081 1.97256124 0.50345778 -0.88011491 0.70526141
2.56727219 -10.39824390 2.51440740 0.46708778 -0.87817276 0.89899081
4.67534161 -10.08863068 2.34389305 0.85062850 -0.85202467 0.83802581
4.10999870 -10.25782776 2.22963667 0.74777037 -0.86631405 0.79717505
3.41369557 -10.31147957 2.08724785 0.62108546 -0.87084514 0.74626595
2.83670139 -10.41883373 1.97548866 0.51610756 -0.87991166 0.70630807
2.62828350 -10.36492634 2.51024008 0.47818813 -0.87535894 0.89750087
4.79971743 -10.18810177 2.37442875 0.87325734 -0.86042541 0.84894341
4.18468380 -10.25721836 2.23525620 0.76135856 -0.86626261 0.79918426
3.48157692 -10.29911900 2.08916473 0.63343573 -0.86980128 0.74695134
2.90630746 -10.41596317 1.97841609 0.52877164 -0.87966919 0.70735472
2.70259929 -10.38400173 2.51903772 0.49170908 -0.87696993 0.90064633
4.25428629 -10.24339867 2.23806596 0.77402198 -0.86509544 0.80018884
3.55201292 -10.29372978 2.09261513 0.64625084 -0.86934614 0.74818498
2.97759962 -10.41830444 1.98244131 0.54174244 -0.87986696 0.70879388
2.76280689 -10.34800816 2.51440740 0.50266320 -0.87393016 0.89899081
5.05103779 -10.38000584 2.43466330 0.91898239 -0.87663245 0.87047946
4.32691813 -10.23633289 2.24248123 0.78723657 -0.86449873 0.80176747
3.62251830 -10.28786087 2.09606552 0.65907854 -0.86885047 0.74941862
3.04245186 -10.39750195 1.98207533 0.55354166 -0.87811011 0.70866305
2.83593225 -10.36048603 2.52181578 0.51596761 -0.87498397 0.90163958
5.04917622 -10.21318626 2.40245461 0.91864371 -0.86254388 0.85896367
4.40117025 -10.23236084 2.24769926 0.80074596 -0.86416328 0.80363309
3.67959166 -10.29468918 2.10104918 0.66946244 -0.86942714 0.75120044
3.09643292 -10.40001869 1.98536873 0.56336290 -0.87832266 0.70984054
2.88472342 -10.34700680 2.52181578 0.52484465 -0.87384558 0.90163958
5.09637070 -10.18753147 2.40203619 0.92723024 -0.86037725 0.85881406
4.51948261 -10.37329483 2.28382444 0.82227159 -0.87606573 0.81654912
3.75028324 -10.28795338 2.10449958 0.68232399 -0.86885828 0.75243407
3.16399407 -10.38788605 1.98683238 0.57565492 -0.87729800 0.71036381
2.95392418 -10.34365273 2.52552009 0.53743500 -0.87356234 0.90296400
5.18695259 -10.20756912 2.41458511 0.94371063 -0.86206949 0.86330080
4.56638527 -10.30346107 2.27459264 0.83080506 -0.87016797 0.81324846
3.82378435 -10.28808880 2.10948348 0.69569671 -0.86886972 0.75421602
3.23152494 -10.37531471 1.98829615 0.58794147 -0.87623632 0.71088719
3.02536631 -10.34731102 2.53107643 0.55043310 -0.87387127 0.90495062
5.28338623 -10.23728657 2.42964387 0.96125573 -0.86457926 0.86868483
3.89673591 -10.28587246 2.11408401 0.70896947 -0.86868256 0.75586087
3.29902267 -10.36230469 1.98975992 0.60022193 -0.87513757 0.71141052
3.09530830 -10.34488297 2.53524375 0.56315827 -0.87366623 0.90644056
5.41410065 -10.33022881 2.46017957 0.98503780 -0.87242860 0.87960243
4.68818092 -10.22922230 2.27098012 0.85296446 -0.86389822 0.81195682
3.96057630 -10.25935555 2.11370063 0.72058457 -0.86644310 0.75572377
3.37374139 -10.37130642 1.99561477 0.61381620 -0.87589777 0.71350384
3.16194344 -10.33081532 2.53663278 0.57528186 -0.87247813 0.90693718
4.76554871 -10.22800350 2.27740216 0.86704069 -0.86379528 0.81425297
4.03722954 -10.26529980 2.12021804 0.73453081 -0.86694509 0.75805402
3.44007230 -10.35363865 1.99634659 0.62588441 -0.87440568 0.71376550
3.23545504 -10.33861351 2.54357815 0.58865649 -0.87313676 0.90942043
4.91660404 -10.38217449 2.31914687 0.89452362 -0.87681562 0.82917815
4.09067154 -10.25891495 2.12290144 0.74425399 -0.86640584 0.75901341
3.49132538 -10.34476948 1.99781036 0.63520938 -0.87365663 0.71428883
3.28531122 -10.32696247 2.54450417 0.59772730 -0.87215275 0.90975147
5.01525736 -10.46322060 2.34282899 0.91247255 -0.88366032 0.83764541
4.16840172 -10.26572227 2.12980223 0.75839621 -0.86698079 0.76148069
3.56580877 -10.35053158 2.00329924 0.64876086 -0.87414324 0.71625131
3.36269045 -10.34499741 2.55422783 0.61180562 -0.87367588 0.91322803
4.96292734 -10.18821239 2.28743696 0.90295166 -0.86043477 0.81784075
4.23131418 -10.23570347 2.12903547 0.76984245 -0.86444557 0.76120657
3.63206959 -10.33163548 2.00403118 0.66081631 -0.87254739 0.71651304
3.42396545 -10.31257915 2.55144954 0.62295395 -0.87093800 0.91223472
5.04589415 -10.19549561 2.29626775 0.91804659 -0.86104983 0.82099807
4.31542253 -10.25592041 2.13900328 0.78514504 -0.86615300 0.76477039
3.70879865 -10.34194756 2.01061773 0.67477632 -0.87341833 0.71886796
3.49739051 -10.31667614 2.55793190 0.63631284 -0.87128401 0.91455239
5.14493275 -10.23367405 2.31232333 0.93606561 -0.86427420 0.82673854
4.37977648 -10.22860336 2.13900328 0.79685354 -0.86384594 0.76477039
3.77504945 -10.32213593 2.01134968 0.68682992 -0.87174511 0.71912962
3.56847048 -10.31289673 2.56256223 0.64924508 -0.87096483 0.91620791
5.22688961 -10.23607635 2.32035112 0.95097679 -0.86447704 0.82960874
4.45891571 -10.23504734 2.14628720 0.81125212 -0.86439013 0.76737463
3.84666562 -10.31664944 2.01500893 0.69985974 -0.87128180 0.72043794
3.64092970 -10.31230259 2.56811857 0.66242826 -0.87091470 0.91819447
5.32885551 -10.27615166 2.33720946 0.96952838 -0.86786157 0.83563620
4.50868893 -10.21751022 2.14705396 0.82030779 -0.86290908 0.76764882
3.89939213 -10.30945015 2.01720452 0.70945275 -0.87067378 0.72122294
3.69079065 -10.29869556 2.56904459 0.67149997 -0.86976552 0.91852558
5.44616127 -10.38291359 2.36771536 0.99087089 -0.87687802 0.84654313
4.57118416 -10.18540096 2.14628720 0.83167815 -0.86019731 0.76737463
3.97112846 -10.30310535 2.02086377 0.72250444 -0.87013793 0.72253126
4.48331261 -10.45707607 2.79692221 0.81569088 -0.88314134 1.00000000
3.76207089 -10.29358959 2.57367492 0.68446863 -0.86933428 0.92018110
4.65554571 -10.20108509 2.15587163 0.84702682 -0.86152190 0.77080142
4.04508448 -10.30176067 2.02562094 0.73595995 -0.87002438 0.72423214
4.44686031 -10.19584274 2.73364997 0.80905879 -0.86107916 0.97737789
3.84019208 -10.30623817 2.58293557 0.69868195 -0.87040251 0.92349207
4.72950125 -10.19298077 2.16047215 0.86048228 -0.86083746 0.77244627
4.11845350 -10.29806519 2.03001213 0.74930865 -0.86971229 0.72580212
4.50846386 -10.16238308 2.73220086 0.82026684 -0.85825336 0.97685981
3.90487194 -10.28190613 2.58293557 0.71044976 -0.86834759 0.92349207
4.80185747 -10.18080235 2.16430593 0.87364668 -0.85980898 0.77381700
4.20227051 -10.31936741 2.03952622 0.76455826 -0.87151134 0.72920376
4.53856707 -10.05961514 2.71191502 0.82574379 -0.84957421 0.96960688
3.97289181 -10.26624775 2.58525062 0.72282523 -0.86702514 0.92431980
4.86845589 -10.19699764 2.17273998 0.88576359 -0.86117673 0.77683246
4.25159979 -10.30126953 2.03989220 0.77353317 -0.86998290 0.72933459
4.65717793 -10.19333172 2.75441861 0.84732378 -0.86086708 0.98480344
4.03466654 -10.28184986 2.59404826 0.73406452 -0.86834282 0.92746526
4.95392942 -10.21031952 2.18232441 0.90131456 -0.86230183 0.78025925
4.32533884 -10.29612255 2.04428339 0.78694922 -0.86954820 0.73090464
4.72359467 -10.16914558 2.75586772 0.85940760 -0.85882449 0.98532152
4.10278320 -10.26533604 2.59636331 0.74645758 -0.86694819 0.92829299
5.04847288 -10.24055767 2.19574237 0.91851574 -0.86485553 0.78505665
4.39302397 -10.27598000 2.04574704 0.79926383 -0.86784708 0.73142791
4.17377186 -10.25558662 2.60053062 0.75937325 -0.86612481 0.92978299
5.12241936 -10.22792435 2.19995952 0.93196952 -0.86378860 0.78656441
4.47156000 -10.28065586 2.05233383 0.81355262 -0.86824197 0.73378295
4.86364985 -10.13520908 2.76311255 0.88488919 -0.85595840 0.98791182
4.26852512 -10.30291271 2.61951470 0.77661258 -0.87012166 0.93657047
5.26428318 -10.34761047 2.23331308 0.95778012 -0.87389654 0.79848951
4.54715872 -10.27755070 2.05745673 0.82730699 -0.86797976 0.73561460
4.35349894 -10.32433224 2.63201642 0.79207265 -0.87193060 0.94104028
5.36626244 -10.38576412 2.24903131 0.97633415 -0.87711877 0.80410933
4.61887646 -10.26492882 2.06075025 0.84035528 -0.86691380 0.73679215
4.38925123 -10.22877789 2.61442137 0.79857743 -0.86386067 0.93474942
5.49633789 -10.51504612 2.28315163 1.00000000 -0.88803715 0.81630862
4.68100214 -10.27349091 2.06697106 0.85165834 -0.86763686 0.73901629
4.44512844 -10.22583771 2.61905169 0.80874366 -0.86361235 0.93640488
4.76768780 -10.29208755 2.07685113 0.86742991 -0.86920744 0.74254876
4.47402859 -10.11756706 2.59821534 0.81400174 -0.85446846 0.92895520
4.83893585 -10.27617168 2.07977843 0.88039273 -0.86786330 0.74359536
4.60347748 -10.23665810 2.63664675 0.83755356 -0.86452621 0.94269580
4.91693735 -10.27396679 2.08563328 0.89458424 -0.86767703 0.74568868
4.67898798 -10.23232460 2.64312911 0.85129189 -0.86416024 0.94501346
4.99424458 -10.26941586 2.09112239 0.90864950 -0.86729270 0.74765128
4.76442957 -10.24863434 2.65516782 0.86683708 -0.86553764 0.94931769
5.08470678 -10.29076385 2.10210013 0.92510813 -0.86909562 0.75157619
4.81879187 -10.19736958 2.64961147 0.87672776 -0.86120814 0.94733113
4.81493521 -10.06563187 2.62090373 0.87602603 -0.85008234 0.93706709
