8.49970150 5.07058096 2.21311212 0.95510995 0.93082565 0.90712517
8.45434284 5.11578083 2.20956922 0.95001304 0.93912315 0.90567297
8.53990364 5.24147415 2.24101424 0.95962751 0.96219712 0.91856188
8.19756126 5.10167074 2.15819383 0.92115855 0.93653291 0.88461488
8.00854969 5.03606606 2.11390495 0.89991933 0.92448962 0.86646146
7.87493134 5.02105427 2.08644581 0.88490468 0.92173386 0.85520637
7.86121941 5.08212090 2.09131742 0.88336384 0.93294406 0.85720313
7.82913256 5.13141394 2.09131742 0.87975824 0.94199300 0.85720313
7.80971336 5.18916702 2.09486055 0.87757611 0.95259494 0.85865545
8.52948380 5.02828836 2.15676928 0.95845664 0.92306185 0.88403100
7.70426798 5.18894672 2.07493067 0.86572725 0.95255446 0.85048646
8.52456951 5.09776163 2.16368341 0.95790440 0.93581527 0.88686502
7.39957333 5.03368092 1.99786770 0.83148879 0.92405176 0.81889933
8.36491776 5.05633402 2.12868047 0.93996435 0.92821026 0.87251776
7.19145346 4.95789146 1.94914985 0.80810237 0.91013879 0.79893059
8.24463654 5.05488157 2.10577726 0.92644840 0.92794365 0.86313003
7.01331615 4.89986515 1.90840399 0.78808510 0.89948666 0.78222936
8.24426270 5.12610912 2.11398792 0.92640638 0.94101912 0.86649549
6.92677355 4.90425587 1.89290285 0.77836037 0.90029269 0.77587569
8.21354580 5.17884588 2.11441994 0.92295474 0.95070022 0.86667258
6.85627460 4.91916180 1.88183057 0.77043837 0.90302902 0.77133727
8.15283775 5.21252728 2.10707355 0.91613299 0.95688325 0.86366141
8.07726669 5.21814728 2.09367752 0.90764105 0.95791495 0.85817051
7.93472147 5.19734097 2.06472445 0.89162326 0.95409542 0.84630305
8.70486259 4.98251581 2.11090207 0.97816390 0.91465920 0.86523062
7.39526463 4.91223001 1.93033016 0.83100462 0.90175653 0.79121661
8.63790989 5.01641321 2.10211778 0.97064042 0.92088187 0.86163008
7.28313971 4.90425158 1.90872335 0.81840515 0.90029192 0.78236026
8.53553391 5.02874613 2.08454943 0.95913649 0.92314583 0.85442907
7.11648655 4.85775757 1.87242389 0.79967839 0.89175683 0.76748163
8.48700142 5.07220936 2.08036637 0.95368290 0.93112457 0.85271448
7.08260727 4.90016127 1.87155962 0.79587138 0.89954102 0.76712734
8.40819454 5.09695005 2.06865406 0.94482738 0.93566632 0.84791374
6.99370337 4.88777542 1.85384202 0.78588122 0.89726734 0.75986516
8.36909199 5.12728977 2.06488943 0.94043344 0.94123590 0.84637070
6.90539026 4.89112616 1.83828521 0.77595752 0.89788246 0.75348860
8.28859806 5.14974022 2.05275893 0.93138832 0.94535720 0.84139854
6.87452269 4.93441725 1.83828521 0.77248889 0.90582955 0.75348860
7.80989027 4.91929722 1.93981874 0.87759602 0.90305388 0.79510587
7.69653034 4.91545248 1.91890395 0.86485779 0.90234810 0.78653318
7.32821703 5.15915871 2.43969870 0.82347047 0.94708616 1.00000000
7.60320139 4.92317963 1.90300870 0.85437042 0.90376663 0.78001791
7.48232889 4.91162157 1.88000238 0.84078801 0.90164489 0.77058792
8.44900131 4.93536949 1.97033787 0.94941282 0.90600437 0.80761522
7.38141394 4.91178799 1.86201572 0.82944822 0.90167540 0.76321542
8.33175468 4.93759537 1.94986689 0.93623781 0.90641296 0.79922450
7.30632639 4.91148186 1.84863019 0.82101065 0.90161920 0.75772887
8.19058895 4.90657187 1.92176950 0.92037505 0.90071785 0.78770775
7.21884394 4.91861677 1.83398986 0.81118023 0.90292901 0.75172800
8.08415222 4.91231441 1.90370691 0.90841478 0.90177202 0.78030413
7.12995529 4.92373180 1.81893110 0.80119187 0.90386796 0.74555564
7.97963858 4.91793919 1.88604569 0.89667058 0.90280461 0.77306503
7.85541248 4.91002798 1.86356783 0.88271135 0.90135235 0.76385164
7.74651861 4.91016006 1.84470236 0.87047493 0.90137655 0.75611895
8.89918613 4.90025711 1.95000029 1.00000000 0.89955866 0.79927915
7.74192429 4.97562647 1.85112464 0.86995870 0.91339445 0.75875133
8.78862858 4.89326382 1.93044817 0.98757666 0.89827484 0.79126501
8.66553116 4.89605761 1.90974605 0.97374421 0.89878774 0.78277946
7.31911755 5.12005997 2.35888195 0.82244796 0.93990868 0.96687430
8.53934669 4.89553976 1.88827717 0.95956492 0.89869267 0.77397966
8.41860008 4.89660311 1.86795843 0.94599664 0.89888787 0.76565129
8.31675243 4.90735626 1.85185671 0.93455201 0.90086186 0.75905138
8.49630928 5.16187859 2.43950605 0.95472878 0.94758546 0.99992102
7.31582832 5.12609529 2.27638221 0.82207835 0.94101661 0.93305874
8.37157822 5.21278667 2.41970325 0.94071281 0.95693088 0.99180412
8.33374310 5.26216459 2.41825438 0.93646127 0.96599537 0.99121028
8.35275078 5.34801865 2.43371010 0.93859714 0.98175591 0.99754536
8.57315826 5.12580490 2.34262395 0.96336430 0.94096327 0.96021038
8.59908199 5.21476364 2.35882998 0.96627736 0.95729381 0.96685296
7.29690647 5.05005693 2.17385912 0.81995213 0.92705798 0.89103591
8.61924648 5.30120134 2.37364697 0.96854323 0.97316146 0.97292626
7.30786371 5.12599421 2.18689990 0.82118338 0.94099808 0.89638114
8.57750320 5.35012054 2.37133169 0.96385252 0.98214179 0.97197729
8.38401318 5.30334473 2.32641792 0.94211012 0.97355497 0.95356774
7.08408356 5.10248518 2.13811755 0.79603726 0.93668240 0.87638593
8.35216618 5.35696507 2.32688117 0.93853146 0.98339826 0.95375758
6.97989416 5.09409475 2.11589980 0.78432947 0.93514216 0.86727917
8.37714100 5.44740152 2.34354997 0.94133788 1.00000000 0.96058995
6.88407135 5.07379150 2.09368205 0.77356189 0.93141502 0.85817236
6.85826540 5.12160444 2.09561396 0.77066207 0.94019222 0.85896426
7.66162872 5.10478258 2.15648675 0.86093587 0.93710417 0.88391519
7.51798439 5.07792759 2.12453794 0.84479457 0.93217427 0.87081981
7.31549120 5.00893688 2.07545686 0.82204050 0.91950941 0.85070211
7.33510733 5.09018230 2.09027386 0.82424474 0.93442392 0.85677540
7.28869820 5.10910749 2.08379149 0.81902975 0.93789810 0.85411841
7.24692059 5.14806366 2.08101320 0.81433523 0.94504941 0.85297960
7.21443129 5.19349527 2.08101320 0.81068438 0.95338947 0.85297960
7.14386892 5.21128941 2.06990051 0.80275530 0.95665604 0.84842467
7.06083107 5.21917963 2.05508375 0.79342437 0.95810443 0.84235144
7.03257895 5.26692915 2.05647278 0.79024965 0.96687001 0.84292078
6.86976671 5.40237331 2.04536009 0.77195448 0.99173403 0.83836585
