-8.77405167 -3.49569368 2.11036181 -0.99614739 -0.93472111 0.90205449
-7.95560694 -3.22568321 1.91504729 -0.90322661 -0.86252242 0.81856912
-7.72585678 -3.17440820 1.86234343 -0.87714231 -0.84881192 0.79604137
-7.67160702 -3.20850658 1.85392857 -0.87098318 -0.85792953 0.79244447
-7.69790602 -3.27661848 1.86544371 -0.87396902 -0.87614214 0.79736650
-8.02447701 -3.25064802 1.47469175 -0.91104567 -0.86919785 0.63034326
-7.83091879 -3.39195418 1.90353215 -0.88907039 -0.90698200 0.81364709
-7.94020462 -3.27456045 1.46267462 -0.90147793 -0.87559181 0.62520665
-7.29241514 -3.21179438 1.77509415 -0.82793224 -0.85880870 0.75874746
-7.84687614 -3.29370856 1.44894075 -0.89088207 -0.88071191 0.61933625
-7.17608547 -3.21424985 1.75117803 -0.81472498 -0.85946524 0.74852473
-7.74794865 -3.29497814 1.43314683 -0.87965047 -0.88105136 0.61258525
-7.17327785 -3.25370216 1.75427830 -0.81440622 -0.87001449 0.74984992
-7.42903996 -3.21376801 1.37649453 -0.84344375 -0.85933644 0.58836979
-7.24821663 -3.34306216 1.77819431 -0.82291424 -0.89390868 0.76007259
-8.72749233 -3.47423768 2.04441404 -0.99086136 -0.92898399 0.87386572
-7.36366558 -3.24042845 1.36791086 -0.83602154 -0.86646521 0.58470076
-7.35758686 -3.45013976 1.81096816 -0.83533144 -0.92254037 0.77408147
-7.76723862 -3.15102243 1.82056761 -0.88184053 -0.84255874 0.77818465
-7.10783815 -3.18059158 1.32293248 -0.80697662 -0.85046530 0.56547517
-7.31114483 -3.48449111 1.80476773 -0.83005869 -0.93172562 0.77143115
-7.71838045 -3.18790603 1.81365347 -0.87629354 -0.85242110 0.77522928
-7.21528816 -3.29781413 2.21875715 -0.81917578 -0.88180971 0.94838709
-6.99456978 -3.18251014 1.30507839 -0.79411685 -0.85097831 0.55784357
-6.80874062 -3.29621053 1.68341589 -0.77301908 -0.88138092 0.71956044
-7.72342587 -3.24687243 1.81970334 -0.87686634 -0.86818826 0.77781522
-7.03922796 -3.25703216 2.16847706 -0.79918706 -0.87090492 0.92689532
-6.95268440 -3.20299840 1.29992819 -0.78936148 -0.85645670 0.55564219
-8.14455605 -3.26104927 1.44888699 -0.92467868 -0.87197906 0.61931324
-6.72666550 -3.29547238 1.66658604 -0.76370078 -0.88118351 0.71236670
-7.93464041 -3.37910318 1.87415242 -0.90084624 -0.90354574 0.80108899
-6.98211050 -3.28390503 2.15700006 -0.79270232 -0.87809050 0.92198956
-6.80945778 -3.18863368 1.27623725 -0.77310050 -0.85261571 0.54551572
-8.03982639 -3.27810574 1.43355405 -0.91278833 -0.87653983 0.61275929
-6.70931387 -3.33941960 1.66747189 -0.76173085 -0.89293468 0.71274531
-7.17110062 -3.42866135 2.22312927 -0.81415904 -0.91679722 0.95025587
-6.71288681 -3.19473839 1.26147330 -0.76213646 -0.85424805 0.53920501
-7.99719334 -3.31953549 1.42955422 -0.90794808 -0.88761783 0.61104965
-6.90025234 -3.48944521 1.72150445 -0.78340870 -0.93305033 0.73584104
-7.23867035 -3.19259429 1.71642292 -0.82183045 -0.85367471 0.73366898
-7.38446283 -3.58859611 2.29745650 -0.83838272 -0.95956254 0.98202640
-6.59348297 -3.18854189 1.24224591 -0.74858016 -0.85259116 0.53098643
-7.90889931 -3.34147978 1.41722119 -0.89792377 -0.89348555 0.60577798
-6.87819147 -3.53273153 1.72150445 -0.78090405 -0.94462478 0.73584104
-7.12036085 -3.19430757 1.69265544 -0.80839837 -0.85413283 0.72350979
-6.70705175 -3.30963206 2.08977771 -0.76147401 -0.88496971 0.89325601
-6.58744669 -3.23689723 1.24499273 -0.74789482 -0.86552101 0.53216052
-7.33099318 -3.15330720 1.31489062 -0.83231217 -0.84316969 0.56203777
-7.12505245 -3.25026441 1.69870532 -0.80893099 -0.86909527 0.72609574
-7.56238747 -3.34290791 0.87025297 -0.85858309 -0.89386743 0.37198153
-6.70501757 -3.36124325 2.09578943 -0.76124305 -0.89877015 0.89582568
-6.58282232 -3.28618741 1.24808276 -0.74736983 -0.87870079 0.53348136
-7.39061546 -3.23388934 1.32955682 -0.83908129 -0.86471671 0.56830668
-7.10803699 -3.29660201 1.69956958 -0.80699921 -0.88148558 0.72646517
-7.41442251 -3.31896472 0.85256529 -0.84178418 -0.88746518 0.36442110
-6.81418371 -3.45667171 2.13568544 -0.77363706 -0.92428696 0.91287881
-6.59009457 -3.32878304 1.25254631 -0.74819547 -0.89009053 0.53538924
-7.14426613 -3.16698670 1.28689134 -0.81111240 -0.84682745 0.55006969
-7.32957172 -3.44065738 1.75747573 -0.83215076 -0.92000484 0.75121665
-8.80798531 -3.50144339 1.99294245 -1.00000000 -0.93625855 0.85186470
-7.45478630 -3.39360356 0.86080343 -0.84636682 -0.90742302 0.36794239
-8.65953159 -3.33553720 1.21586299 -0.98314553 -0.89189655 0.51970929
-7.19443512 -3.24443197 2.14427614 -0.81680828 -0.86753571 0.91655087
-6.55679512 -3.36379433 1.25014293 -0.74441487 -0.89945227 0.53436196
-6.99103546 -3.15218282 1.26222539 -0.79371560 -0.84286898 0.53952646
-7.63746405 -3.08896565 1.72774255 -0.86710680 -0.82596523 0.73850745
-7.45671129 -3.45127439 0.86395329 -0.84658533 -0.92284375 0.36928877
-7.02653170 -3.22245169 2.09956360 -0.79774565 -0.86165833 0.89743888
-6.57915211 -3.42780471 1.25872660 -0.74695313 -0.91656816 0.53803098
-6.93340158 -3.17888713 1.25522554 -0.78717226 -0.85000956 0.53653449
-6.78437090 -3.29094625 1.63431704 -0.77025229 -0.87997329 0.69857359
-7.96705246 -3.09348822 1.34923613 -0.90452605 -0.82717454 0.57671839
-7.72810745 -3.18258977 1.75325859 -0.87739784 -0.85099959 0.74941403
-7.00439644 -3.26572680 2.09903121 -0.79523253 -0.87322980 0.89721131
-6.55226755 -3.46629643 1.25769651 -0.74390084 -0.92686051 0.53759062
-6.83454800 -3.18594003 1.24055922 -0.77594906 -0.85189545 0.53026545
-6.74952793 -3.32664013 1.63085997 -0.76629645 -0.88951755 0.69709587
-7.82273388 -3.09380889 1.32750821 -0.88814110 -0.82726026 0.56743103
-7.72237301 -3.23716760 1.75660503 -0.87674683 -0.86559325 0.75084448
-7.43422031 -3.55503368 0.86686081 -0.84403187 -0.95058817 0.37053156
-7.60676670 -3.34408927 0.82847148 -0.86362165 -0.89418328 0.35412240
-7.02036953 -3.32691360 2.11020947 -0.79704601 -0.88959068 0.90198940
-6.54942465 -3.51770425 1.26147330 -0.74357808 -0.94060659 0.53920501
-6.72517681 -3.18684006 1.22389305 -0.76353180 -0.85213608 0.52314168
-6.75821686 -3.38376522 1.63820624 -0.76728296 -0.90479231 0.70023596
-7.94767570 -3.20152068 1.35275090 -0.90232617 -0.85606158 0.57822078
-7.51843071 -3.36197829 0.81991529 -0.85359257 -0.89896667 0.35046515
-8.25331593 -3.41883063 1.16528690 -0.93702656 -0.91416854 0.49809101
-7.10367393 -3.42087626 2.14214706 -0.80650383 -0.91471553 0.91564077
-6.54619312 -3.56921291 1.26525009 -0.74321115 -0.95437962 0.54081935
-6.71213722 -3.23243546 1.22522628 -0.76205134 -0.86432797 0.52371156
-7.70477057 -3.15946388 1.31376839 -0.87474835 -0.84481591 0.56155807
-7.41010761 -3.35580516 0.80812168 -0.84129429 -0.89731604 0.34542409
-8.23528957 -3.45691514 1.16499782 -0.93497992 -0.92435205 0.49796745
-8.39561462 -3.18232036 1.12650239 -0.95318216 -0.85092753 0.48151296
-6.75605774 -3.29384327 2.04047918 -0.76703781 -0.88074791 0.87218380
-6.69505501 -3.26317048 1.22489297 -0.76011199 -0.87254626 0.52356911
-6.86492300 -3.53163433 1.67407358 -0.77939767 -0.94433141 0.71556717
-7.41311741 -3.25850964 1.69762516 -0.84163600 -0.87129998 0.72563404
-7.45933151 -3.43452644 0.81714034 -0.84688282 -0.91836548 0.34927902
-7.52796936 -3.21393871 1.05604243 -0.85467553 -0.85938203 0.45139551
-8.55295849 -3.30310774 1.15330398 -0.97104597 -0.88322514 0.49296904
-6.73176908 -3.33452535 2.03941441 -0.76428026 -0.89162600 0.87172866
-6.69742489 -3.31648588 1.22922623 -0.76038104 -0.88680238 0.52542132
-6.83913136 -3.57289863 1.67320931 -0.77646941 -0.95536512 0.71519774
-8.10551643 -3.42963982 1.39045537 -0.92024636 -0.91705883 0.59433717
-7.27122307 -3.25043797 1.66918111 -0.82552624 -0.86914170 0.71347588
-7.46048403 -3.24055719 1.04852819 -0.84701365 -0.86649960 0.44818360
-6.72103167 -3.38192773 2.04260826 -0.76306117 -0.90430099 0.87309384
-6.67821884 -3.35938287 1.22955954 -0.75820053 -0.89827269 0.52556378
-7.55301857 -3.25051284 1.29683340 -0.85751945 -0.86916167 0.55431932
-6.85230303 -3.11374450 1.57548273 -0.77796483 -0.83259088 0.67342544
-7.57378054 -3.34689069 1.06991470 -0.85987663 -0.89493239 0.45732507
-7.54089880 -3.26999831 2.16785741 -0.85614341 -0.87437195 0.92663044
-6.66401339 -3.40484643 1.23089290 -0.75658768 -0.91042930 0.52613372
-7.39153147 -3.23579335 1.27191019 -0.83918524 -0.86522579 0.54366618
-6.90885162 -3.19221497 1.59346938 -0.78438503 -0.85357332 0.68111366
-8.00006866 -3.20739222 1.73151004 -0.90827453 -0.85763156 0.74011785
-7.52194977 -3.38054490 1.06500161 -0.85399210 -0.90393126 0.45522502
-7.38955164 -3.25929427 2.12954903 -0.83896047 -0.87150979 0.91025591
-6.66527605 -3.45839572 1.23522604 -0.75673103 -0.92474794 0.52798587
-7.97047806 -3.06051826 1.26995671 -0.90491498 -0.81835860 0.54283118
-7.77639771 -3.17513537 1.68655419 -0.88288039 -0.84900635 0.72090185
-7.39628124 -3.37977290 1.04823923 -0.83972454 -0.90372485 0.44806010
-8.11394405 -3.37116838 1.09942174 -0.92120320 -0.90142405 0.46993756
-7.21047163 -3.23409748 2.08295751 -0.81862891 -0.86477238 0.89034075
-6.64166784 -3.49929190 1.23489273 -0.75405073 -0.93568325 0.52784342
-7.03411150 -3.18428564 1.21567309 -0.79860616 -0.85145307 0.51962811
-7.90686083 -3.09335589 1.26271033 -0.89769232 -0.82713914 0.53973377
-6.84880304 -3.26945949 1.58886814 -0.77756751 -0.87422788 0.67914689
-7.75629473 -3.22393298 1.68655419 -0.88059807 -0.86205447 0.72090185
-7.52891827 -3.35253239 0.78819317 -0.85478324 -0.89644092 0.33690584
-7.39641857 -3.42210865 1.05084026 -0.83974010 -0.91504508 0.44917187
-7.08446980 -3.21742439 2.05034351 -0.80432355 -0.86031407 0.87640023
-6.62684727 -3.53147364 1.23522604 -0.75236809 -0.94428843 0.52798587
-7.03516102 -3.22484422 1.21854877 -0.79872531 -0.86229813 0.52085733
-7.80573893 -3.09652615 1.24851954 -0.88621163 -0.82798684 0.53366804
-6.81397438 -3.29228592 1.58426690 -0.77361327 -0.88033146 0.67718011
-7.65425539 -3.22415209 1.66728747 -0.86901319 -0.86211306 0.71266651
-7.48057842 -3.38740659 0.78484029 -0.84929508 -0.90576601 0.33547267
-7.38371468 -3.47274756 1.05228531 -0.83829778 -0.92858553 0.44978955
-7.49328756 -3.21195793 1.01008320 -0.85073799 -0.85885239 0.43175066
-7.10265303 -3.27979136 2.06173253 -0.80638790 -0.87699056 0.88126838
-7.00761080 -3.26562881 1.21727073 -0.79559749 -0.87320358 0.52031106
-7.69438267 -3.10870337 1.23342288 -0.87356895 -0.83124298 0.52721512
-6.76159477 -3.31943512 1.57673752 -0.76766646 -0.88759094 0.67396176
-7.54551268 -3.23457360 1.64761925 -0.85666728 -0.86489964 0.70425951
-7.45554066 -3.43267012 0.78439325 -0.84645241 -0.91786915 0.33528158
-7.36888266 -3.52250385 1.05344129 -0.83661389 -0.94188994 0.45028365
-7.47841024 -3.26133728 1.01092076 -0.84904891 -0.87205607 0.43210867
-6.93169689 -3.25336623 2.01721191 -0.78697872 -0.86992466 0.86223841
-7.00477409 -3.31809282 1.22046602 -0.79527539 -0.88723207 0.52167684
-7.61979055 -3.13455772 1.22436488 -0.86510026 -0.83815622 0.52334338
-6.74759626 -3.36536407 1.57841074 -0.76607716 -0.89987200 0.67467695
-7.42975378 -3.24064207 1.62634552 -0.84352475 -0.86652231 0.69516623
-7.44820929 -3.48622227 0.78618145 -0.84562010 -0.93218857 0.33604592
-7.41950035 -3.60436893 1.06529057 -0.84236068 -0.96378005 0.45534852
-7.47226954 -3.31464911 1.01315415 -0.84835172 -0.88631123 0.43306330
-6.98948145 -3.33449244 2.04050756 -0.79353917 -0.89161718 0.87219596
-6.97135115 -3.35601211 1.21822929 -0.79148078 -0.89737135 0.52072078
-7.56891108 -3.16946697 1.21923208 -0.85932374 -0.84749067 0.52114940
-6.75070953 -3.42013383 1.58426690 -0.76643062 -0.91451705 0.67718011
-7.35187149 -3.26197720 1.61350095 -0.83468252 -0.87222719 0.68967593
-7.45842457 -3.54840040 0.79020488 -0.84677988 -0.94881451 0.33776572
-7.57572365 -3.73982525 1.09448028 -0.86009723 -1.00000000 0.46782538
-7.44225931 -3.35748363 1.01175833 -0.84494454 -0.89776486 0.43246666
-7.00137806 -3.39444160 2.05034351 -0.79488987 -0.90764713 0.87640023
-7.78062344 -3.26843691 2.14864755 -0.88336015 -0.87395447 0.91841936
-6.96783972 -3.40846968 1.22142458 -0.79108214 -0.91139811 0.52208656
-7.52335739 -3.20617294 1.21500504 -0.85415190 -0.85730553 0.51934260
-7.41741276 -3.40253568 1.01119995 -0.84212363 -0.90981144 0.43222800
-6.73760796 -3.31821585 1.97786820 -0.76494312 -0.88726497 0.84542131
-7.54428434 -3.22568631 2.08803606 -0.85652781 -0.86252326 0.89251155
-6.92862892 -3.44334936 1.21822929 -0.78663039 -0.92072469 0.52072078
-7.56843424 -3.28153205 1.22587454 -0.85926962 -0.87745601 0.52398866
-7.40848923 -3.44077039 1.01231670 -0.84111053 -0.92003506 0.43270534
-6.70808268 -3.34299827 1.97372675 -0.76159102 -0.89389157 0.84365112
-7.48453379 -3.24207211 2.07551312 -0.84974414 -0.86690468 0.88715875
-6.92289495 -3.48131108 1.22014642 -0.78597939 -0.93087536 0.52154022
-6.71132898 -3.54728413 1.58928645 -0.76195961 -0.94851601 0.67932570
-6.90480804 -3.20872593 1.52559626 -0.78392595 -0.85798818 0.65210193
-7.54979897 -3.43426681 0.73738050 -0.85715389 -0.91829604 0.31518641
-7.40465403 -3.49566102 1.01510847 -0.84067512 -0.93471241 0.43389866
-6.71792746 -3.40086961 1.98304498 -0.76270872 -0.90936589 0.84763408
-7.37000465 -3.24788809 2.04896426 -0.83674127 -0.86845988 0.87581068
-6.92195511 -3.53557181 1.22398078 -0.78587270 -0.94538420 0.52317917
-7.11986732 -3.18171287 1.15703392 -0.80834234 -0.85076511 0.49456337
-6.86099195 -3.68232012 1.63111603 -0.77895135 -0.98462355 0.69720536
-6.93240452 -3.27451372 1.53643382 -0.78705907 -0.87557936 0.65673429
-8.25117302 -3.28562284 1.70042431 -0.93678325 -0.87854981 0.72683054
-7.50999928 -3.47333074 0.73527986 -0.85263532 -0.92874146 0.31428853
-7.39327002 -3.54723001 1.01678360 -0.83938265 -0.94850153 0.43461466
-7.30523014 -3.27444363 2.03644133 -0.82938719 -0.87556058 0.87045789
-6.89610386 -3.57716632 1.22334170 -0.78293771 -0.95650625 0.52290601
-7.00783014 -3.18490863 1.14163542 -0.79562235 -0.85161966 0.48798141
-6.77905083 -3.25476289 1.50632954 -0.76964831 -0.87029815 0.64386654
-7.64881229 -3.10002995 1.57774484 -0.86839521 -0.82892376 0.67439234
-7.44747353 -3.63074231 1.02878845 -0.84553653 -0.97083205 0.43974602
-7.54322004 -3.31798172 0.97601432 -0.85640699 -0.88720232 0.41718823
-6.86825848 -3.61765099 1.22238314 -0.77977633 -0.96733153 0.52249628
-7.00565004 -3.23712277 1.14465475 -0.79537487 -0.86558127 0.48927200
-6.70028019 -3.26909900 1.49308360 -0.76070517 -0.87413150 0.63820469
-7.69081402 -3.17363596 1.59077954 -0.87316382 -0.84860539 0.67996389
-7.39572477 -3.30834246 0.95724082 -0.83966136 -0.88462490 0.40916365
-6.99616146 -3.24291658 1.96030128 -0.79429758 -0.86713052 0.83791250
-6.99233913 -3.28441978 1.14586246 -0.79386359 -0.87822813 0.48978823
-6.66906071 -3.30594087 1.49067521 -0.75716072 -0.88398272 0.63717520
-7.63456392 -3.20660448 1.58311212 -0.86677754 -0.85742092 0.67668653
-7.49732685 -3.41085768 0.97547793 -0.85119659 -0.91203666 0.41695896
-6.89672995 -3.24987984 1.93775976 -0.78300881 -0.86899245 0.82827735
-6.97156477 -3.32828879 1.14586246 -0.79150504 -0.88995838 0.48978823
-6.66217661 -3.35478973 1.49388635 -0.75637919 -0.89704454 0.63854778
-7.52013350 -3.20002675 1.56202662 -0.85378587 -0.85566211 0.66767371
-7.43981457 -3.42697597 0.96930951 -0.84466702 -0.91634655 0.41432232
-7.14381456 -3.40668416 2.01289797 -0.81106114 -0.91092068 0.86039448
-7.75746250 -3.14659190 2.04876351 -0.88073063 -0.84137404 0.87572485
-6.98432159 -3.37479234 1.15069330 -0.79295337 -0.90239304 0.49185312
-6.66727209 -3.39676332 1.49870300 -0.75695765 -0.90826792 0.64060664
-7.42970324 -3.21662211 1.54707503 -0.84351903 -0.86009955 0.66128278
-7.46295547 -3.49477720 0.97601432 -0.84729427 -0.93447608 0.41718823
-6.77334929 -3.28351951 1.91271377 -0.76900095 -0.87798744 0.81757170
-7.63539171 -3.15279770 2.02123284 -0.86687154 -0.84303343 0.86395717
-6.96120262 -3.41774249 1.15039146 -0.79032856 -0.91387761 0.49172410
-6.64754057 -3.43948340 1.49910450 -0.75471747 -0.91969097 0.64077824
-7.33039236 -3.22823024 1.53020668 -0.83224392 -0.86320353 0.65407258
-7.44263744 -3.54245520 0.97628248 -0.84498751 -0.94722480 0.41730285
-6.75780296 -3.32856512 1.91421652 -0.76723593 -0.89003223 0.81821400
-7.56717300 -3.18028712 2.00819182 -0.85912645 -0.85038388 0.85838288
-6.93250465 -3.45790195 1.14918375 -0.78707039 -0.92461592 0.49120790
-6.65358973 -3.49568820 1.50552666 -0.75540429 -0.93471968 0.64352334
-7.06481981 -3.16367316 1.47768450 -0.80209261 -0.84594142 0.63162249
-7.56580353 -3.34515119 0.92182285 -0.85897094 -0.89446723 0.39402458
-6.72115040 -3.36320376 1.90970826 -0.76307464 -0.89929438 0.81628698
-7.56843233 -3.23698139 2.01398778 -0.85926938 -0.86554348 0.86086029
-6.88768387 -3.48983550 1.14525855 -0.78198177 -0.93315470 0.48953009
-6.94131470 -3.16054583 1.45544887 -0.78807068 -0.84510523 0.62211806
-8.08571434 -3.17935634 1.58284640 -0.91799814 -0.85013503 0.67657292
-7.52109003 -3.38210368 0.91851586 -0.85389447 -0.90434808 0.39261106
-6.63593340 -3.37307930 1.89117420 -0.75339967 -0.90193498 0.80836481
-7.46617031 -3.24864674 1.99177003 -0.84765929 -0.86866271 0.85136354
-6.87618303 -3.53844309 1.14707017 -0.78067601 -0.94615197 0.49030444
-6.86794662 -3.17921567 1.44394767 -0.77974093 -0.85009736 0.61720198
-8.03999996 -3.21992302 1.57772338 -0.91280806 -0.86098224 0.67438316
-7.51052809 -3.43421602 0.92004216 -0.85269535 -0.91828251 0.39326346
-7.27188015 -3.21807909 1.94443655 -0.82560086 -0.86048919 0.83113128
-6.85907841 -3.58431029 1.14797592 -0.77873409 -0.95841652 0.49069160
-6.75880480 -3.16714454 1.42362893 -0.76734972 -0.84686965 0.60851693
-7.83508635 -3.18130112 1.53966677 -0.88954353 -0.85065502 0.65811622
-7.45100784 -3.44967461 0.91393685 -0.84593779 -0.92241597 0.39065379
-7.41938496 -3.32575369 1.98887205 -0.84234756 -0.88928050 0.85012484
-7.02611113 -3.32364297 2.32497907 -0.79769784 -0.88871610 0.99379063
-6.85961533 -3.62578630 1.15099525 -0.77879506 -0.96950686 0.49198219
-6.63788939 -3.16116238 1.40177655 -0.75362176 -0.84527010 0.59917635
-7.70217085 -3.18416786 1.51697910 -0.87445319 -0.85142154 0.64841861
-7.43457651 -3.49894309 0.91470003 -0.84407228 -0.93558997 0.39098001
-7.21488905 -3.28812861 1.93864059 -0.81913048 -0.87921983 0.82865387
-6.86556005 -3.30019403 2.27791214 -0.77946997 -0.88244605 0.97367233
-6.44144678 -3.11680865 1.36343932 -0.73131895 -0.83341026 0.58278942
-7.60400248 -3.19989705 1.50124407 -0.86330783 -0.85562742 0.64169276
-7.13076782 -3.30385947 1.92125285 -0.80957991 -0.88342619 0.82122165
-8.76719761 -3.50512600 2.21251321 -0.99536926 -0.93724328 0.94571817
-6.77771330 -3.31033063 2.25525022 -0.76949644 -0.88515651 0.96398568
-6.57125616 -3.23125911 1.39602602 -0.74605668 -0.86401337 0.59671831
-7.42633057 -3.18065882 1.46940827 -0.84313613 -0.85048330 0.62808490
-7.17826128 -3.38102603 1.94008958 -0.81497198 -0.90405989 0.82927322
-7.59067822 -3.09310675 1.91617525 -0.86179507 -0.82707256 0.81905127
-6.76191616 -3.35541630 2.25699329 -0.76770294 -0.89721203 0.96473074
-6.58764887 -3.29100728 1.40407681 -0.74791777 -0.87998956 0.60015953
-7.46213913 -3.25146508 1.48075211 -0.84720159 -0.86941630 0.63293368
-7.27227116 -3.48166609 1.97196734 -0.82564527 -0.93097025 0.84289908
-7.69702435 -3.19261312 1.94858718 -0.87386888 -0.85367978 0.83290541
-6.98303270 -3.52081060 2.33950591 -0.79280704 -0.94143718 1.00000000
-6.55635309 -3.32697487 1.40177655 -0.74436468 -0.88960701 0.59917635
-7.39477396 -3.27768850 1.47123790 -0.83955342 -0.87642825 0.62886691
-6.81971169 -3.31648493 1.85266757 -0.77426463 -0.88680214 0.79190546
-7.64989805 -3.22962642 1.94164181 -0.86851847 -0.86357683 0.82993668
-6.56501484 -3.37045240 1.40714383 -0.74534810 -0.90123260 0.60147053
-6.66314554 -3.27879024 1.81354499 -0.75648916 -0.87672287 0.77518290
-6.55761242 -3.41893291 1.41021085 -0.74450767 -0.91419590 0.60278147
-6.94283342 -3.17041922 1.38634229 -0.78824306 -0.84774530 0.59257907
-6.65454769 -3.32669902 1.81692600 -0.75551301 -0.88953328 0.77662808
-7.59427977 -3.30505228 1.93654847 -0.86220396 -0.88374513 0.82775962
-6.54293060 -3.46376038 1.41174436 -0.74284077 -0.92618239 0.60343695
-6.64733887 -3.37551236 1.82078993 -0.75469458 -0.90258557 0.77827966
-7.51458883 -3.32685590 1.92126858 -0.85315639 -0.88957524 0.82122833
-7.14584446 -3.33702183 2.27634406 -0.81129158 -0.89229351 0.97300208
-6.53657627 -3.51320839 1.41519463 -0.74211937 -0.93940443 0.60491174
-6.71194220 -3.16813016 1.34718788 -0.76202923 -0.84713322 0.57584292
-7.63207293 -3.43596983 1.95738482 -0.86649472 -0.91875142 0.83666593
-7.09522438 -3.36793923 2.26678205 -0.80554456 -0.90056062 0.96891487
-6.50577021 -3.54948497 1.41327775 -0.73862183 -0.94910449 0.60409242
-6.65462637 -3.19248223 1.33950329 -0.75552195 -0.85364479 0.57255822
-7.42968464 -3.40168858 1.91015589 -0.84351695 -0.90958488 0.81647831
-7.10161638 -3.42572379 2.27578163 -0.80627024 -0.91601175 0.97276163
-6.58991671 -3.19989562 1.32925737 -0.74817526 -0.85562706 0.56817865
-6.77110243 -3.30671406 2.17341185 -0.76874590 -0.88418949 0.92900467
-6.58910418 -3.25075340 1.33328259 -0.74808300 -0.86922604 0.56989920
-6.97773838 -3.28930378 1.80134439 -0.79220593 -0.87953407 0.76996785
-6.72092533 -3.33476973 2.16384983 -0.76304913 -0.89169133 0.92491746
-6.58791208 -3.30172706 1.33730781 -0.74794769 -0.88285595 0.57161975
-6.85854816 -3.28626275 1.77541482 -0.77867389 -0.87872094 0.75888455
-6.71700191 -3.38552451 2.16947460 -0.76260364 -0.90526277 0.92732167
-6.56528234 -3.34216738 1.33694184 -0.74537843 -0.89366943 0.57146335
-6.78696823 -3.30472636 1.76198697 -0.77054715 -0.88365799 0.75314492
-6.56864071 -3.39592648 1.34206486 -0.74575973 -0.90804416 0.57365310
-6.59144592 -3.26149964 1.71568418 -0.74834889 -0.87209946 0.73335320
-6.58378601 -3.45622349 1.34974933 -0.74747920 -0.92416710 0.57693779
-6.74664593 -3.39061975 1.76244998 -0.76596928 -0.90662521 0.75334281
-6.57090378 -3.48904514 1.35048127 -0.74601668 -0.93294334 0.57725066
-6.74796009 -3.43114686 1.76708031 -0.76611847 -0.91746181 0.75532204
-6.57658529 -3.54511452 1.35633612 -0.74666172 -0.94793588 0.57975322
-6.72280598 -3.47170115 1.76615417 -0.76326263 -0.92830569 0.75492615
