-0.87463105 7.12558317 2.00451994 -0.44400394 0.97732449 0.88385487
-1.05363274 6.66468859 1.49784505 -0.53487366 0.91410953 0.66044623
-1.09258509 6.64062500 1.49385905 -0.55464768 0.91080898 0.65868866
-1.01458311 6.84455013 1.93073940 -0.51505023 0.93877882 0.85132277
-1.13361847 6.62978649 1.49297321 -0.57547820 0.90932244 0.65829808
-1.05936623 6.84944248 1.93401849 -0.53778422 0.93944979 0.85276860
-1.16935992 6.58990479 1.48544407 -0.59362221 0.90385234 0.65497828
-1.07867074 6.76461744 1.91106451 -0.54758412 0.92781544 0.84264749
-1.19648898 6.56322670 1.48057234 -0.60739422 0.90019327 0.65283018
-0.85688704 7.15665722 1.95531225 -0.43499625 0.98158652 0.86215770
-0.86151189 6.82394266 1.86429012 -0.43734404 0.93595231 0.82202321
-1.23692679 6.67487431 1.89357579 -0.62792236 0.91550654 0.83493614
-0.94600672 7.13958883 1.95371532 -0.48023760 0.97924542 0.86145353
-1.27970922 6.50805712 1.84930742 -0.64964074 0.89262640 0.81541687
-1.42927647 6.41379404 1.83181870 -0.72556812 0.87969750 0.80770552
-1.14024544 6.72232723 1.84778905 -0.57884234 0.92201507 0.81474739
-1.48001242 6.44965887 1.84493518 -0.75132406 0.88461667 0.81348902
-1.18870509 6.75112343 1.85790265 -0.60344273 0.92596465 0.81920677
-1.58093357 6.19122076 2.12919021 -0.80255640 0.84917003 0.93882585
-1.53600764 6.07453823 1.38845122 -0.77974987 0.83316618 0.61221111
-1.51216865 6.45009995 1.84712136 -0.76764810 0.88467711 0.81445295
-1.21274042 6.70179129 1.84565997 -0.61564422 0.91919839 0.81380862
-1.64197862 6.30458832 2.17154169 -0.83354574 0.86471921 0.95749992
-1.54261982 6.39935541 1.83509779 -0.78310657 0.87771720 0.80915141
-1.67859101 6.28317595 2.16769147 -0.85213190 0.86178231 0.95580226
-0.86220765 7.07165241 1.87433183 -0.43769723 0.96992749 0.82645088
-1.01987648 7.03670216 2.26792884 -0.51773739 0.96513379 1.00000000
-1.55001199 6.25891685 1.79684114 -0.78685915 0.85845500 0.79228288
-1.28565478 6.62731886 1.82915878 -0.65265900 0.90898401 0.80653268
-0.91340852 7.11781216 1.88830924 -0.46368921 0.97625864 0.83261395
-1.01358807 6.70296192 2.16068888 -0.51454508 0.91935897 0.95271456
-1.61624503 6.19244576 1.78317809 -0.82048213 0.84933805 0.78625840
-1.62944520 6.08746958 1.75530541 -0.82718319 0.83493978 0.77396846
-1.66016233 6.08714151 1.75749147 -0.84277666 0.83489484 0.77493238
-1.19663692 6.81957436 2.20752931 -0.60746932 0.93535316 0.97336799
-1.72299623 6.16359615 1.78317809 -0.87467408 0.84538108 0.78625840
-1.44608033 6.42038202 1.78231704 -0.73409855 0.88060111 0.78587872
-1.56770742 6.27623796 2.11119771 -0.79584217 0.86083072 0.93089241
-1.23150122 6.76888990 2.19335389 -0.62516809 0.92840147 0.96711761
-1.48467362 6.40365171 1.78018785 -0.75369030 0.87830645 0.78493989
-1.61689270 6.30490780 2.12442493 -0.82081097 0.86476302 0.93672466
-0.96215290 7.12855339 2.22492623 -0.48843417 0.97773188 0.98103881
-1.55886781 6.53869915 1.82117450 -0.79135478 0.89682913 0.80301219
-1.69657254 6.44895172 2.17733312 -0.86126018 0.88451964 0.96005356
-1.15489089 6.73203897 1.79564416 -0.58627707 0.92334712 0.79175508
-1.02393734 7.24521685 2.26389360 -0.51979887 0.99373311 0.99822074
-1.79193890 5.97538233 1.73727012 -0.90967268 0.81956625 0.76601613
-1.53873980 6.27580690 1.74931490 -0.78113687 0.86077160 0.77132708
-1.19578946 6.71704626 1.79357338 -0.60703909 0.92129076 0.79084200
-0.87584984 7.07048798 1.80852222 -0.44462267 0.96976775 0.79743344
-1.02648163 6.94217491 2.16977239 -0.52109045 0.95216870 0.95671976
-1.81804383 5.92725658 1.72633970 -0.92292476 0.81296545 0.76119661
-1.59999418 6.35395002 1.77433264 -0.81223249 0.87148947 0.78235817
-1.96987224 5.90119219 2.07207990 -1.00000000 0.80939054 0.91364413
-1.21731079 6.59927464 1.76354790 -0.61796433 0.90513754 0.77760285
-1.07835889 6.99029875 2.18715763 -0.54742581 0.95876926 0.96438545
-1.85000706 5.93146658 1.73016536 -0.93915081 0.81354290 0.76288342
-1.60907280 6.26411486 1.75091183 -0.81684119 0.85916793 0.77203119
-1.25058627 6.60484695 1.76665390 -0.63485652 0.90590179 0.77897239
-1.61635637 6.13074303 1.71578050 -0.82053870 0.84087509 0.75654072
-1.69174111 6.10436916 1.71418357 -0.85880750 0.83725768 0.75583661
-1.04413688 6.76169443 1.73538780 -0.53005308 0.92741454 0.76518619
-1.73006237 6.09361935 1.71418357 -0.87826121 0.83578330 0.75583661
-1.09263742 6.79325199 1.74540627 -0.55467427 0.93174291 0.76960361
-1.75767064 6.04556990 1.70353770 -0.89227647 0.82919294 0.75114250
-1.43238437 6.45111370 1.73611069 -0.72714585 0.88481617 0.76550490
-1.12933600 6.74995041 1.73588872 -0.57330418 0.92580378 0.76540703
-1.26900363 6.62240839 2.08344436 -0.64420605 0.90831047 0.91865510
-0.90691620 7.16424322 2.15762973 -0.46039340 0.98262697 0.95136571
-1.78776300 6.04277134 1.70513463 -0.90755278 0.82880914 0.75184661
-1.47317064 6.48947430 1.74853504 -0.74785084 0.89007759 0.77098322
-1.55273628 6.19168329 2.03249383 -0.78824210 0.84923345 0.89618939
-0.90119964 6.86589956 2.06756306 -0.45749143 0.94170702 0.91165251
-1.47651565 6.32218456 1.70504975 -0.74954897 0.86713266 0.75180918
-1.63387275 6.34381771 2.08673024 -0.82943082 0.87009978 0.92010391
-1.49152935 6.21142435 1.67709494 -0.75717062 0.85194111 0.73948306
-1.23087978 6.64751768 1.71434915 -0.62485260 0.91175437 0.75590956
-0.90301549 6.97005272 1.71453118 -0.45841324 0.95599234 0.75598985
-1.01274085 6.73230743 2.03211737 -0.51411498 0.92338389 0.89602345
-1.69791555 6.23561811 1.34792948 -0.86194199 0.85525942 0.59434384
-1.29615068 6.53840446 1.68980396 -0.65798718 0.89678872 0.74508685
-0.94011617 6.91618252 1.70245624 -0.47724727 0.94860369 0.75066561
-0.97825038 6.87364721 1.69327939 -0.49660599 0.94276965 0.74661928
-1.62141871 6.11485767 1.66052914 -0.82310855 0.83869630 0.73217869
-1.00602055 6.83825207 1.68555140 -0.51070344 0.93791497 0.74321175
-1.66903853 6.13807487 1.66984749 -0.84728265 0.84188068 0.73628742
-1.04596460 6.81262207 1.68072152 -0.53098094 0.93439960 0.74108213
-0.86361176 7.17266989 2.08229136 -0.43841004 0.98378277 0.91814667
-1.70022833 6.10143709 1.66259992 -0.86311603 0.83685553 0.73309177
-1.42906499 6.41149378 1.66475797 -0.72546077 0.87938201 0.73404330
-1.54143059 6.22086620 1.97853220 -0.78250283 0.85323608 0.87239605
-1.06751716 6.67565966 1.64787781 -0.54192203 0.91561425 0.72660029
-1.25339770 6.91740894 2.09952211 -0.63628376 0.94877189 0.92574424
-0.92400402 7.29090834 2.11885214 -0.46906799 1.00000000 0.93426746
-1.44112217 6.27774572 1.63169718 -0.73158157 0.86103755 0.71946579
-1.61719489 6.35725546 2.02589250 -0.82096434 0.87194288 0.89327866
-1.24378312 6.63117838 2.01352310 -0.63140291 0.90951335 0.88782465
-1.48536789 6.28931093 1.63720727 -0.75404274 0.86262381 0.72189534
-1.28801513 6.63637543 2.01759052 -0.65385717 0.91022617 0.88961810
-1.52079666 6.26290655 1.63269901 -0.77202809 0.85900223 0.71990752
-1.18827736 6.62762260 1.64111590 -0.60322559 0.90902561 0.72361881
-1.30714536 6.51751471 1.98330724 -0.66356862 0.89392358 0.87450153
-1.00307643 6.86561394 1.99848306 -0.50920886 0.94166785 0.88119304
-1.96325326 5.96593761 1.99921262 -0.99663991 0.81827080 0.88151473
-1.21770966 6.61241150 1.63870096 -0.61816680 0.90693933 0.72255397
-1.35191596 6.57872438 2.00422597 -0.68629628 0.90231889 0.88372523
-1.02558899 6.79435921 1.97879660 -0.52063733 0.93189478 0.87251264
-1.57636189 6.19322443 1.61867321 -0.80023563 0.84944481 0.71372312
-1.96398354 5.84538984 1.96223330 -0.99701059 0.80173683 0.86520940
-1.71011889 6.11324644 1.95934820 -0.86813694 0.83847529 0.86393726
-1.39402962 6.57384205 2.00538802 -0.70767516 0.90164924 0.88423765
-1.09695017 6.97366905 2.03391886 -0.55686361 0.95648837 0.89681774
-1.61572719 6.18507242 1.61917412 -0.82021928 0.84832674 0.71394396
-1.76980233 6.17765284 1.98392773 -0.89843506 0.84730905 0.87477511
-1.11789393 6.82451868 1.99173343 -0.56749564 0.93603134 0.87821692
-1.80805123 6.16457844 1.98332822 -0.91785204 0.84551585 0.87451077
-1.19436574 6.75698566 1.97598422 -0.60631633 0.92676872 0.87127256
-1.38978040 6.41167974 1.59812939 -0.70551807 0.87940753 0.70466471
-1.23951995 6.76445866 1.98048401 -0.62923878 0.92779368 0.87325668
-1.39995992 6.31606531 1.57542872 -0.71068567 0.86629331 0.69465530
-1.11549377 6.65827084 1.57214546 -0.56627721 0.91322929 0.69320756
-1.24972987 6.64153385 1.94561076 -0.63442177 0.91093367 0.85788000
-1.44093060 6.31281710 1.57687759 -0.73148429 0.86584783 0.69529414
-1.14911258 6.60318422 1.56056976 -0.58334368 0.90567374 0.68810350
-1.54080582 6.16487074 1.89440274 -0.78218567 0.84555590 0.83530080
-1.27410245 6.54307032 1.91861200 -0.64679444 0.89742869 0.84597540
-1.19635534 6.62840176 1.56844127 -0.60732639 0.90913248 0.69157428
-1.35173547 6.71944046 1.97373426 -0.68620461 0.92161912 0.87028050
-1.33236778 6.40996361 1.88373876 -0.67637271 0.87917215 0.83059871
-1.54025233 6.20736647 1.55707490 -0.78190470 0.85138452 0.68656248
-1.25408399 6.47905111 1.53602934 -0.63663214 0.88864797 0.67728287
-1.38966823 6.48221397 1.90792513 -0.70546108 0.88908184 0.84126323
-1.56466413 6.18124008 1.55224490 -0.79429728 0.84780109 0.68443280
-1.28012753 6.45015430 1.53047299 -0.64985305 0.88468462 0.67483288
-1.66816056 6.06417847 1.87464619 -0.84683692 0.83174527 0.82658952
-1.31870532 6.43244743 1.52815783 -0.66943699 0.88225597 0.67381209
-1.76516175 6.11437798 1.89730811 -0.89607930 0.83863050 0.83658183
-1.52095437 6.18419218 1.83142889 -0.77210814 0.84820598 0.80753368
-1.39859831 6.04065037 1.44110858 -0.70999444 0.82851821 0.63542938
-1.56906307 6.21176004 1.84267831 -0.79653037 0.85198712 0.81249386
-1.46583986 6.02869129 1.44203472 -0.74412942 0.82687795 0.63583773
-1.89302933 5.89335203 1.84443033 -0.96099091 0.80831522 0.81326640
-1.52323520 6.09870815 1.46148181 -0.77326602 0.83648127 0.64441258
-1.92218602 5.85772896 1.83687639 -0.97579223 0.80342925 0.80993563
-1.64786959 6.07804394 1.81061745 -0.83653629 0.83364701 0.79835725
-1.85267854 6.05553770 2.24538374 -0.94050694 0.83056015 0.99005920
-1.54765534 6.20491791 2.19925046 -0.78566283 0.85104871 0.96971756
-1.88671684 6.03121901 2.24063945 -0.95778638 0.82722461 0.98796725
-1.74385715 6.12706661 1.83199143 -0.88526410 0.84037083 0.80778170
-1.91299820 5.98343754 2.22708392 -0.97112805 0.82067108 0.98199022
-1.68214631 6.28129292 2.23685837 -0.85393673 0.86152405 0.98630005
-1.71169615 6.23415518 2.22366261 -0.86893767 0.85505879 0.98048162
-1.83931780 5.92648125 1.78361881 -0.93372440 0.81285912 0.78645271
-1.86273289 5.87085629 1.77011955 -0.94561100 0.80522972 0.78050047
-1.81938457 6.16815853 2.21178651 -0.92360538 0.84600687 0.97524512
-1.83435297 6.07699966 2.18275595 -0.93120402 0.83350378 0.96244466
-1.86461461 6.07370758 2.18473530 -0.94656628 0.83305228 0.96331739
-1.93165421 6.02100325 2.17417860 -0.98059875 0.82582349 0.95866263
-1.93509269 5.90278339 2.13525128 -0.98234427 0.80960876 0.94149834
