0.33060884 7.19262934 2.01053166 0.42821062 0.96040940 0.87050939
0.28625998 7.21763563 2.01709008 0.37076914 0.96374840 0.87334901
0.18653381 6.84946346 1.91161108 0.24160199 0.91458750 0.82767928
0.03359893 6.68496466 1.48367250 0.04351795 0.89262247 0.64239269
0.15372810 6.82333708 1.90395975 0.19911145 0.91109896 0.82436645
0.35448241 7.23958492 1.96649039 0.45913211 0.96667922 0.85144061
0.17660192 6.89770603 2.25417614 0.22873802 0.92102921 0.97600126
-0.05960068 6.73438311 1.87827313 -0.07719588 0.89922118 0.81324476
0.30469626 7.14730167 1.94040799 0.39464816 0.95435691 0.84014761
0.14033285 6.73052454 1.45541286 0.18176167 0.89870596 0.63015699
0.10367991 7.06624937 2.30960369 0.13428812 0.94353426 1.00000000
0.10846495 6.72330141 1.45368433 0.14048578 0.89774150 0.62940854
0.05883051 7.02690077 2.29637671 0.07619835 0.93828017 0.99427307
0.06637015 6.73556566 1.45627713 0.08596383 0.89937907 0.63053119
0.17209238 6.82967329 1.85151517 0.22289719 0.91194499 0.80165923
0.01455535 7.00245523 2.28818846 0.01885236 0.93501604 0.99072772
-0.02933378 6.91888618 2.26047468 -0.03799365 0.92385733 0.97872835
-0.01830559 6.63432455 1.43380606 -0.02370973 0.88586068 0.62080175
-0.39567983 6.26943350 2.09261394 -0.51249176 0.83713794 0.90604889
-0.44893187 6.45764112 2.15742445 -0.58146477 0.86226869 0.93411022
-0.31008324 6.26332283 1.74656105 -0.40162548 0.83632195 0.75621676
0.01101476 6.80484247 1.84406304 0.01426652 0.90862942 0.79843265
-0.34852302 6.24588680 1.74218881 -0.45141339 0.83399379 0.75432372
-0.18365020 6.56710863 2.14458036 -0.23786709 0.87688553 0.92854905
-0.39152482 6.30116701 1.75858450 -0.50711012 0.84137517 0.76142263
-0.23022866 6.73658276 2.20126772 -0.29819638 0.89951491 0.95309329
-0.53733218 6.35421705 1.41369593 -0.69596243 0.84845883 0.61209458
-0.41845313 6.12203884 1.70830441 -0.54198813 0.81745678 0.73965263
0.33826393 7.23782587 1.90694571 0.43812561 0.96644431 0.82565928
0.16693318 6.88749552 2.19643545 0.21621490 0.91966581 0.95100099
-0.57706326 6.34877396 1.41325307 -0.74742287 0.84773201 0.61190283
0.15620676 6.78159618 1.41653001 0.20232184 0.90552539 0.61332166
-0.46483985 6.22094536 1.73727012 -0.60206908 0.83066344 0.75219405
0.12676491 7.09577560 2.26361465 0.16418822 0.94747680 0.98008794
0.11391658 6.80591059 1.42154956 0.14754684 0.90877205 0.61549503
-0.50213951 6.19681406 1.73125839 -0.65038025 0.82744128 0.74959111
0.07094742 6.77911186 1.41569352 0.09189239 0.90519369 0.61295950
-0.52843392 6.16180229 1.72196746 -0.68443727 0.82276624 0.74556839
-0.36458904 6.28576756 2.05388045 -0.47222239 0.83931893 0.88927829
-0.42004308 6.54482126 2.14080119 -0.54404747 0.87390959 0.92691278
0.15900765 6.81886959 1.79305577 0.20594962 0.91050243 0.77634782
0.00408076 7.12544680 2.27285933 0.00528548 0.95143872 0.98409063
-0.29966509 6.33122206 1.71524811 -0.38813171 0.84538835 0.74265903
-0.77207065 6.25909424 2.10095572 -1.00000000 0.83575737 0.90966070
-0.77116954 5.95180607 1.99764383 -0.99883288 0.79472613 0.86492926
-0.08082524 6.81293201 2.17178273 -0.10468633 0.90970957 0.94032699
-0.55680215 6.70414591 2.19685888 -0.72118032 0.89518368 0.95118433
0.03041997 6.79747295 1.78684354 0.03940050 0.90764540 0.77365810
0.24551721 7.23291063 2.23871469 0.31799838 0.96578801 0.96930689
-0.41639918 6.28404427 1.70406997 -0.53932780 0.83908886 0.73781919
-0.56087017 6.25986671 2.05010128 -0.72644931 0.83586049 0.88764203
0.19611566 7.10462427 2.19794869 0.25401258 0.94865835 0.95165622
-0.44731051 6.30124664 1.70939291 -0.57936472 0.84138584 0.74012393
0.33007681 7.10912514 1.80651855 0.42752153 0.94925934 0.78217685
0.16975613 7.38204336 2.28487611 0.21987124 0.98570126 0.98929358
0.28373909 7.07236958 1.79650009 0.36750406 0.94435149 0.77783912
0.14314686 6.77642918 1.71885741 0.18540642 0.90483546 0.74422181
-0.75258535 5.95856571 1.95751190 -0.97476226 0.79562873 0.84755313
0.10163743 6.83720922 1.73438597 0.13164265 0.91295123 0.75094527
-0.37985155 6.29013729 2.00599217 -0.49199066 0.83990240 0.86854386
-0.09075752 6.78235865 2.09603405 -0.11755080 0.90562719 0.90752977
-0.13168505 6.68054295 2.06426048 -0.17056088 0.89203209 0.89377260
0.27357715 7.31007290 2.18610239 0.35434213 0.97609127 0.94652706
-0.53058863 6.30976963 2.01585317 -0.68722808 0.84252387 0.87281346
-0.57465905 6.35367060 2.03126121 -0.74430889 0.84838581 0.87948471
0.17148098 6.84992409 2.04548216 0.22210529 0.91464901 0.88564205
-0.58711630 6.07541704 1.94189465 -0.76044375 0.81123149 0.84079129
0.24106251 6.97562122 1.70245624 0.31222856 0.93143296 0.73712051
0.10263281 7.43696022 2.22329116 0.13293189 0.99303412 0.96262884
-0.20598125 6.33700275 1.60564935 -0.26679069 0.84616023 0.69520557
-0.35437724 6.32083750 1.95395279 -0.45899588 0.84400171 0.84601218
0.19555651 6.91103172 1.68603444 0.25328836 0.92280853 0.73001027
0.05615038 7.48912859 2.23898005 0.07272699 1.00000000 0.96942174
-0.24634434 6.35106373 1.60965669 -0.31906968 0.84803772 0.69694066
-0.39442295 6.32420015 1.95575130 -0.51086378 0.84445071 0.84679085
0.00959107 7.15825891 2.13845420 0.01242252 0.95582002 0.92589658
-0.72213686 5.99569798 1.92093968 -0.93532485 0.80058688 0.83171833
0.06373376 6.67865801 1.62759209 0.08254913 0.89178038 0.70470619
-0.07578409 6.83251286 2.03967142 -0.09815694 0.91232413 0.88312614
0.30300540 7.21619558 2.08172894 0.39245811 0.96355611 0.90133601
-0.11540207 6.66926861 1.99028003 -0.14947087 0.89052665 0.86174095
-0.37623689 6.28174162 2.30118322 -0.48730889 0.83878136 0.99635416
-0.38617942 6.17920303 1.56707835 -0.50018662 0.82508975 0.67850530
-0.14673294 6.66482449 1.98911798 -0.19005118 0.88993323 0.86123776
0.16756561 6.83088779 1.96754706 0.21703404 0.91210717 0.85189813
0.12676039 6.93158579 1.99679565 0.16418238 0.92555302 0.86456203
0.08452433 7.02052212 2.02266932 0.10947746 0.93742841 0.87576467
-0.16523917 6.26145220 1.52423120 -0.21402079 0.83607221 0.65995359
-0.70833629 6.00483418 1.86462748 -0.91745013 0.80180681 0.80733657
-0.21189466 6.46394348 1.57494569 -0.27444983 0.86311024 0.68191165
-0.59230185 6.15017509 2.25871158 -0.76716018 0.82121372 0.97796500
-0.23856916 6.36979151 1.55176198 -0.30899912 0.85053843 0.67187369
-0.36712733 6.32472038 1.88859200 -0.47551003 0.84452021 0.81771260
-0.03608217 6.71960878 1.93436122 -0.04673429 0.89724845 0.83752948
-0.64093959 6.24708080 2.29630947 -0.83015668 0.83415323 0.99424392
-0.26602754 6.10063076 1.48510861 -0.34456372 0.81459820 0.64301449
-0.07846729 6.73844194 1.93998599 -0.10163226 0.89976317 0.83996487
-0.67643458 6.20750475 2.28308058 -0.87613040 0.82886875 0.98851615
-0.30538529 6.11821938 1.48993862 -0.39554060 0.81694674 0.64510572
-0.12123355 6.76660156 1.94842303 -0.15702391 0.90352321 0.84361792
-0.16923732 7.02475071 2.02435684 -0.21919926 0.93799305 0.87649530
-0.74953508 6.15755272 2.26776290 -0.97081155 0.82219881 0.98188400
-0.39368033 6.25814581 2.22301722 -0.50990194 0.83563071 0.96251023
-0.42539969 6.17719221 1.50636041 -0.55098546 0.82482123 0.65221596
-0.55623090 6.20907450 1.85779500 -0.72044045 0.82907838 0.80437827
-0.51036477 6.35354090 2.26029491 -0.66103375 0.84836853 0.97865057
-0.64265054 6.01022100 1.80026865 -0.83237273 0.80252606 0.77947080
-0.34177434 6.29202986 1.81174242 -0.44267237 0.84015512 0.78443867
-0.54943281 6.34083843 2.25690603 -0.71163541 0.84667242 0.97718322
-0.67973548 6.00036192 1.79852545 -0.88040578 0.80120963 0.77871603
-0.38646919 6.37981606 1.83817863 -0.50056195 0.85187697 0.79588485
-0.33287877 6.25969934 1.45731461 -0.43115065 0.83583814 0.63098037
-0.36088669 6.23086262 1.45083225 -0.46742705 0.83198768 0.62817365
-0.35999838 6.24493551 2.15042639 -0.46627647 0.83386678 0.93108028
-0.39896357 6.21099377 1.44666493 -0.51674491 0.82933462 0.62636936
-0.74223483 6.03310251 2.15388370 -0.96135610 0.80558139 0.93257719
-0.44942442 6.40381050 2.20782781 -0.58210272 0.85508084 0.95593363
-0.47769353 6.21519184 1.44898009 -0.61871737 0.82989520 0.62737173
-0.58352649 6.00817633 1.73412132 -0.75579417 0.80225307 0.75083071
-0.74757731 6.01455450 2.08246851 -0.96827579 0.80310470 0.90165621
