-2.07817221 6.83440208 1.58775163 -0.64543951 0.96306825 0.72046500
-2.10763121 6.77841330 1.57756519 -0.65458888 0.95517856 0.71584278
-2.15733242 6.78732109 1.58287990 -0.67002511 0.95643383 0.71825439
-2.19507360 6.75880623 1.57933676 -0.68174678 0.95241565 0.71664661
-2.29312372 6.80442715 1.59616661 -0.71219921 0.95884430 0.72428340
-2.30640650 6.70513153 1.57579362 -0.71632457 0.94485211 0.71503890
-1.98073816 6.91473532 1.55739689 -0.61517841 0.97438836 0.70669109
-2.03557396 6.94153690 1.56647170 -0.63220930 0.97816509 0.71080893
-2.24237967 6.73070526 1.98047292 -0.69643909 0.94845581 0.89866787
-2.34673786 6.55455732 1.54656291 -0.72885072 0.92363393 0.70177501
-2.07748055 6.92299414 1.56517529 -0.64522469 0.97555214 0.71022063
-2.13115716 6.94343567 1.57295382 -0.66189557 0.97843266 0.71375030
-2.32805324 6.70562744 1.98156607 -0.72304761 0.94492197 0.89916390
-2.35317945 6.67645597 1.97610080 -0.73085135 0.94081128 0.89668399
-2.21149182 6.93261719 1.57597876 -0.68684596 0.97690821 0.71512288
-2.23940802 6.87026930 1.56474316 -0.69551617 0.96812242 0.71002460
-2.43889284 6.65177202 1.97774041 -0.75747222 0.93733293 0.89742798
-2.12758636 6.88257265 1.95424771 -0.66078657 0.96985614 0.88676780
-2.28987002 6.87831736 1.56992888 -0.71118867 0.96925652 0.71237767
-2.46909928 6.60571384 1.96844947 -0.76685375 0.93084270 0.89321208
-2.17309141 6.87642813 1.95637679 -0.67491955 0.96899033 0.88773394
-2.48778224 6.53080654 1.95041418 -0.77265632 0.92028713 0.88502830
-2.22271442 6.88283730 1.96223199 -0.69033146 0.96989346 0.89039081
-2.57295585 6.32826138 1.51688933 -0.79910958 0.89174551 0.68831021
-2.22819114 6.75328779 1.92869759 -0.69203240 0.95163804 0.87517411
-2.58637166 6.24897575 1.50138819 -0.80327624 0.88057297 0.68127638
-2.35963464 6.66441107 1.53017235 -0.73285621 0.93911397 0.69433755
-2.01524401 7.04044199 1.53197980 -0.62589520 0.99210227 0.69515771
-2.30554867 6.87993765 1.96861959 -0.71605814 0.96948487 0.89328927
-2.66745353 6.35886526 1.53150463 -0.82845867 0.89605808 0.69494212
-2.04784656 7.02899075 1.53156149 -0.63602096 0.99048865 0.69496793
-2.33944678 6.83792877 1.96063519 -0.72658622 0.96356517 0.88966626
-2.68576598 6.29181862 1.51910377 -0.83414620 0.88661021 0.68931502
-2.38410211 6.50407696 1.49862647 -0.74045533 0.91652054 0.68002319
-2.11227608 7.08340120 1.54662025 -0.65603149 0.99815589 0.70180106
-2.72602749 6.27660608 1.51954663 -0.84665060 0.88446653 0.68951601
-2.42017365 6.47615051 1.49560142 -0.75165844 0.91258526 0.67865050
-2.14867902 7.04382277 1.54076409 -0.66733754 0.99257869 0.69914371
-2.38090205 6.68255663 1.92390692 -0.73946142 0.94167095 0.87300026
-2.74874759 6.22193956 1.51024592 -0.85370702 0.87676322 0.68529570
-2.45529890 6.44620132 1.49214435 -0.76256764 0.90836501 0.67708182
-2.40847135 6.62756109 1.91219652 -0.74802393 0.93392128 0.86768651
-2.77410769 6.17434359 1.50271678 -0.86158341 0.87005621 0.68187922
-2.48944259 6.41424417 1.48825514 -0.77317202 0.90386176 0.67531705
-2.42547512 6.54533911 1.89250171 -0.75330496 0.92233497 0.85874969
-2.82426834 6.18159294 1.50891733 -0.87716228 0.87107778 0.68469280
-2.08555841 6.84624863 1.88313234 -0.64773351 0.96473759 0.85449821
-2.82534623 6.10811472 1.49385905 -0.87749708 0.86072361 0.67785990
-2.54179001 6.34111595 1.47745180 -0.78943008 0.89355689 0.67041487
-2.21240640 6.68702507 1.47216344 -0.68712997 0.94230062 0.66801518
-2.51851535 6.57414484 1.90900278 -0.78220141 0.92639410 0.86623728
-2.86283326 6.08847952 1.49341619 -0.88913983 0.85795671 0.67765892
-2.26132298 6.69335365 1.47676468 -0.70232254 0.94319242 0.67010307
-2.75513935 6.11154747 1.86952877 -0.85569221 0.86120731 0.84832543
-2.21104479 6.94272041 1.91781712 -0.68670708 0.97833186 0.87023693
-2.91034079 6.08970070 1.49828792 -0.90389472 0.85812879 0.67986953
-2.30333352 6.67901325 1.47676468 -0.71537018 0.94117165 0.67010307
-1.88531709 7.04708529 1.85260332 -0.58554250 0.99303842 0.84064525
-2.87425256 6.16699362 1.89794803 -0.89268643 0.86902052 0.86122108
-2.23175526 6.71658325 1.86190736 -0.69313937 0.94646579 0.84486705
-1.93361330 7.05005026 1.85661066 -0.60054231 0.99345624 0.84246361
-2.97795153 6.03518438 1.49385905 -0.92489326 0.85044664 0.67785990
-2.71337128 6.30577040 1.48479807 -0.84271985 0.88857621 0.67374837
-2.93366528 6.19221687 1.91161108 -0.91113883 0.87257487 0.86742085
-3.01845026 6.02157688 1.49518764 -0.93747139 0.84852916 0.67846274
-2.74127078 6.26173019 1.47831607 -0.85138488 0.88237029 0.67080706
-2.97620535 6.20603943 1.92035544 -0.92435098 0.87452263 0.87138873
-2.70627689 6.10216904 1.44288087 -0.84051645 0.85988575 0.65472782
-2.78415275 6.14698839 2.20378733 -0.86470318 0.86620146 1.00000000
-2.75732350 6.11356449 1.44979501 -0.85637057 0.86149156 0.65786523
-2.06447172 6.88559437 1.82505262 -0.64118439 0.97028196 0.82814372
-2.79406428 6.09256411 1.44893074 -0.86778152 0.85853231 0.65747303
-2.20882249 6.72358036 1.41561508 -0.68601692 0.94745183 0.64235556
-2.41313148 6.59806108 1.84792995 -0.74947125 0.92976427 0.83852464
-2.82409167 6.05716515 1.44460940 -0.87710744 0.85354406 0.65551215
-2.24855256 6.70213223 1.41400945 -0.69835627 0.94442946 0.64162701
-2.75702453 6.15800571 1.82809424 -0.85627770 0.86775398 0.82952392
-2.42257214 6.49778605 1.82359898 -0.75240332 0.91563404 0.82748413
-2.18011308 6.95341682 1.85059965 -0.67710030 0.97983915 0.83973604
-2.86791039 6.05167150 1.44763434 -0.89071667 0.85276991 0.65688479
-2.29565477 6.70271492 1.41722059 -0.71298528 0.94451153 0.64308411
-2.81448054 6.20824099 1.84725678 -0.87412238 0.87483287 0.83821917
-2.17205858 6.81381416 1.81553519 -0.67459875 0.96016711 0.82382506
-2.32083249 6.67329836 1.41320670 -0.72080499 0.94036633 0.64126271
-2.88710785 6.26407003 1.86961305 -0.89667904 0.88270003 0.84836364
-2.93427730 6.01977205 1.44763434 -0.91132891 0.84827483 0.65688479
-2.36661530 6.66967487 1.41561508 -0.73502427 0.93985575 0.64235556
-3.20026851 6.00646353 1.89849448 -0.99394059 0.84639943 0.86146903
-2.55581808 6.50884295 1.83912945 -0.79378694 0.91719210 0.83453125
-2.98496199 6.02750492 1.45411646 -0.92707062 0.84936452 0.65982616
-2.73067284 6.27354097 1.42907894 -0.84809339 0.88403463 0.64846498
-2.36003327 6.67096376 1.79599917 -0.73298001 0.94003737 0.81496030
-2.76836109 6.27351522 2.18595815 -0.85979861 0.88403100 0.99190974
-2.73336911 6.17410564 1.40983737 -0.84893078 0.87002271 0.63973385
-2.40124917 6.65418005 1.79549825 -0.74578083 0.93767226 0.81473297
-2.78504109 6.18530416 1.41653001 -0.86497909 0.87160075 0.64277077
-2.43125844 6.63915062 1.79449642 -0.75510114 0.93555439 0.81427842
-2.79438543 6.14928627 2.15267658 -0.86788124 0.86652529 0.97680777
-2.05219173 6.85989094 1.74737477 -0.63737047 0.96665996 0.79289627
-2.76188874 6.05837822 1.38975906 -0.85778844 0.85371500 0.63062304
-2.46553302 6.60376883 1.78898633 -0.76574618 0.93056858 0.81177813
-2.83301401 6.11178207 1.40649092 -0.87987852 0.86124039 0.63821536
-2.50424314 6.58090067 1.78698266 -0.77776873 0.92734611 0.81086892
-2.18560243 6.98345947 1.78649735 -0.67880523 0.98407263 0.81064874
-2.83024979 6.00729370 1.38599443 -0.87902004 0.84651643 0.62891477
-2.51846814 6.12922430 1.32329500 -0.78218675 0.86369824 0.60046405
-3.18928647 6.02428484 1.84725678 -0.99052978 0.84891075 0.83821917
-2.75311613 6.11985493 1.76354790 -0.85506380 0.86237800 0.80023509
-2.52469945 6.51081705 1.77195501 -0.78412211 0.91747034 0.80404991
-2.35965395 6.88573837 2.17506194 -0.73286217 0.97030228 0.98696542
-2.87813926 6.01052856 1.39101398 -0.89389354 0.84697229 0.63119251
-2.56518459 6.13318777 1.32771039 -0.79669595 0.86425674 0.60246760
-2.84085870 6.20944881 1.79512644 -0.88231492 0.87500310 0.81456429
-2.40350842 6.87258101 2.17564297 -0.74648255 0.96844822 0.98722911
-2.92531967 6.01164246 1.39561522 -0.90854686 0.84712923 0.63328034
-2.64557052 6.21623135 1.34978688 -0.82166225 0.87595886 0.61248511
-2.58255792 6.44847155 1.76243758 -0.80209178 0.90868491 0.79973125
-2.72995377 6.37781191 2.14459324 -0.84787005 0.89872789 0.97313982
-2.21527839 6.67414331 1.71549714 -0.68802196 0.94048542 0.77843136
-2.97187304 6.03458071 1.40439951 -0.92300540 0.85036159 0.63726634
-2.68638945 6.23071814 1.35580778 -0.83433980 0.87800026 0.61521715
-2.62665319 6.44109297 1.76494217 -0.81578690 0.90764517 0.80086774
-1.99556041 7.09648800 1.71985137 -0.61978191 1.00000000 0.78040713
-3.01765370 6.03150654 1.40816414 -0.93722397 0.84992838 0.63897461
-2.77863622 6.33588791 1.38310230 -0.86298984 0.89282024 0.62760246
-2.61694479 6.30271244 1.73087955 -0.81277168 0.88814527 0.78541136
-3.10189986 6.12187481 2.18780708 -0.96338922 0.86266261 0.99274874
-2.31176686 6.68242550 1.72515702 -0.71798939 0.94165248 0.78281468
-2.50319242 6.77981281 2.15937281 -0.77744240 0.95537579 0.97984630
-2.83028436 6.34518003 1.38912320 -0.87903076 0.89412963 0.63033450
-2.67146182 6.32186079 1.74089789 -0.82970357 0.89084357 0.78995728
-2.78038073 6.17019176 2.09123802 -0.86353165 0.86947119 0.94892913
-2.02298784 6.85979462 1.66752923 -0.62830031 0.96664643 0.75666523
-2.46492386 6.55104017 2.09022498 -0.76555693 0.92313832 0.94846946
-2.88939571 6.37015200 1.39875662 -0.89738959 0.89764851 0.63470578
-2.72404361 6.33522844 1.74941361 -0.84603447 0.89272726 0.79382145
-2.38362622 6.62001371 1.71646309 -0.74030751 0.93285775 0.77886969
-2.56402731 6.68535185 2.13903522 -0.79633653 0.94206482 0.97061783
-2.93180943 6.35721636 1.39996076 -0.91056246 0.89582568 0.63525218
-2.14427376 6.94919920 1.69623697 -0.66596931 0.97924483 0.76969177
-2.22369146 6.72430372 2.04066849 -0.69063491 0.94755375 0.92598248
-2.73510170 6.17195034 1.71184456 -0.84946889 0.86971897 0.77677393
-2.89299464 6.09416866 1.34777987 -0.89850736 0.85875839 0.61157435
-2.44511962 6.12655497 1.25417793 -0.75940615 0.86332208 0.56910115
-2.83072543 6.28191376 1.74791086 -0.87916774 0.88521445 0.79313952
-2.93292022 6.07940578 1.34858274 -0.91090745 0.85667807 0.61193871
-2.48803329 6.12196827 1.25647819 -0.77273428 0.86267579 0.57014495
-3.00363016 6.12780952 1.36383557 -0.93286854 0.86349887 0.61885989
-2.53703380 6.13157558 1.26184535 -0.78795290 0.86402959 0.57258034
-2.54283142 6.45215225 1.69134736 -0.78975350 0.90920359 0.76747304
-2.25230622 6.73053503 1.65456450 -0.69952208 0.94843185 0.75078231
-2.36421251 6.62119484 2.02548170 -0.73427796 0.93302417 0.91909128
-2.26772976 6.63700294 1.63465428 -0.70431232 0.93525177 0.74174774
-2.41554070 6.63328886 2.03391886 -0.75021952 0.93472838 0.92291975
-2.46114802 6.62878799 2.03729367 -0.76438427 0.93409413 0.92445111
-2.69770145 6.21269512 1.28868151 -0.83785313 0.87546051 0.58475763
-2.63897228 6.37143660 1.68168747 -0.81961298 0.89782953 0.76308972
-2.33799291 6.60432291 1.63280213 -0.72613472 0.93064666 0.74090731
-2.48363066 6.59374189 2.02998137 -0.77136689 0.92915565 0.92113304
-3.06517339 6.19468498 1.75342095 -0.95198268 0.87292266 0.79563981
-2.66908336 6.33151007 1.67540860 -0.82896489 0.89220333 0.76024061
-2.49634099 6.50266790 2.00635767 -0.77531451 0.91632199 0.91041344
-2.85005474 6.34281111 1.32395184 -0.88517106 0.89379579 0.60076207
-2.76812220 6.10450888 2.00015831 -0.85972440 0.86021549 0.90760040
-2.62963438 6.02744675 1.60199332 -0.81671280 0.84935629 0.72692734
-2.93951964 6.32782984 1.32855237 -0.91295707 0.89168471 0.60284960
-3.12910342 6.03423929 1.72386658 -0.97183812 0.85031348 0.78222913
-2.76733732 6.23401737 1.66285074 -0.85948062 0.87846518 0.75454229
-2.97078729 6.29151011 1.32471859 -0.92266822 0.88656670 0.60110998
-2.82011724 6.24653769 1.67106164 -0.87587303 0.88022947 0.75826812
-2.58994126 6.43420219 1.61613321 -0.80438489 0.90667415 0.73334354
-2.80534482 6.51543140 1.28607762 -0.87128502 0.91812056 0.58357608
-2.87006044 6.07596684 1.63773501 -0.89138442 0.85619348 0.74314564
-2.62299156 6.39977741 1.61150289 -0.81464970 0.90182316 0.73124248
-2.82584929 6.45079088 1.27656353 -0.87765330 0.90901172 0.57925892
-2.97241807 6.19059181 1.67444253 -0.92317468 0.87234586 0.75980222
-3.00783110 6.16482639 1.67251062 -0.93417329 0.86871511 0.75892562
-2.70169401 6.36272526 1.61057687 -0.83909309 0.89660197 0.73082227
-2.73832941 6.10490942 1.92592418 -0.85047138 0.86027193 0.87391561
-3.04477191 6.14233351 1.67154455 -0.94564641 0.86554551 0.75848722
-2.73318791 6.32595301 1.60548353 -0.84887451 0.89142025 0.72851110
-3.04829955 6.07768297 1.65753782 -0.94674200 0.85643530 0.75213146
-2.74669623 6.27552366 1.59575999 -0.85306990 0.88431400 0.72409892
-3.08642626 6.05841017 1.65753782 -0.95858341 0.85371947 0.75213146
-2.77585340 6.23500443 1.58974063 -0.86212558 0.87860423 0.72136754
-2.95846891 6.30374002 2.00579524 -0.91884238 0.88829011 0.91015828
-2.81975746 6.22808933 1.59251881 -0.87576133 0.87762982 0.72262818
-2.96516776 6.21563959 1.98329628 -0.92092288 0.87587547 0.89994901
-2.83620024 6.16069460 1.57955396 -0.88086814 0.86813289 0.71674520
-2.88468599 6.16392899 1.58511031 -0.89592683 0.86858869 0.71926647
-3.21977854 6.07244253 1.97935903 -1.00000000 0.85569686 0.89816242
