-6.23548841 -10.15519524 2.04258752 -0.96731347 -0.93798470 0.90836251
-6.39133167 -10.71034241 2.13941145 -0.99148947 -0.98926091 0.95142126
-6.31394815 -10.73328972 2.13597798 -0.97948492 -0.99138039 0.94989437
-5.94283867 -10.24726677 2.03022695 -0.92191458 -0.94648892 0.90286565
-5.65251255 -10.29799080 2.01305962 -0.87687618 -0.95117402 0.89523113
-6.22275972 -10.19280815 1.98453927 -0.96533883 -0.94145882 0.88254780
-6.44619226 -10.70767593 2.07853675 -1.00000000 -0.98901463 0.92434955
-5.32515001 -10.26724529 1.98147178 -0.82609236 -0.94833422 0.88118362
-5.88552380 -10.02697086 1.93120730 -0.91302329 -0.92614126 0.85883045
-5.73660469 -10.03602791 1.27198136 -0.88992143 -0.92697781 0.56566495
-5.28554010 -10.34967709 1.99108553 -0.81994766 -0.95594805 0.88545901
-5.94919538 -10.28201866 1.97387290 -0.92290068 -0.94969875 0.87780434
-5.80650187 -10.30908108 1.30517602 -0.90076458 -0.95219839 0.58042705
-5.20012093 -10.34216022 1.98318851 -0.80669653 -0.95525372 0.88194710
-5.13329554 -10.37109470 1.98250186 -0.79632986 -0.95792627 0.88164175
-5.90382719 -10.50538921 2.00287199 -0.91586274 -0.97033036 0.89070058
-5.04481649 -10.35527706 1.97323143 -0.78260410 -0.95646530 0.87751907
-5.69301224 -10.28201675 1.95254016 -0.88315892 -0.94969857 0.86831743
-4.93806982 -10.29963875 1.95640743 -0.76604444 -0.95132625 0.87003726
-4.87242079 -10.32867908 1.95606411 -0.75586027 -0.95400858 0.86988455
-6.23491716 -10.14619541 1.89339387 -0.96722484 -0.93715346 0.84201437
-4.84856510 -10.40514660 1.96636450 -0.75215954 -0.96107149 0.87446529
-6.28625059 -10.33926773 1.92438817 -0.97518820 -0.95498657 0.85579789
-6.31875324 -10.62396145 1.66584611 -0.98023033 -0.98128229 0.74082124
-4.92620611 -10.74910641 2.02645016 -0.76420403 -0.99284130 0.90118605
-5.37213326 -10.26665211 1.92454088 -0.83338088 -0.94827944 0.85586584
-6.25586891 -10.67028904 1.66700220 -0.97047508 -0.98556137 0.74133533
-4.76904774 -10.58030415 1.98833871 -0.73982400 -0.97724992 0.88423747
-5.27579737 -10.23890495 1.91287446 -0.81843626 -0.94571656 0.85067761
-6.16401863 -10.66650677 1.65977705 -0.95622629 -0.98521203 0.73812222
-4.56013489 -10.28737450 1.92687964 -0.70741528 -0.95019346 0.85690588
-5.94955683 -10.21342659 1.87901509 -0.92295676 -0.94336325 0.83561999
-6.03047132 -10.58797932 1.64012456 -0.93550909 -0.97795880 0.72938257
-5.17236280 -10.35550880 1.92254090 -0.80239040 -0.95648670 0.85497642
-5.83528328 -10.16320038 1.86271906 -0.90522951 -0.93872410 0.82837290
-5.01900339 -10.20921803 1.88887513 -0.77859968 -0.94297451 0.84000486
-5.89053392 -10.41122246 1.90202117 -0.91380054 -0.96163267 0.84585100
-5.16468525 -10.77516079 1.31947148 -0.80119938 -0.99524784 0.58678436
-5.01581001 -10.32491398 1.90620804 -0.77810431 -0.95366079 0.84771299
-5.74913406 -10.27330875 1.87134635 -0.89186513 -0.94889426 0.83220959
-5.64455843 -10.23654652 1.85792613 -0.87564230 -0.94549870 0.82624143
-5.06428242 -10.76512241 1.97687280 -0.78562385 -0.99432063 0.87913841
-4.94250965 -10.68049335 1.95520675 -0.76673323 -0.98650390 0.86950326
-6.17592239 -10.18450928 1.78505397 -0.95807296 -0.94069231 0.79383433
-4.82446289 -10.60014343 1.93454063 -0.74842060 -0.97908235 0.86031282
-4.65262794 -10.39643383 1.89120841 -0.72176373 -0.96026671 0.84104246
-6.20047855 -10.51994991 1.83094764 -0.96188235 -0.97167528 0.81424379
-5.37296677 -10.56018639 1.59099340 -0.83351016 -0.97539175 0.70753336
-4.59478140 -10.39841747 1.88754189 -0.71279001 -0.96044993 0.83941191
-5.26382017 -10.25801659 1.83204424 -0.81657821 -0.94748181 0.81473148
-6.16981125 -10.58147240 1.83668447 -0.95712495 -0.97735780 0.81679505
-5.06959581 -10.82661057 1.25281131 -0.78644812 -1.00000000 0.55713981
-5.87498569 -10.22443390 1.76693797 -0.91138852 -0.94437993 0.78577793
-5.13274956 -10.31981277 1.83140528 -0.79624516 -0.95318961 0.81444734
-5.83603477 -10.30583191 1.77478826 -0.90534604 -0.95189828 0.78926909
-5.25217819 -10.82351875 1.61758208 -0.81477219 -0.99971443 0.71935767
-5.07040262 -10.35718346 1.83236384 -0.78657329 -0.95664138 0.81487358
-5.74217606 -10.29055214 1.76573026 -0.89078575 -0.95048696 0.78524089
-5.02571774 -10.43156052 1.84003246 -0.77964133 -0.96351117 0.81828392
-5.46308327 -10.73392200 1.55867743 -0.84748995 -0.99143881 0.69316208
-4.99663448 -10.67050076 1.87294400 -0.77512962 -0.98558092 0.83292007
-4.90068960 -10.63887310 1.86176050 -0.76024562 -0.98265964 0.82794666
-5.09394455 -10.32966995 1.48441482 -0.79022533 -0.95410007 0.66013658
-4.71362829 -10.40308762 1.81447017 -0.73122674 -0.96088129 0.80691606
-4.62256193 -10.37474442 1.80424523 -0.71709961 -0.95826340 0.80236894
-5.96579742 -10.44145584 1.40312219 -0.92547619 -0.96442521 0.62398481
-5.19986820 -10.32540131 1.73161185 -0.80665731 -0.95370579 0.77006799
-5.94790840 -10.56335354 1.41558707 -0.92270106 -0.97568429 0.62952811
-5.23711586 -10.56316662 1.76663601 -0.81243557 -0.97566700 0.78564370
-5.84966135 -10.50468922 1.40286779 -0.90745997 -0.97026575 0.62387168
-5.05634356 -10.32163811 1.72134614 -0.78439230 -0.95335823 0.76550275
-6.24045610 -10.18689060 2.18919134 -0.96808410 -0.94091225 0.97355896
-5.31088257 -10.55754662 1.46010208 -0.82387900 -0.97514790 0.64932448
-4.98622131 -10.34252739 1.71953452 -0.77351421 -0.95528764 0.76469707
-6.15084171 -10.18386650 2.18004322 -0.95418215 -0.94063294 0.96949071
-4.91943789 -10.37008286 1.71893072 -0.76315409 -0.95783281 0.76442856
-4.84579086 -10.38288689 1.71591139 -0.75172919 -0.95901543 0.76308584
-4.76306915 -10.37542725 1.70957077 -0.73889655 -0.95832646 0.76026607
-5.06458664 -10.23916817 2.19689250 -0.78567106 -0.94574088 0.97698379
-5.75604868 -10.20717525 2.14674354 -0.89293778 -0.94278586 0.95468193
-5.76940155 -10.38222122 2.17638397 -0.89500922 -0.95895398 0.96786338
-5.28374529 -10.68103695 1.38913095 -0.81966919 -0.98655409 0.61776274
-4.97269821 -10.37995911 2.21376109 -0.77141637 -0.95874506 0.98448539
-4.98325634 -10.57270718 2.24864793 -0.77305424 -0.97654819 1.00000000
-4.72829008 -10.32322598 2.18347454 -0.73350126 -0.95350486 0.97101665
-4.64406347 -10.30974293 2.17427349 -0.72043514 -0.95225954 0.96692485
-5.33738041 -10.31943607 2.12808108 -0.82798964 -0.95315480 0.94638252
-5.22677279 -10.26349068 2.10941887 -0.81083107 -0.94798744 0.93808323
-5.14891720 -10.26978683 2.10392976 -0.79875326 -0.94856900 0.93564212
-4.96719933 -10.39159870 2.10941887 -0.77056330 -0.95982015 0.93808323
-5.02560425 -10.81618881 2.18553209 -0.77962369 -0.99903738 0.97193164
-4.65222311 -10.35341549 2.07831478 -0.72170097 -0.95629334 0.92425084
-4.63893795 -10.49925327 2.10210013 -0.71964002 -0.96976364 0.93482846
