-5.60894680 9.27260113 1.85443342 -0.76430392 0.96625376 0.78307122
-5.74329615 9.39382935 1.88464797 -0.78261107 0.97888637 0.79582989
-6.09984207 9.43493843 1.92378950 -0.83119583 0.98317015 0.81235820
-6.06693935 9.25652409 1.89460504 -0.82671237 0.96457845 0.80003446
-6.19666862 9.35745335 1.92172945 -0.84438992 0.97509581 0.81148827
-6.31810474 9.41146660 1.94130015 -0.86093742 0.98072428 0.81975240
-6.39156151 9.39273357 1.94576371 -0.87094700 0.97877216 0.82163721
-5.64310837 9.30128860 1.80487740 -0.76895899 0.96924317 0.76214516
-5.79004622 9.41025448 1.83354330 -0.78898144 0.98059797 0.77424991
-6.15026760 9.48826122 1.87720883 -0.83806705 0.98872668 0.79268855
-6.20652199 9.44448090 1.87620878 -0.84573257 0.98416454 0.79226625
-7.01874590 9.42738724 2.01408982 -0.95641041 0.98238331 0.85048926
-6.26465034 9.40365505 1.87587547 -0.85365349 0.97991025 0.79212552
-5.75878286 9.39507771 2.32256007 -0.78472137 0.97901648 0.98074692
-6.99340439 9.27156639 1.98971212 -0.95295721 0.96614593 0.84019530
-6.37974644 9.44755745 1.89287508 -0.86933702 0.98448515 0.79930395
-5.90158319 9.49309444 2.35644197 -0.80418009 0.98923033 0.99505424
-6.48230791 9.47082901 1.90587473 -0.88331258 0.98691016 0.80479330
-5.98307943 9.49053001 2.36522627 -0.81528515 0.98896307 0.99876356
-6.03511190 9.47376347 2.36815429 -0.82237536 0.98721594 1.00000000
-7.33863401 9.38652229 2.04224420 -1.00000000 0.97812492 0.86237800
-5.79670525 9.38889408 1.75184250 -0.78988886 0.97837210 0.73975015
-7.31900692 9.24150944 2.02026987 -0.99732554 0.96301383 0.85309893
-5.86819220 9.37234497 1.75567687 -0.79963005 0.97664762 0.74136931
-5.95880270 9.38523293 1.76526272 -0.81197709 0.97799057 0.74541712
-6.08410072 9.45040989 1.78507352 -0.82905084 0.98478234 0.75378263
-5.68613434 9.49823093 2.23365068 -0.77482188 0.98976558 0.94320321
-7.02943373 9.51478004 1.96553981 -0.95786679 0.99149007 0.82998806
-6.11847019 9.37401581 1.77772439 -0.83373421 0.97682172 0.75067931
-5.82680941 9.59644508 2.26576185 -0.79399103 1.00000000 0.95676279
-7.08831167 9.50053978 1.96953964 -0.96588981 0.99000615 0.83167708
-6.20508194 9.40928173 1.79018605 -0.84553635 0.98049659 0.75594145
-7.10396528 9.39753437 1.95720661 -0.96802282 0.97927248 0.82646918
-6.24537563 9.34223938 1.78475404 -0.85102701 0.97351044 0.75364769
-7.28662729 9.39177132 1.97520614 -0.99291331 0.97867191 0.83406985
-7.28104830 9.26351833 1.95754004 -0.99215305 0.96530730 0.82661003
-6.09554625 9.26663303 2.23806596 -0.83061045 0.96563184 0.94506764
-6.30352831 9.48614407 2.29907751 -0.85895115 0.98850608 0.97083098
-6.40885830 9.51468372 2.31593585 -0.87330401 0.99148005 0.97794974
-6.96643019 9.45167637 1.57538712 -0.94928157 0.98491436 0.66523838
-6.11425591 9.37083149 1.67484844 -0.83315992 0.97648990 0.70723790
-6.41562271 9.39646435 2.29666901 -0.87422574 0.97916096 0.96981394
-5.57208967 9.33743668 2.08954811 -0.75928158 0.97300994 0.88235301
-6.92373610 9.33760262 1.84738171 -0.94346386 0.97302723 0.78009349
-6.15560961 9.30581474 1.67001760 -0.83879501 0.96971482 0.70519799
-7.18398666 9.49420547 1.59937465 -0.97892696 0.98934609 0.67536759
-7.07260513 9.41372204 1.87166584 -0.96374953 0.98095930 0.79034793
-6.27545166 9.35902309 1.68692577 -0.85512531 0.97525936 0.71233779
-7.18919659 9.37829494 1.58636940 -0.97963691 0.97726762 0.66987586
-7.08606958 9.30947971 1.85952377 -0.96558428 0.97009671 0.78522068
-7.09854794 9.17083740 1.55428958 -0.96728462 0.95564944 0.65632951
-6.39695168 9.31719971 1.69205868 -0.87168151 0.97090119 0.71450526
-5.95303535 9.46078682 2.14897084 -0.81119120 0.98586369 0.90744543
-7.26580667 9.33056355 1.87997365 -0.99007618 0.97229373 0.79385608
-5.95518494 9.33394241 2.12826872 -0.81148410 0.97264582 0.89870358
-6.93154144 9.40551472 1.50786614 -0.94452745 0.98010403 0.63672632
-6.13453150 9.48235703 2.17158985 -0.83592278 0.98811144 0.91699678
-6.23824930 9.51084232 2.18730831 -0.85005593 0.99107975 0.92363423
-6.35891247 9.56288433 2.20877719 -0.86649811 0.99650282 0.93269986
-6.83580875 9.31596279 1.73070610 -0.93148243 0.97077227 0.73082489
-6.27659941 9.34402847 2.16430593 -0.85528171 0.97369689 0.91392100
-5.58611202 9.37162113 1.99634659 -0.76119232 0.97657216 0.84299684
-7.14032459 9.22548485 1.50535357 -0.97297734 0.96134400 0.63566530
-6.95948744 9.39180279 1.75123751 -0.94833553 0.97867519 0.73949468
-6.43819857 9.45511627 2.19995952 -0.87730205 0.98527282 0.92897642
-5.69965124 9.42730045 2.01610684 -0.77666378 0.98237425 0.85134101
-7.01125431 9.33839130 1.74942589 -0.95538956 0.97310942 0.73872972
-5.79053879 9.44332314 2.02745056 -0.78904861 0.98404390 0.85613114
-6.86051655 9.34158993 1.42926002 -0.93484926 0.97344273 0.60353333
-7.11636496 9.35560417 1.76120126 -0.96971250 0.97490311 0.74370205
-5.90980434 9.50370789 2.04867458 -0.80530030 0.99033630 0.86509335
-6.95109701 9.34117413 1.43650115 -0.94719219 0.97339940 0.60659105
-5.94743967 9.43142128 2.04098988 -0.81042868 0.98280364 0.86184835
-7.20338964 9.55335045 1.47994840 -0.98157090 0.99550933 0.62493747
-6.01714325 9.41045189 2.04464936 -0.81992686 0.98061854 0.86339366
-7.21624565 9.44655800 1.46948886 -0.98332274 0.98438096 0.62052077
-6.06887007 9.39356613 2.04721069 -0.82697546 0.97885895 0.86447519
-6.17074633 9.42111969 2.06184793 -0.84085763 0.98173016 0.87065607
-6.20920944 9.35100269 2.05489540 -0.84609878 0.97442359 0.86772025
-6.36967373 9.46368599 2.08892679 -0.86796451 0.98616582 0.88209069
-7.15835953 9.36111832 2.26743317 -0.97543490 0.97547770 0.95746851
-6.43453550 9.43160820 2.09075642 -0.87680286 0.98282313 0.88286328
-7.32426310 9.45387650 2.30155349 -0.99804175 0.98514360 0.97187650
-7.25457573 9.37981606 2.17272449 -0.98854578 0.97742611 0.91747588
-7.25407600 9.25810814 2.15479398 -0.98847771 0.96474349 0.90990436
