12.71985722 25.92983246 2.91173887 0.81772524 0.93303955 0.77536881
13.98412704 26.10545731 2.84307480 0.89900172 0.93935913 0.75708425
15.11125755 25.79974747 2.64141417 0.97146189 0.92835867 0.70338386
14.70426750 25.95837784 3.68674994 0.94529760 0.93406671 0.98174703
9.33903408 26.22482872 1.34530330 0.60038126 0.94365448 0.35824168
10.55247593 26.39042282 1.21686816 0.67839015 0.94961309 0.32404062
8.94122696 26.25968361 2.29029989 0.57480729 0.94490868 0.60988545
10.09635353 26.35197830 2.18825269 0.64906728 0.94822973 0.58271122
11.60974884 26.29947090 1.09881639 0.74635935 0.94634038 0.29260454
12.68014431 26.00761032 0.92119843 0.81517220 0.93583828 0.24530652
12.20587254 25.96603775 1.88838017 0.78468251 0.93434232 0.50285798
13.90445709 26.06467247 0.80058008 0.89387995 0.93789154 0.21318698
15.09208012 25.92753220 0.61180139 0.97022903 0.93295681 0.16291699
13.47715950 26.18384552 1.78436518 0.86641014 0.94217980 0.47515976
9.22754860 26.19822311 -0.55005306 0.59321415 0.94269711 -0.14647399
10.39389610 26.23887062 -0.72372741 0.66819549 0.94415975 -0.19272184
8.87679291 26.26016045 0.37075186 0.57066500 0.94492584 0.09872775
9.96517181 26.23170662 0.21927774 0.64063394 0.94390196 0.05839161
11.57698822 26.40966988 -0.85169327 0.74425328 0.95030570 -0.22679795
12.64664745 26.14175415 -1.04450178 0.81301874 0.94066519 -0.27814105
11.01445103 26.12092972 0.11658888 0.70808929 0.93991590 0.03104653
12.15399742 26.06096458 -0.07185600 0.78134763 0.93775815 -0.01913458
9.22939491 26.15940666 3.24670148 0.59333283 0.94130039 0.86456621
10.37311172 26.39055824 3.16199350 0.66685933 0.94961798 0.84200931
13.35040665 25.90354919 -0.23474428 0.85826153 0.93209380 -0.06251021
14.60730553 25.87493134 -0.37442368 0.93906415 0.93106407 -0.09970552
12.57667446 25.94654465 2.90669727 0.80852038 0.93364090 0.77402627
13.83583927 26.12356949 2.83766556 0.88946867 0.94001085 0.75564378
14.99950695 25.88789558 2.64326549 0.96427774 0.93153054 0.70387685
14.61090183 26.07928085 3.69438171 0.93929535 0.93841720 0.98377931
9.19885540 26.22142029 1.34264278 0.59136951 0.94353187 0.35753322
10.38540840 26.33209801 1.21134472 0.66764981 0.94751441 0.32256976
8.79968929 26.24862099 2.28541565 0.56570822 0.94451064 0.60858482
9.88808346 26.17743111 2.16869736 0.63567817 0.94194895 0.57750380
12.53225327 26.01487541 0.91907674 0.80566466 0.93609971 0.24474154
11.01305485 26.30968666 2.05349827 0.70799953 0.94670796 0.54682738
12.05728912 25.96719360 1.88401186 0.77513051 0.93438393 0.50169474
13.74515438 26.06092262 0.79810339 0.88363880 0.93775660 0.21252747
14.92678261 25.92388725 0.60965294 0.95960248 0.93282562 0.16234487
13.25782394 26.05844879 1.77055454 0.85230964 0.93766761 0.47148210
14.64159966 26.27651024 1.65401816 0.94126886 0.94551414 0.44044957
9.09679604 26.22062874 -0.54972667 0.58480841 0.94350338 -0.14638707
10.25336647 26.24473381 -0.72277272 0.65916121 0.94437075 -0.19246762
8.77625751 26.37191963 0.37210941 0.56420183 0.94894731 0.09908926
9.81755543 26.21471596 0.21841237 0.63114411 0.94329059 0.05816117
11.42069626 26.39051247 -0.84971356 0.73420566 0.94961631 -0.22627078
12.49310112 26.13795662 -1.04231763 0.80314767 0.94052857 -0.27755943
10.89353848 26.17808342 0.11664273 0.70031613 0.94197243 0.03106087
11.99836922 26.04712677 -0.07203499 0.77134269 0.93726021 -0.01918224
9.04283905 26.15307045 3.23846340 0.58133966 0.94107240 0.86237252
10.11467266 26.21618843 3.13216257 0.65024495 0.94334358 0.83406562
13.15485096 25.92269135 -0.23450486 0.84568977 0.93278259 -0.06244645
14.37824917 25.84740067 -0.37334090 0.92433876 0.93007338 -0.09941719
12.37395382 25.94250298 2.89703441 0.79548800 0.93349552 0.77145314
13.62639236 26.12350273 2.82784843 0.87600392 0.94000846 0.75302958
14.83457661 25.97817039 2.64289522 0.95367479 0.93477893 0.70377827
14.41411686 26.11154366 3.68573236 0.92664456 0.93957812 0.98147607
9.02549744 26.25414276 1.34125936 0.58022481 0.94470930 0.35716483
10.19085026 26.32233429 1.20753551 0.65514219 0.94716305 0.32155541
8.67489338 26.42646599 2.29675388 0.55768543 0.95091003 0.61160409
9.69912243 26.17364502 2.16294575 0.62353033 0.94181275 0.57597220
12.33597088 26.02449799 0.91629660 0.79304624 0.93644595 0.24400121
11.95615292 26.17849922 1.89458036 0.76862872 0.94198740 0.50450903
13.53236771 26.05271912 0.79473758 0.86995929 0.93746144 0.21163118
14.72112274 25.94241905 0.60750455 0.94638115 0.93349248 0.16177277
13.00190067 25.95737648 1.75713480 0.83585703 0.93403071 0.46790856
14.31171322 26.06883812 1.63367879 0.92006135 0.93804145 0.43503338
8.91581345 26.22992134 -0.54898471 0.57317352 0.94383776 -0.14618950
10.06029129 26.23584557 -0.72115391 0.64674890 0.94405091 -0.19203654
8.59740639 26.38660431 0.37133890 0.55270398 0.94947571 0.09888408
9.63813972 26.23647308 0.21787786 0.61960995 0.94407350 0.05801884
11.17575073 26.27586365 -0.84471476 0.71845877 0.94549090 -0.22493964
12.30817890 26.17253494 -1.04081988 0.79125953 0.94177282 -0.27716058
10.69560432 26.16453552 0.11585291 0.68759149 0.94148493 0.03085055
11.80636883 26.06008148 -0.07219104 0.75899953 0.93772638 -0.01922380
8.86689663 26.17551804 3.23410201 0.57002878 0.94188011 0.86121112
9.89971447 26.14735031 3.11574388 0.63642585 0.94086659 0.82969344
12.95958233 25.94040108 -0.23426546 0.83313650 0.93341988 -0.06238270
14.18283939 25.87762260 -0.37279952 0.91177636 0.93116087 -0.09927303
12.19039917 25.97653961 2.89199305 0.78368777 0.93472022 0.77011067
13.39388752 26.07579994 2.81282258 0.86105680 0.93829197 0.74902833
14.20706654 26.12320137 3.67428517 0.91333389 0.93999761 0.97842777
8.85018539 26.28004074 1.33955669 0.56895447 0.94564122 0.35671142
9.95843792 26.21035004 1.19858372 0.64020103 0.94313347 0.31917164
8.48861313 26.41783905 2.29099751 0.54570997 0.95059961 0.61007118
9.51537609 26.18162918 2.15834451 0.61171782 0.94210005 0.57474697
12.14513969 26.04354668 0.91395545 0.78077817 0.93713135 0.24337779
11.76605511 26.19670486 1.89021206 0.75640786 0.94264251 0.50334579
13.32750034 26.05711365 0.79187983 0.85678893 0.93761957 0.21087019
14.51777554 25.96288109 0.60545599 0.93330854 0.93422878 0.16122727
12.80770397 25.97588539 1.75257468 0.82337266 0.93469667 0.46669424
14.09343147 26.05818748 1.62689900 0.90602857 0.93765819 0.43322799
8.73633480 26.24177170 -0.54830217 0.56163532 0.94426417 -0.14600775
9.87408352 26.24240875 -0.71990865 0.63477814 0.94428706 -0.19170494
9.45612335 26.24948883 0.21724156 0.60790861 0.94454181 0.05784939
12.18299866 26.33459663 -1.04375291 0.78321207 0.94760430 -0.27794164
10.51017284 26.17923927 0.11535031 0.67567056 0.94201404 0.03071671
11.60734463 26.05521584 -0.07238840 0.74620479 0.93755126 -0.01927635
8.68104935 26.16663170 3.22586393 0.55808121 0.94156039 0.85901737
9.70820141 26.13642693 3.10672522 0.62411404 0.94047350 0.82729185
12.76108646 25.94950294 -0.23399946 0.82037574 0.93374735 -0.06231187
13.97239780 25.87826729 -0.37200335 0.89824766 0.93118411 -0.09906101
10.95848846 26.31743240 3.06747961 0.70449162 0.94698668 0.81684113
13.17956257 26.05996323 2.80160332 0.84727842 0.93772209 0.74604076
14.52146626 26.18864632 2.64567256 0.93354577 0.94235253 0.70451784
14.00419331 26.14028358 3.66385531 0.90029174 0.94061226 0.97565037
8.71110153 26.41481018 1.34402621 0.56001318 0.95049065 0.35790160
9.77817726 26.23123169 1.19648862 0.62861258 0.94388491 0.31861374
9.33459568 26.19584846 2.15440059 0.60009593 0.94261169 0.57369673
11.99712276 26.15384865 0.91534555 0.77126259 0.94110042 0.24374795
13.09438419 26.00281525 0.78698993 0.84180254 0.93566573 0.20956805
14.31958389 25.99056816 0.60365736 0.92056733 0.93522501 0.16074830
12.59551811 25.95526123 1.74527848 0.80973178 0.93395460 0.46475133
13.90968704 26.10923386 1.62440121 0.89421618 0.93949503 0.43256286
8.56015110 26.26191330 -0.54776800 0.55030894 0.94498891 -0.14586550
9.69304752 26.26079750 -0.71895397 0.62313980 0.94494879 -0.19145072
9.27832794 26.27256584 0.21675797 0.59647864 0.94537222 0.05772062
11.99905109 26.37060738 -1.04237998 0.77138656 0.94890010 -0.27757603
10.32937145 26.20381546 0.11495540 0.66404736 0.94289839 0.03061155
11.42170715 26.07818413 -0.07251232 0.73427069 0.93837774 -0.01930935
8.49994850 26.16966629 3.21932197 0.54643869 0.94166958 0.85727531
9.52471256 26.14465904 3.10025024 0.61231804 0.94076973 0.82556766
13.75686741 25.86670303 -0.37111163 0.88439178 0.93076795 -0.09882355
10.76662636 26.32136536 3.05965614 0.69215727 0.94712818 0.81475782
12.90751362 25.92485428 2.77716112 0.82978916 0.93286043 0.73953205
14.23809719 26.06274414 2.62271404 0.91532874 0.93782216 0.69840419
12.46065044 25.94207764 3.75529528 0.80106151 0.93348020 1.00000000
13.80444717 26.16111183 3.65418863 0.88745058 0.94136173 0.97307622
8.52904510 26.41959381 1.34125936 0.54830927 0.95066279 0.35716483
9.58773708 26.22274971 1.19296503 0.61636966 0.94357967 0.31767544
9.15335369 26.20694923 2.15029240 0.58844435 0.94301111 0.57260275
11.80868530 26.17589378 0.91322386 0.75914842 0.94189364 0.24318297
10.26030445 26.35136986 2.03480315 0.65960723 0.94820786 0.54184902
11.45105648 26.37724876 1.89288950 0.73615748 0.94913906 0.50405878
12.89794254 26.01828575 0.78464025 0.82917386 0.93622237 0.20894235
14.11206913 25.99922562 0.60135901 0.90722674 0.93553656 0.16013628
12.41587257 25.99966049 1.74280298 0.79818285 0.93555218 0.46409214
13.70728207 26.12365913 1.61952448 0.88120407 0.94001406 0.43126422
9.50057697 26.24599457 -0.71729368 0.61076641 0.94441611 -0.19100860
9.09471798 26.27744102 0.21604531 0.58467484 0.94554764 0.05753084
11.89363766 26.58046341 -1.04699814 0.76460981 0.95645136 -0.27880582
10.15948200 26.25514030 0.11482975 0.65312564 0.94474518 0.03057809
11.24891472 26.12923241 -0.07256281 0.72316229 0.94021463 -0.01932280
8.37915325 26.36070442 3.23700953 0.53867310 0.94854373 0.86198533
9.34886932 26.17219162 3.09631920 0.60101354 0.94176042 0.82452083
12.33868122 25.90731430 -0.23326130 0.79322046 0.93222928 -0.06211530
13.56712437 25.90126991 -0.37064987 0.87219375 0.93201178 -0.09870059
10.58624172 26.35159874 3.05518556 0.68056083 0.94821608 0.81356734
12.71726131 25.95002937 2.77095032 0.81755835 0.93376631 0.73787814
14.05705166 26.12013626 2.61938143 0.90368986 0.93988734 0.69751674
12.26442719 25.94995117 3.74483585 0.78844684 0.93376350 0.99721473
13.60591030 26.18222427 3.64477634 0.87468719 0.94212145 0.97056985
9.41197681 26.25239182 1.19144130 0.60507053 0.94464630 0.31726968
8.97104740 26.21303940 2.14585543 0.57672435 0.94323027 0.57142121
10.04692841 26.29047775 2.02453613 0.64588988 0.94601673 0.53911501
11.24196434 26.34778404 1.88513923 0.72271550 0.94807881 0.50199497
12.70444965 26.03770828 0.78248107 0.81673473 0.93692130 0.20836739
13.91445160 26.02392960 0.59956032 0.89452249 0.93642551 0.15965730
12.23277760 26.03559875 1.73980641 0.78641218 0.93684536 0.46329418
13.44192505 26.01423454 1.60644078 0.86414498 0.93607664 0.42778015
9.31336784 26.24300194 -0.71592391 0.59873122 0.94430840 -0.19064383
8.92042351 26.30755806 0.21568897 0.57346988 0.94663137 0.05743596
11.75138760 26.71137238 -1.04893267 0.75546491 0.96116191 -0.27932096
9.96242809 26.23429680 0.11402198 0.64045757 0.94399518 0.03036299
11.04392815 26.10364342 -0.07280147 0.70998430 0.93929386 -0.01938635
9.21155548 26.17661476 3.09146285 0.59218597 0.94191962 0.82322764
12.22326088 25.97965431 -0.23331450 0.78580040 0.93483233 -0.06212947
13.40532112 25.88857651 -0.36996517 0.86179185 0.93155503 -0.09851826
10.44294357 26.35313988 3.04937410 0.67134857 0.94827157 0.81201982
12.56885338 25.95592117 2.76494002 0.80801761 0.93397832 0.73627764
13.26363468 25.82094193 3.58346915 0.85268319 0.92912132 0.95424432
9.26482677 26.23054123 1.18810821 0.59561068 0.94386005 0.31638211
8.83530140 26.21914291 2.14273310 0.56799763 0.94344991 0.57058978
10.35173130 26.30704117 1.07827091 0.66548479 0.94661278 0.28713346
11.54425144 26.35905838 0.91541868 0.74214870 0.94848448 0.24376743
9.86468410 26.18260574 2.01181746 0.63417387 0.94213516 0.53572816
11.09053326 26.33613396 1.88020718 0.71298039 0.94765961 0.50068158
12.55213737 26.03604507 0.78032190 0.80694294 0.93686146 0.20779242
13.74955940 26.00969696 0.59731197 0.88392198 0.93591332 0.15905859
12.08394623 26.03681755 1.73576736 0.77684420 0.93688923 0.46221861
13.31009293 26.05951500 1.60525131 0.85566986 0.93770599 0.42746341
9.16975975 26.22998619 -0.71467870 0.58949906 0.94384009 -0.19031225
7.76522446 26.49129486 0.36866045 0.49920529 0.95324278 0.09817083
8.81348896 26.40050697 0.21637619 0.56659538 0.94997597 0.05761895
10.25673485 26.26419067 -0.83585542 0.65937775 0.94507086 -0.22258048
11.56556034 26.62897873 -1.04425216 0.74351859 0.95819712 -0.27807459
9.82049656 26.23224258 0.11355527 0.63133317 0.94392127 0.03023871
10.91770744 26.14801788 -0.07281983 0.70186990 0.94089061 -0.01939124
9.03327274 26.19454575 3.08660674 0.58072466 0.94256479 0.82193452
12.03797817 26.00873566 -0.23314159 0.77388906 0.93587875 -0.06208342
13.21692371 25.92242432 -0.36951932 0.84968030 0.93277299 -0.09839954
10.23616123 26.31262589 3.03663301 0.65805513 0.94681370 0.80862695
11.42723942 26.36887932 2.89661431 0.73462629 0.94883788 0.77134126
12.35509109 25.92835617 2.75311971 0.79427540 0.93298644 0.73313004
13.07872200 25.85952950 3.57710934 0.84079570 0.93050987 0.95255077
9.09001064 26.25992584 1.18667972 0.58437222 0.94491738 0.31600171
7.64028072 26.46409035 2.27320528 0.49117300 0.95226389 0.60533333
8.72047043 26.42552948 2.15587950 0.56061548 0.95087636 0.57409054
10.16395855 26.31376648 1.07560611 0.65341341 0.94685477 0.28642383
11.37049007 26.41272163 0.91468710 0.73097807 0.95041549 0.24357262
9.67376232 26.17297363 2.00599432 0.62190002 0.94178855 0.53417754
10.88740349 26.31499481 1.87330246 0.69992173 0.94689894 0.49884292
12.35493660 26.04393768 0.77784514 0.79426545 0.93714547 0.20713289
13.54518700 26.01757240 0.59511358 0.87078345 0.93619674 0.15847318
11.91845989 26.10859680 1.73550689 0.76620555 0.93947208 0.46214926
13.03651905 25.92510223 1.59074020 0.83808255 0.93286937 0.42359924
7.90120840 26.32985497 -0.54580933 0.50794733 0.94743365 -0.14534391
8.99113560 26.24736786 -0.71380705 0.57801580 0.94446552 -0.19008014
7.58709383 26.49918365 0.36788994 0.48775375 0.95352668 0.09796565
10.06651211 26.26275444 -0.83412319 0.64714885 0.94501919 -0.22211920
11.29425240 26.45850945 -1.03601456 0.72607696 0.95206308 -0.27588099
9.64516068 26.26526070 0.11328602 0.62006128 0.94510937 0.03016701
10.72582912 26.14950371 -0.07298506 0.68953454 0.94094408 -0.01943524
8.85258007 26.20374489 3.08082557 0.56910843 0.94289583 0.82039505
11.84205627 26.01284599 -0.23288223 0.76129377 0.93602669 -0.06201436
13.01245880 25.92276382 -0.36878684 0.83653581 0.93278521 -0.09820449
9.96520424 26.09969139 3.00332785 0.64063603 0.93915164 0.79975814
11.21137142 26.32308006 2.88317037 0.72074872 0.94718987 0.76776129
12.16157246 25.94058990 2.74590731 0.78183460 0.93342668 0.73120940
13.45367336 26.06899643 2.58901715 0.86490029 0.93804711 0.68943107
12.87437057 25.85775948 3.56515336 0.82765847 0.93044615 0.94936699
8.90490341 26.25788689 1.18372762 0.57247216 0.94484401 0.31521559
9.93621826 26.21264267 1.06804121 0.63877261 0.94321603 0.28440937
9.48809814 26.17510605 2.00124407 0.60996419 0.94186532 0.53291255
10.70228481 26.33484268 1.86963868 0.68802094 0.94761318 0.49786729
12.16995144 26.07575035 0.77625751 0.78237325 0.93829018 0.20671012
13.35952663 26.05947876 0.59391445 0.85884786 0.93770468 0.15815386
11.77702999 26.23396301 1.73915493 0.75711340 0.94398320 0.46312070
12.83877945 25.93674469 1.58610141 0.82537043 0.93328828 0.42236397
7.72046280 26.32715607 -0.54500806 0.49632767 0.94733655 -0.14513054
8.81647968 26.27491379 -0.71318442 0.56678766 0.94545674 -0.18991433
7.40380144 26.48661804 0.36675254 0.47597036 0.95307451 0.09766277
9.88795376 26.28991890 -0.83318281 0.63566983 0.94599664 -0.22186878
11.11152172 26.49024963 -1.03470397 0.71432966 0.95320517 -0.27553198
9.46844673 26.29334831 0.11298086 0.60870081 0.94612002 0.03008575
10.54634285 26.17928886 -0.07307685 0.67799586 0.94201583 -0.01945968
8.68213463 26.24188042 3.07874417 0.55815095 0.94426805 0.81984079
11.65879917 26.04291344 -0.23272264 0.74951267 0.93710858 -0.06197186
12.81916046 25.94307137 -0.36824545 0.82410914 0.93351597 -0.09806032
9.81215382 26.19157600 3.00690413 0.63079685 0.94245797 0.80071044
11.08729362 26.49205017 2.89451361 0.71277213 0.95326996 0.77078187
13.22185993 26.01990891 2.57513094 0.84999764 0.93628079 0.68573326
12.68804359 25.89006233 3.55828476 0.81568003 0.93160850 0.94753796
7.70577765 26.55490875 1.33529997 0.49538362 0.95553184 0.35557789
8.78202915 26.44031334 1.19010806 0.56457293 0.95140833 0.31691465
9.75047016 26.21835518 1.06546235 0.62683135 0.94342154 0.28372267
10.93548298 26.30812836 0.90495664 0.70301265 0.94665188 0.24098149
9.30878830 26.19285583 1.99787283 0.59843683 0.94250399 0.53201485
10.52994061 26.38489532 1.86837041 0.67694139 0.94941419 0.49752957
12.01669884 26.17532539 0.77708310 0.77252108 0.94187319 0.20692995
13.09629059 25.94663429 0.58841848 0.84192508 0.93364418 0.15669034
12.64140987 25.94692802 1.58146262 0.81268203 0.93365473 0.42112869
7.54280949 26.33284187 -0.54435515 0.48490682 0.94754118 -0.14495668
7.23461246 26.52296638 0.36656907 0.46509367 0.95438248 0.09761392
9.70047188 26.29148674 -0.83159900 0.62361711 0.94605309 -0.22144704
10.90671349 26.46715736 -1.03158367 0.70116311 0.95237428 -0.27470109
9.27780819 26.28063965 0.11229875 0.59644520 0.94566274 0.02990411
10.35364056 26.17438507 -0.07325126 0.66560757 0.94183934 -0.01950613
7.58717060 26.59327507 3.23628283 0.48775867 0.95691240 0.86179185
8.50603867 26.26190186 3.07458186 0.54683024 0.94498849 0.81873238
11.46678352 26.05156517 -0.23248988 0.73716849 0.93741989 -0.06190988
12.62349319 25.95658112 -0.36765632 0.81153023 0.93400204 -0.09790344
9.61044884 26.15194702 2.99483395 0.61782974 0.94103199 0.79749626
10.82743359 26.33499336 2.86867595 0.69606644 0.94761854 0.76390159
12.97335243 25.93333626 2.55754185 0.83402175 0.93316567 0.68104947
12.49146366 25.89961052 3.54836369 0.80304241 0.93195206 0.94489604
7.53443241 26.58742523 1.33444858 0.48436829 0.95670187 0.35535118
7.14887238 26.63611603 2.27617049 0.45958167 0.95845395 0.60612291
9.56504345 26.22277069 1.06288338 0.61491078 0.94358045 0.28303590
10.75180435 26.33192444 0.90320075 0.69120443 0.94750816 0.24051391
9.13028431 26.21127129 1.99465477 0.58696127 0.94316667 0.53115791
10.32312012 26.34654236 1.86047924 0.66364545 0.94803417 0.49542820
11.82489586 26.19017029 0.77498740 0.76019055 0.94240737 0.20637189
12.91162300 25.98545074 0.58721936 0.83005333 0.93504089 0.15637103
11.44327068 26.37255669 1.73863375 0.73565692 0.94897020 0.46298191
12.45652199 25.98085213 1.57848895 0.80079609 0.93487543 0.42033684
7.36700153 26.34311485 -0.54379129 0.47360462 0.94791079 -0.14480653
7.03347397 26.43839836 0.36411080 0.45216301 0.95133942 0.09695930
8.09209919 26.43394279 0.21398367 0.52021915 0.95117909 0.05698185
9.51471901 26.29549980 -0.83011419 0.61167556 0.94619745 -0.22105165
10.73193645 26.51478577 -1.03089714 0.68992716 0.95408809 -0.27451825
9.11445713 26.34408569 0.11235260 0.58594382 0.94794577 0.02991845
10.17447186 26.20164490 -0.07334305 0.65408927 0.94282025 -0.01953057
7.41090012 26.60790253 3.23216367 0.47642672 0.95743871 0.86069494
11.28542805 26.08270454 -0.23234358 0.72550964 0.93854040 -0.06187092
12.42989254 25.97226715 -0.36709899 0.79908419 0.93456650 -0.09775502
9.43518353 26.18189049 2.99125743 0.60656244 0.94210941 0.79654390
10.64757824 26.36747360 2.86468482 0.68450403 0.94878733 0.76283878
12.78284264 25.95897293 2.55180240 0.82177436 0.93408811 0.67952108
12.30122852 25.92025375 3.54022336 0.79081273 0.93269491 0.94272834
7.35130072 26.57648277 1.33125603 0.47259524 0.95630813 0.35450104
6.92705584 26.47229958 2.25733161 0.44532168 0.95255929 0.60110629
9.38531971 26.24094963 1.06099224 0.60335684 0.94423455 0.28253230
10.56304359 26.34146881 0.90093273 0.67906952 0.94785160 0.23990996
8.94677544 26.21337700 1.99021089 0.57516402 0.94324243 0.52997452
10.12222099 26.31966782 1.85357451 0.65073019 0.94706708 0.49358955
12.71906853 26.00681305 0.58557051 0.81767452 0.93580955 0.15593195
11.22653866 26.32457352 1.73016500 0.72172379 0.94724363 0.46072677
12.27512074 26.02070045 1.57599115 0.78913432 0.93630928 0.41967171
7.19451332 26.36379814 -0.54340547 0.46251580 0.94865507 -0.14470379
6.87422562 26.50917244 0.36462447 0.44192538 0.95388609 0.09709609
7.94309473 26.54172897 0.21474724 0.51064008 0.95505756 0.05718518
9.33463669 26.31329727 -0.82902539 0.60009855 0.94683790 -0.22076170
10.53406239 26.50369263 -1.02827609 0.67720640 0.95368892 -0.27382031
8.92248821 26.32315826 0.11161664 0.57360262 0.94719273 0.02972247
9.98752117 26.20713615 -0.07348533 0.64207071 0.94301784 -0.01956846
7.27498674 26.60422325 3.22731781 0.46768922 0.95730633 0.85940456
11.13023758 26.06016350 -0.23207092 0.71553290 0.93772930 -0.06179832
12.27825546 25.96909904 -0.36655760 0.78933585 0.93445253 -0.09761086
9.29311848 26.17360497 2.98499870 0.59742945 0.94181132 0.79487723
10.49371243 26.34346771 2.85628223 0.67461240 0.94792348 0.76060122
12.62721443 25.95089912 2.54476666 0.81176949 0.93379760 0.67764753
7.21501970 26.57034683 1.32902122 0.46383411 0.95608735 0.35390592
6.81803465 26.56641388 2.26291370 0.43831301 0.95594585 0.60259277
7.88590431 26.53262901 2.14371920 0.50696349 0.95473015 0.57085234
9.24366570 26.23398781 1.05867124 0.59425026 0.94398409 0.28191423
10.37840462 26.23859406 0.89493352 0.66719955 0.94414979 0.23831242
8.81490898 26.23066711 1.98821878 0.56668663 0.94386458 0.52944404
9.93075466 26.18990898 1.84018767 0.63842136 0.94239795 0.49002478
11.53220463 26.30944824 0.77466989 0.74137425 0.94669938 0.20628734
12.56849575 26.00887489 0.58397168 0.80799460 0.93588376 0.15550619
11.07067299 26.30174446 1.72482312 0.71170360 0.94642216 0.45930427
12.12111664 26.01132202 1.57159030 0.77923381 0.93597186 0.41849980
7.06452179 26.37615585 -0.54307908 0.45415899 0.94909972 -0.14461687
6.72515106 26.44629288 0.36282659 0.43234178 0.95162350 0.09661733
7.78738213 26.47528458 0.21337281 0.50062972 0.95266670 0.05681918
9.19868755 26.32300949 -0.82813448 0.59135872 0.94718736 -0.22052446
10.38419914 26.48977852 -1.02615428 0.66757208 0.95318824 -0.27325529
8.81792736 26.42373466 0.11217310 0.56688070 0.95081174 0.02987065
9.84981728 26.21647644 -0.07357713 0.63321811 0.94335395 -0.01959290
7.10003185 26.62063026 3.22368336 0.45644185 0.95789671 0.85843670
10.95855236 26.11113548 -0.23200442 0.70449567 0.93956345 -0.06178061
12.08950329 25.99135017 -0.36607990 0.77720147 0.93525320 -0.09748365
9.11935711 26.20519447 2.98186946 0.58625883 0.94294798 0.79404396
10.25904083 26.23295975 2.83632636 0.65952599 0.94394708 0.75528717
12.43462753 25.96867943 2.53847170 0.79938859 0.93443739 0.67597127
6.99695015 26.42205429 1.31837940 0.44981501 0.95075130 0.35107210
6.58932066 26.36127090 2.24058604 0.42360961 0.94856411 0.59664708
7.73743010 26.64480782 2.14914203 0.49741846 0.95876670 0.57229644
9.05912781 26.23487473 1.05609226 0.58238685 0.94401598 0.28122750
10.20899010 26.29211044 0.89449453 0.65630835 0.94607550 0.23819552
8.69656944 26.42763519 1.99971163 0.55907893 0.95095211 0.53250450
9.72767067 26.14897537 1.83243740 0.62536561 0.94092506 0.48796093
11.33429337 26.30609512 0.77206618 0.72865105 0.94657874 0.20559400
12.37473488 26.02415466 0.58222300 0.79553825 0.93643361 0.15504053
10.89073086 26.33573151 1.72234762 0.70013565 0.94764513 0.45864505
11.97910690 26.13414001 1.57468283 0.77010441 0.94039124 0.41932330
6.88807774 26.37938118 -0.54245585 0.44281590 0.94921577 -0.14445092
7.98436213 26.38088417 -0.71002984 0.51329303 0.94926989 -0.18907431
6.55070639 26.45502281 0.36220285 0.42112720 0.95193762 0.09645123
7.60648489 26.47372818 0.21271105 0.48900035 0.95261073 0.05664296
9.01243210 26.31974220 -0.82655072 0.57938486 0.94706976 -0.22010273
10.13700390 26.34560204 -1.01916480 0.65168059 0.94800031 -0.27139404
8.62322044 26.39114952 0.11134738 0.55436355 0.94963926 0.02965077
9.66272545 26.21781158 -0.07372399 0.62119049 0.94340199 -0.01963201
6.83499718 26.28804970 3.17619300 0.43940347 0.94592941 0.84579051
7.91339493 26.55018425 3.08614421 0.50873077 0.95536184 0.82181132
10.77905464 26.14248276 -0.23187141 0.69295627 0.94069141 -0.06174519
11.89845657 26.00680161 -0.36555445 0.76491958 0.93580920 -0.09734373
8.93020535 26.19047356 2.97337532 0.57409877 0.94241828 0.79178202
10.12114811 26.36744118 2.84430861 0.65066123 0.94878614 0.75741279
12.24656677 25.99406815 2.53310227 0.78729868 0.93535095 0.67454141
6.85319376 26.55253410 1.32316828 0.44057330 0.95544642 0.35234734
6.42027235 26.38859749 2.23936486 0.41274196 0.94954741 0.59632194
8.89475060 26.29316902 1.05617821 0.57181948 0.94611359 0.28125039
9.99510288 26.22877121 0.88951957 0.64255816 0.94379634 0.23687074
8.51631927 26.43808937 1.99618721 0.54749113 0.95132828 0.53156596
9.54810715 26.16835785 1.82933736 0.61382198 0.94162250 0.48713541
12.18127918 26.03803062 0.58047426 0.78310150 0.93693286 0.15457487
10.70930004 26.36479950 1.71961164 0.68847191 0.94869107 0.45791650
11.80316162 26.18341637 1.57301760 0.75879335 0.94216436 0.41887987
6.71777153 26.40469360 -0.54218876 0.43186736 0.95012659 -0.14437979
7.79172468 26.34043121 -0.70807898 0.50090891 0.94781423 -0.18855481
6.38015318 26.47816086 0.36187264 0.41016281 0.95277023 0.09636330
7.43458080 26.50174713 0.21245652 0.47794908 0.95361894 0.05657519
9.93872738 26.32276917 -1.01629400 0.63893390 0.94717872 -0.27062958
9.49167347 26.26108170 -0.07376530 0.61019403 0.94495898 -0.01964301
6.66580248 26.31507683 3.17425466 0.42852640 0.94690192 0.84527433
7.77259302 26.68900681 3.09701276 0.49967900 0.96035713 0.82470554
10.59510040 26.16148186 -0.23169851 0.68113035 0.94137508 -0.06169914
11.70276356 26.00994110 -0.36493343 0.75233901 0.93592215 -0.09717836
8.76484203 26.24418068 2.97315192 0.56346798 0.94435084 0.79172254
9.85623837 26.16814423 2.81468987 0.63363093 0.94161481 0.74952561
12.05113125 26.00186729 2.52606654 0.77473462 0.93563163 0.67266786
6.64204359 26.41877937 1.31348419 0.42699903 0.95063347 0.34976855
6.24839640 26.40320778 2.23709726 0.40169251 0.95007312 0.59571809
8.74943542 26.40924835 1.05892909 0.56247753 0.95029050 0.28198290
9.79293633 26.19186020 0.88564205 0.62956136 0.94246817 0.23583819
9.37743759 26.21093178 1.82806909 0.60285008 0.94315445 0.48679769
10.95990849 26.34305954 0.76850986 0.70458287 0.94790882 0.20464699
12.02999496 26.14128685 0.58122373 0.77337587 0.94064838 0.15477444
10.52645874 26.38891983 1.71661496 0.67671758 0.94955903 0.45711851
6.54741955 26.42890739 -0.54192168 0.42091590 0.95099789 -0.14430867
7.61493921 26.35045624 -0.70724881 0.48954386 0.94817495 -0.18833373
6.20638514 26.48656845 0.36128557 0.39899170 0.95307273 0.09620696
7.25785971 26.51129532 0.21197294 0.46658817 0.95396250 0.05644641
9.75505257 26.33597183 -1.01467144 0.62712592 0.94765377 -0.27019751
9.29636288 26.23539162 -0.07397184 0.59763801 0.94403458 -0.01969801
6.49085045 26.31788254 3.16940880 0.41727921 0.94700289 0.84398389
7.56061411 26.58257294 3.07828164 0.48605144 0.95652729 0.81971759
10.40690708 26.16805077 -0.23148571 0.66903192 0.94161141 -0.06164248
11.52208900 26.04456329 -0.36459905 0.74072397 0.93716794 -0.09708931
8.57758522 26.23071289 2.96510506 0.55142975 0.94386619 0.78957975
9.67366695 26.18106270 2.80922818 0.62189388 0.94207966 0.74807119
6.47071266 26.43864822 1.31231356 0.41598463 0.95134842 0.34945682
6.08237791 26.44194603 2.23709726 0.39101961 0.95146710 0.59571809
7.19111300 26.62815285 2.13566685 0.46229720 0.95816737 0.56870812
8.57287312 26.43138123 1.05746770 0.55112684 0.95108694 0.28159377
9.62128067 26.23411369 0.88491040 0.61852610 0.94398862 0.23564336
9.20330334 26.24298477 1.82609630 0.59165549 0.94430780 0.48627236
10.77303696 26.35957527 0.76673174 0.69256943 0.94850314 0.20417349
11.84156227 26.16355133 0.57977480 0.76126200 0.94144952 0.15438861
10.31467915 26.33743095 1.70840681 0.66310281 0.94770628 0.45493275
6.38310289 26.47730255 -0.54204035 0.41035241 0.95273930 -0.14434028
7.44160223 26.37084579 -0.70666772 0.47840047 0.94890869 -0.18817900
6.03276396 26.49384117 0.36069852 0.38783008 0.95333445 0.09605064
7.08234692 26.52353477 0.21154024 0.45530492 0.95440292 0.05633119
9.57912827 26.36856842 -1.01373541 0.61581624 0.94882673 -0.26994824
9.12607861 26.27817345 -0.07400855 0.58669090 0.94557399 -0.01970779
6.32074499 26.33883858 3.16698575 0.40634361 0.94775695 0.84333867
7.38864660 26.61232948 3.07620049 0.47499612 0.95759803 0.81916338
10.21977711 26.17515182 -0.23127955 0.65700185 0.94186693 -0.06158758
11.32706165 26.04493904 -0.36397806 0.72818619 0.93718147 -0.09692395
8.46579647 26.45070076 2.98477530 0.54424316 0.95178211 0.79481775
9.48792839 26.18337250 2.80271626 0.60995328 0.94216275 0.74633712
11.74220467 26.19303131 2.53032517 0.75487459 0.94251031 0.67380190
11.34515190 26.32034874 3.53640771 0.72934914 0.94709164 0.94171226
6.29524469 26.43991852 1.31018519 0.40470424 0.95139414 0.34889007
7.41736460 26.59595299 1.17820418 0.47684231 0.95700872 0.31374475
5.90096521 26.41157341 2.23099208 0.37935710 0.95037419 0.59409231
7.02264452 26.66895485 2.13533831 0.45146683 0.95963562 0.56862062
9.43863678 26.24516296 0.88300824 0.60678440 0.94438618 0.23513684
9.01874065 26.24370575 1.82186890 0.57979047 0.94433373 0.48514664
11.65169811 26.18083000 0.57822591 0.74905616 0.94207126 0.15397616
10.12969494 26.35140800 1.70488894 0.65121067 0.94820923 0.45399597
11.62326145 27.13693619 1.62071395 0.74722803 0.97647506 0.43158096
6.21161079 26.49546432 -0.54171395 0.39932767 0.95339286 -0.14425336
7.26192188 26.36697006 -0.70558852 0.46684933 0.94876921 -0.18789162
5.85929632 26.49997711 0.36011147 0.37667832 0.95355523 0.09589431
6.90747261 26.53655052 0.21113300 0.44406274 0.95487124 0.05622274
9.39377117 26.37363815 -1.01192558 0.60390013 0.94900912 -0.26946631
8.93948269 26.27252960 -0.07416002 0.57469517 0.94537091 -0.01974812
6.18931293 26.33740425 3.16310906 0.39789420 0.94770533 0.84230638
7.25687170 26.62385750 3.07342553 0.46652466 0.95801282 0.81842446
10.08268833 26.18754768 -0.23115321 0.64818877 0.94231302 -0.06155394
11.18602657 26.05577278 -0.36361182 0.71911937 0.93757129 -0.09682643
9.35036469 26.18846703 2.79830503 0.60110968 0.94234610 0.74516243
10.48447418 26.34801674 2.71645641 0.67401850 0.94808722 0.72336692
11.60572529 26.21894646 2.52736259 0.74610066 0.94344282 0.67301303
11.20854759 26.34432030 3.53233743 0.72056723 0.94795418 0.94062841
6.17329168 26.48096275 1.31082368 0.39686424 0.95287102 0.34906009
7.28666210 26.61134720 1.17725182 0.46843979 0.95756269 0.31349114
5.77008152 26.40988541 2.22837567 0.37094295 0.95031345 0.59339559
6.86139965 26.56475639 2.12367082 0.44110084 0.95588619 0.56551367
9.28676224 26.21024513 0.87993544 0.59702080 0.94312972 0.23431857
8.87894821 26.23868179 1.81834602 0.57080358 0.94415295 0.48420852
10.38632870 26.23288727 0.75841254 0.66770899 0.94394445 0.20195816
11.49999809 26.17140007 0.57647717 0.73930377 0.94173193 0.15351048
9.92563057 26.18791199 1.69016635 0.63809192 0.94232613 0.45007548
11.18846035 26.46709824 1.57385015 0.71927583 0.95237213 0.41910157
6.08490229 26.51664543 -0.54159522 0.39118192 0.95415503 -0.14422174
7.13288069 26.38352776 -0.70521492 0.45855361 0.94936502 -0.18779214
5.72887993 26.50188065 0.35963449 0.36829421 0.95362371 0.09576730
6.75010061 26.44288063 0.20947860 0.43394572 0.95150071 0.05578219
9.25147724 26.36669540 -1.01024055 0.59475243 0.94875932 -0.26901761
7.78232861 26.46783829 0.10976776 0.50030488 0.95239878 0.02923013
8.80029678 26.26886177 -0.07427017 0.56574726 0.94523895 -0.01977745
6.01886320 26.35447884 3.16044378 0.38693643 0.94831973 0.84159660
9.89960575 26.20172501 -0.23098029 0.63641888 0.94282317 -0.06150789
10.99873161 26.07027817 -0.36313412 0.70707870 0.93809325 -0.09669922
9.17180824 26.20728683 2.79389358 0.58963072 0.94302326 0.74398774
10.27607536 26.30398369 2.70463610 0.66062111 0.94650275 0.72021931
11.47975826 26.38079643 2.53643489 0.73800260 0.94926673 0.67542887
11.01060963 26.33737755 3.52165318 0.70784229 0.94770437 0.93778330
5.99007607 26.44519806 1.30677974 0.38508579 0.95158410 0.34798321
7.06504059 26.45398712 1.16725254 0.45419234 0.95190036 0.31082842
5.59909153 26.42222595 2.22628236 0.35995045 0.95075750 0.59283817
6.64460135 26.41021347 2.10690904 0.42716345 0.95032525 0.56105018
9.10678387 26.22466469 0.87825274 0.58545053 0.94364858 0.23387049
7.66552019 26.47928047 1.98009717 0.49279556 0.95281047 0.52728134
8.75039291 26.40376091 1.82651913 0.56253910 0.95009303 0.48638496
10.22274399 26.30135536 0.75853956 0.65719259 0.94640815 0.20199199
11.31547928 26.19726562 0.57522810 0.72744155 0.94266266 0.15317786
9.72618103 26.15620232 1.68365192 0.62526989 0.94118512 0.44834074
10.92835712 26.31200218 1.55933905 0.70255452 0.94679129 0.41523740
5.90603447 26.49969101 -0.54076427 0.37968299 0.95354491 -0.14400047
6.95725632 26.39109421 -0.70442629 0.44726318 0.94963723 -0.18758214
5.57941914 26.61956596 0.36117551 0.35868576 0.95785844 0.09617766
6.57462883 26.44790268 0.20899501 0.42266512 0.95168144 0.05565342
9.06999588 26.37894440 -1.00874281 0.58308548 0.94920009 -0.26861876
7.60430956 26.47583771 0.10939080 0.48886049 0.95268661 0.02912975
5.84887123 26.37239075 3.15802073 0.37600812 0.94896424 0.84095138
6.82629633 26.34570694 3.02925730 0.43884414 0.94800407 0.80666286
9.72229385 26.22964478 -0.23086059 0.62501997 0.94382781 -0.06147601
10.81093025 26.08161545 -0.36264050 0.69500548 0.93850124 -0.09656777
8.99403095 26.22677994 2.78969240 0.57820195 0.94372469 0.74286896
10.13904572 26.44237137 2.71264982 0.65181184 0.95148236 0.72235328
11.25886822 26.32427597 2.52347469 0.72380221 0.94723290 0.67197770
10.81622314 26.33632851 3.51198649 0.69534576 0.94766659 0.93520916
5.81909657 26.46085167 1.30560923 0.37409398 0.95214736 0.34767151
6.91736317 26.56937218 1.17077613 0.44469857 0.95605230 0.31176674
5.47209835 26.64817619 2.24337697 0.35178640 0.95888793 0.59739029
6.47615290 26.44176292 2.10608745 0.41633436 0.95146048 0.56083137
8.92505741 26.23218155 0.87635058 0.57376778 0.94391906 0.23336396
10.00395298 26.22495079 0.75377661 0.64312708 0.94365889 0.20072366
11.13969898 26.24208832 0.57452857 0.71614110 0.94427556 0.15299158
9.54867935 26.18116379 1.68117642 0.61385876 0.94208330 0.44768155
10.74695396 26.34133911 1.55684125 0.69089258 0.94784689 0.41457227
5.73309755 26.50695419 -0.54031914 0.36856535 0.95380628 -0.14388193
6.78231812 26.39943314 -0.70367914 0.43601689 0.94993734 -0.18738317
5.40452194 26.61685753 0.36047837 0.34744209 0.95776099 0.09599202
6.40171909 26.46148109 0.20863868 0.41154921 0.95217001 0.05555853
8.88872719 26.38995552 -1.00724506 0.57143223 0.94959629 -0.26821995
7.42865181 26.49035263 0.10908564 0.47756794 0.95320892 0.02904849
5.67806005 26.38532639 3.15511322 0.36502713 0.94942969 0.84017712
6.66111517 26.39000320 3.02948856 0.42822507 0.94959801 0.80672449
9.54365826 26.25261116 -0.23072760 0.61353600 0.94465417 -0.06144060
10.62644291 26.09902954 -0.36221057 0.68314528 0.93912780 -0.09645329
8.81002522 26.22622490 2.78339052 0.56637269 0.94370472 0.74119085
9.84541035 26.16649437 2.67618704 0.63293481 0.94155544 0.71264356
11.38849068 27.09558678 2.59420133 0.73213530 0.97498721 0.69081151
10.63492298 26.36514664 3.50664425 0.68369043 0.94870359 0.93378657
5.64566565 26.46368217 1.30380011 0.36294457 0.95224923 0.34718978
6.69462252 26.39353752 1.16001499 0.43037918 0.94972521 0.30890113
5.30145979 26.66639709 2.24198151 0.34081653 0.95954353 0.59701872
6.29969168 26.43928146 2.10247207 0.40499014 0.95137119 0.55986863
8.79425621 26.39010811 0.88030130 0.56535894 0.94960177 0.23441599
9.80680943 26.20114708 0.75085539 0.63045323 0.94280237 0.19994576
10.93758869 26.22301483 0.57213032 0.70314801 0.94358921 0.15235296
9.38197899 26.23500443 1.68078554 0.60314208 0.94402063 0.44757748
10.54181004 26.31015205 1.55053723 0.67770445 0.94672471 0.41289356
5.56234741 26.52287674 -0.54002237 0.35758826 0.95437920 -0.14380291
6.60901022 26.41243553 -0.70305657 0.42487541 0.95040518 -0.18721738
5.24831724 26.70719910 0.36154240 0.33740011 0.96101177 0.09627536
6.22889900 26.47393417 0.20828235 0.40043908 0.95261812 0.05546364
7.25521851 26.51142311 0.10885229 0.46641839 0.95396709 0.02898635
5.50570107 26.38938141 3.15123653 0.35394663 0.94957560 0.83914483
6.48994112 26.41011810 3.02694464 0.41722077 0.95032179 0.80604702
9.35037613 26.23291206 -0.23044829 0.60111040 0.94394535 -0.06136622
10.44365311 26.11886978 -0.36181250 0.67139423 0.93984175 -0.09634729
7.63657141 26.56545258 2.97002244 0.49093452 0.95591122 0.79088920
8.64257622 26.27350616 2.78255033 0.55560786 0.94540608 0.74096709
9.64573574 26.13260269 2.66596937 0.62009829 0.94033587 0.70992273
10.88074589 26.35142899 2.51218057 0.69949371 0.94821000 0.66897017
10.45295620 26.39088249 3.50104785 0.67199230 0.94962966 0.93229628
5.51232004 26.65903282 1.31252635 0.35437214 0.95927858 0.34951350
6.52673435 26.42732430 1.15963399 0.41958609 0.95094097 0.30879968
6.13073826 26.46669388 2.10148621 0.39412859 0.95235759 0.55960613
7.17488623 26.65565300 1.98300862 0.46125403 0.95915693 0.52805662
9.62342548 26.21156693 0.74914074 0.61866403 0.94317728 0.19948918
10.75818157 26.25607872 0.57118106 0.69161439 0.94477898 0.15210018
9.20114326 26.24822235 1.67765856 0.59151661 0.94449627 0.44674477
10.35798645 26.32943344 1.54756367 0.66588694 0.94741851 0.41210172
5.39083004 26.53378105 -0.53966624 0.34656188 0.95477158 -0.14370807
6.43818045 26.43401527 -0.70264149 0.41389322 0.95118171 -0.18710685
6.05170250 26.46576691 0.20767149 0.38904759 0.95232421 0.05530098
7.43289518 26.34985161 -0.81561267 0.47784072 0.94815320 -0.21719003
7.08027077 26.52556229 0.10856508 0.45517147 0.95447588 0.02890987
5.33704185 26.40983009 3.14954042 0.34310398 0.95031142 0.83869314
6.31460667 26.41173935 3.02231979 0.40594900 0.95038015 0.80481547
9.16825199 26.24204063 -0.23027538 0.58940214 0.94427383 -0.06132018
10.25664043 26.12627983 -0.36131886 0.65937167 0.94010836 -0.09621583
7.46629238 26.60142708 2.96868134 0.47998774 0.95720571 0.79053205
9.46580315 26.14964485 2.66136146 0.60853088 0.94094914 0.70869565
10.68796921 26.35285950 2.50551510 0.68710065 0.94826144 0.66719526
10.25884342 26.38395119 3.49112678 0.65951329 0.94938022 0.92965442
5.33689594 26.65396881 1.31039798 0.34309462 0.95909637 0.34894672
6.34978914 26.42314339 1.15744364 0.40821078 0.95079052 0.30821642
5.09498024 27.42836189 2.30408001 0.32754251 0.98696154 0.61355495
5.95510292 26.46386147 2.09803510 0.38283747 0.95225567 0.55868709
6.95173740 26.48799706 1.96615243 0.44690838 0.95312417 0.52356797
9.45719337 26.26775360 0.74901372 0.60797739 0.94519907 0.19945535
10.58253002 26.29719543 0.57048154 0.68032223 0.94625849 0.15191390
9.01727867 26.25076485 1.67388022 0.57969648 0.94458777 0.44573864
10.19595242 26.40330505 1.54815841 0.65547019 0.95007664 0.41226012
5.22054911 26.54946709 -0.53939915 0.33561498 0.95533603 -0.14363694
6.26641560 26.45060158 -0.70214337 0.40285093 0.95177853 -0.18697421
5.87790012 26.47008514 0.20723881 0.37787431 0.95247960 0.05518576
7.26295424 26.38060951 -0.81521672 0.46691570 0.94926000 -0.21708459
6.90442801 26.53467941 0.10824198 0.44386700 0.95480394 0.02882382
7.88430357 26.24507141 -0.07495862 0.50686055 0.94438291 -0.01996078
5.18352461 26.50714874 3.15753627 0.33323479 0.95381325 0.84082234
6.14176464 26.42187309 3.01885104 0.39483744 0.95074481 0.80389178
8.99155331 26.26506042 -0.23015568 0.57804263 0.94510216 -0.06128830
10.07931423 26.15662766 -0.36103225 0.64797187 0.94120038 -0.09613951
7.29586267 26.63631058 2.96734023 0.46903127 0.95846093 0.79017496
9.30529976 26.21986008 2.66256356 0.59821254 0.94347572 0.70901579
10.49634457 26.35475922 2.49903488 0.67478162 0.94832981 0.66546959
9.94972801 26.07360649 3.43974066 0.63964111 0.93821305 0.91597074
5.17877817 26.73600006 1.31305850 0.33292964 0.96204811 0.34965518
6.18136358 26.45279312 1.15696752 0.39738315 0.95185739 0.30808961
4.79894876 26.76746750 2.24250484 0.30851144 0.96318042 0.59715807
5.78401423 26.47933769 2.09622741 0.37183863 0.95281255 0.55820572
6.79847383 26.58332634 1.97028983 0.43705550 0.95655441 0.52466977
9.25942898 26.23426628 0.74590200 0.59526366 0.94399410 0.19862673
10.38470459 26.28137398 0.56828314 0.66760457 0.94568920 0.15132849
8.83247471 26.24825096 1.66984129 0.56781590 0.94449729 0.44466311
9.94196224 26.23541260 1.53340936 0.63914186 0.94403535 0.40833256
5.04767942 26.55030632 -0.53892434 0.32450166 0.95536625 -0.14351051
6.09244585 26.45633316 -0.70143777 0.39166686 0.95198476 -0.18678631
5.70935535 26.49672127 0.20711154 0.36703902 0.95343804 0.05515186
7.08619738 26.38516426 -0.81417733 0.45555246 0.94942391 -0.21680781
6.69934988 26.42629814 0.10684185 0.43068308 0.95090401 0.02845099
7.73506069 26.34781265 -0.07483011 0.49726614 0.94807982 -0.01992656
5.10225677 26.76142883 3.18612719 0.32801029 0.96296310 0.84843588
6.00613356 26.40210342 3.01306987 0.38611808 0.95003343 0.80235231
8.85238457 26.26164436 -0.22999609 0.56909585 0.94497925 -0.06124581
9.92889881 26.13281059 -0.36042717 0.63830203 0.94034338 -0.09597839
7.15894032 26.62816238 2.96242261 0.46022892 0.95816773 0.78886545
9.14756107 26.16571426 2.65214539 0.58807194 0.94152737 0.70624149
10.33993912 26.32239532 2.49088836 0.66472673 0.94716525 0.66330028
9.81415081 26.08679199 3.43516183 0.63092524 0.93868750 0.91475147
5.04645634 26.72673988 1.31124938 0.32442304 0.96171486 0.34917343
6.05172396 26.46021080 1.15592003 0.38904896 0.95212430 0.30781069
4.66662121 26.75445175 2.23936486 0.30000445 0.96271205 0.59632194
5.65332270 26.47901535 2.09392691 0.36343682 0.95280093 0.55759317
7.06509924 26.53267288 1.04328358 0.45419613 0.95473170 0.27781665
6.62090588 26.40612984 1.95374012 0.42564014 0.95017827 0.52026272
7.76743889 26.62217903 1.82060075 0.49934763 0.95795244 0.48480895
9.12325478 26.24172401 0.74469537 0.58650941 0.94426244 0.19830541
10.23819447 26.27228355 0.56673431 0.65818584 0.94536209 0.15091604
8.75439644 26.42791557 1.67935228 0.56279647 0.95096219 0.44719580
9.78181934 26.18474770 1.52722430 0.62884670 0.94221222 0.40668553
4.92504787 26.58756447 -0.53913206 0.31661800 0.95670688 -0.14356582
5.96373701 26.46719551 -0.70106417 0.38339251 0.95237565 -0.18668683
5.60593128 26.62507629 0.20843506 0.36039016 0.95805669 0.05550431
6.95974970 26.41053009 -0.81397939 0.44742349 0.95033664 -0.21675509
8.03201389 26.42928123 -1.00025558 0.51635647 0.95101136 -0.26635870
6.57522583 26.45951653 0.10685980 0.42270347 0.95209932 0.02845577
7.61136961 26.38589287 -0.07482552 0.48931438 0.94945008 -0.01992534
4.92971325 26.76952744 3.18321967 0.31691793 0.96325451 0.84766161
5.83066797 26.39665031 3.00798249 0.37483788 0.94983721 0.80099761
8.67219067 26.27115631 -0.22983648 0.55751169 0.94532150 -0.06120330
9.75120831 26.15908432 -0.36012462 0.62687880 0.94128877 -0.09589782
6.96234465 26.56108856 2.94945812 0.44759032 0.95575422 0.78541309
8.96238518 26.16241646 2.64573455 0.57616752 0.94140869 0.70453435
10.10831165 26.21594810 2.47385478 0.64983600 0.94333494 0.65876436
9.62871647 26.09026337 3.42727566 0.61900413 0.93881238 0.91265142
4.87236404 26.72451401 1.30944026 0.31323111 0.96163481 0.34869170
5.88839340 26.51136017 1.15658665 0.37854889 0.95396483 0.30798820
4.49776983 26.77931404 2.23901606 0.28914946 0.96360666 0.59622902
5.51075745 26.62915611 2.10362244 0.35427168 0.95820349 0.56017500
6.88974142 26.54365540 1.04182220 0.44292283 0.95512688 0.27742749
6.45014811 26.42783356 1.95220780 0.41466257 0.95095927 0.51985466
8.94340134 26.25499725 0.74323475 0.57494706 0.94474006 0.19791646
10.02926826 26.22221184 0.56368649 0.64475453 0.94356030 0.15010443
8.57773113 26.45011711 1.67713737 0.55143917 0.95176113 0.44660598
9.59370327 26.18197250 1.52318025 0.61675322 0.94211239 0.40560865
4.74423170 26.54119873 -0.53797466 0.30499384 0.95503849 -0.14325762
5.79046249 26.47289467 -0.70040005 0.37225318 0.95258069 -0.18650998
4.43339968 26.75721550 0.35978124 0.28501126 0.96281147 0.09580638
5.43532181 26.64410019 0.20823145 0.34942213 0.95874125 0.05545009
6.78176975 26.40725136 -0.81279153 0.43598163 0.95021868 -0.21643879
7.86066103 26.46198273 -0.99969387 0.50534064 0.95218807 -0.26620913
6.39853668 26.45753479 0.10646489 0.41134462 0.95202804 0.02835060
7.43727827 26.40432358 -0.07489436 0.47812250 0.95011330 -0.01994367
4.75381136 26.75696373 3.17788911 0.30560967 0.96280241 0.84624213
5.65717983 26.39780426 3.00381994 0.36368480 0.94987869 0.79988915
9.57151604 26.17852402 -0.35977432 0.61532688 0.94198829 -0.09580453
6.73156452 26.35392952 2.92039990 0.43275407 0.94829994 0.77767515
7.85244274 26.51207924 2.78171015 0.50481230 0.95399070 0.74074340
8.80287933 26.23330688 2.64733720 0.56591332 0.94395953 0.70496112
9.90385246 26.17466927 2.46348643 0.63669187 0.94184959 0.65600342
9.45039082 26.11108589 3.42193365 0.60754007 0.93956167 0.91122890
5.72128010 26.54588318 1.15649140 0.36780563 0.95520705 0.30796283
5.34529924 26.67302513 2.10444403 0.34363484 0.95978206 0.56039375
6.67838240 26.41010475 1.03399956 0.42933515 0.95032132 0.27534440
6.27616453 26.43484879 1.94960272 0.40347764 0.95121169 0.51916099
8.80982399 26.40550613 0.74641001 0.56635976 0.95015585 0.19876200
9.84178925 26.22482491 0.56208766 0.63270199 0.94365436 0.14967868
9.41142082 26.19289589 1.52008772 0.60503477 0.94250542 0.40478513
4.57534742 26.55865860 -0.53779662 0.29413670 0.95566678 -0.14321020
5.62109995 26.49506569 -0.70010948 0.36136532 0.95337850 -0.18643260
4.26644468 26.79244232 0.35992801 0.27427819 0.96407908 0.09584546
5.26391697 26.65810966 0.20797692 0.33840299 0.95924532 0.05538231
6.60700846 26.41442108 -0.81190068 0.42474669 0.95047665 -0.21620156
7.68474531 26.47821999 -0.99863297 0.49403149 0.95277232 -0.26592663
6.22487068 26.46606064 0.10617769 0.40018010 0.95233482 0.02827412
7.26591349 26.43125153 -0.07494026 0.46710593 0.95108223 -0.01995589
4.58793402 26.80000496 3.17958522 0.29494587 0.96435118 0.84669381
5.48269033 26.39198875 2.99896383 0.35246733 0.94966948 0.79859602
9.38790607 26.18544769 -0.35932848 0.60352308 0.94223744 -0.09568581
6.56823778 26.40534973 2.92151761 0.42225423 0.95015025 0.77797282
7.67850351 26.53606224 2.77897930 0.49363023 0.95485365 0.74001616
8.67320633 26.39588356 2.65875697 0.55757695 0.94980961 0.70800209
9.70100689 26.13372612 2.45330334 0.62365150 0.94037634 0.65329170
9.27550888 26.14004326 3.41786337 0.59629738 0.94060361 0.91014504
5.56831837 26.64778328 1.15972924 0.35797212 0.95887375 0.30882505
4.15148640 26.77267647 2.23360872 0.26688784 0.96336782 0.59478909
5.17608023 26.69825935 2.10378671 0.33275619 0.96069008 0.56021869
6.50326347 26.41467476 1.03236616 0.41807723 0.95048577 0.27490944
6.10547686 26.45432854 1.94807029 0.39250460 0.95191264 0.51875287
7.22025681 26.60215569 1.80876398 0.46417078 0.95723194 0.48165694
8.62639904 26.40712166 0.74463189 0.55456787 0.95021397 0.19828850
9.65605831 26.22987175 0.56058878 0.62076187 0.94383597 0.14927955
9.23403263 26.21574402 1.51782775 0.59363097 0.94332761 0.40418333
4.41001368 26.59674644 -0.53794497 0.28350785 0.95703727 -0.14324972
5.45047522 26.51027679 -0.69969440 0.35039631 0.95392585 -0.18632208
4.10433197 26.86023521 0.36069852 0.26385641 0.96651846 0.09605064
5.09066820 26.66119576 0.20759514 0.32726529 0.95935637 0.05528064
6.43148232 26.41655350 -0.81091082 0.41346261 0.95055336 -0.21593797
7.49909830 26.45868111 -0.99644876 0.48209676 0.95206928 -0.26534498
6.05223942 26.47735023 0.10592639 0.38908210 0.95274103 0.02820721
7.08879089 26.43582535 -0.07503664 0.45571920 0.95124686 -0.01998155
4.40692759 26.75189781 3.17013574 0.28330946 0.96262014 0.84417748
5.31518459 26.41812706 2.99803877 0.34169886 0.95060998 0.79834968
