14.58934212 16.33489418 -0.21067078 0.90783119 0.75115448 -0.07086758
12.80436134 16.27607536 2.19036674 0.79675961 0.74844974 0.73681784
13.47479057 15.86949348 2.06014490 0.83847749 0.72975320 0.69301248
13.08316803 15.85754967 2.75888443 0.81410855 0.72920400 0.92806160
15.70016479 15.94040775 1.94173837 0.97695285 0.73301417 0.65318167
14.04161835 15.81501961 2.72275329 0.87374872 0.72724825 0.91590744
15.13924789 15.82269382 2.66920400 0.94204944 0.72760117 0.89789397
11.73499775 17.50640869 0.98497033 0.73021775 0.80502623 0.33133432
12.49071121 17.19157219 0.87498713 0.77724254 0.79054856 0.29433706
11.34783745 17.44925499 1.68396604 0.70612645 0.80239803 0.56646961
13.69877815 19.43664360 1.82212377 0.85241526 0.89378738 0.61294454
12.76676559 16.30870819 0.75306928 0.79442018 0.74995035 0.25332510
14.18478394 16.78599930 0.66652405 0.88265729 0.77189845 0.22421214
12.55975533 16.53540802 1.45740128 0.78153884 0.76037508 0.49025545
16.02710152 16.36000061 0.43443087 0.99729669 0.75230902 0.14613827
14.43968773 16.33871269 1.28535879 0.89851886 0.75133008 0.43238205
10.85184479 16.30810928 -0.42855662 0.67526299 0.74992281 -0.14416224
10.82772350 15.00852299 -0.52204150 0.67376202 0.69016176 -0.17560963
10.49590302 16.21474648 0.21653974 0.65311432 0.74562955 0.07284184
10.35811615 14.79385567 0.09199080 0.64454043 0.68029040 0.03094480
10.64684200 13.66777992 -0.56676024 0.66250658 0.62850815 -0.19065258
10.59329605 12.62200165 -0.65233874 0.65917468 0.58041841 -0.21944034
13.33926487 16.35081291 -0.08942067 0.83004433 0.75188655 -0.03008023
11.47815132 17.29061890 2.39405847 0.71423537 0.79510319 0.80533773
14.39127350 16.31815147 -0.21019198 0.89550626 0.75038463 -0.07070652
12.66531944 16.30907822 2.18366098 0.78810763 0.74996740 0.73456210
13.27630997 15.83657837 2.04397011 0.82612693 0.72823966 0.68757147
13.06341839 16.03763199 2.77675200 0.81287962 0.73748499 0.93407208
14.64180088 16.23231697 2.06232834 0.91109544 0.74643755 0.69374698
15.59969902 16.03874016 1.94173837 0.97070128 0.73753595 0.65318167
13.85453129 15.80299759 2.70478439 0.86210710 0.72669542 0.90986288
14.95225334 15.82530117 2.65292311 0.93041354 0.72772104 0.89241725
13.06434155 18.21882820 0.93069756 0.81293702 0.83778656 0.31307751
11.18857002 17.44301796 1.67594206 0.69621599 0.80211121 0.56377041
13.21518898 19.00389099 1.77003086 0.82232362 0.87388742 0.59542096
12.67624569 16.40442467 0.75392896 0.78878754 0.75435185 0.25361428
14.10210800 16.90239525 0.66784090 0.87751275 0.77725083 0.22465511
12.57387924 16.77206993 1.47257185 0.78241771 0.77125788 0.49535868
14.42736912 17.79941750 1.48015308 0.89775229 0.81850010 0.49790895
14.65188599 16.30009270 0.55837065 0.91172302 0.74955416 0.18783039
15.80432892 16.33690262 0.43013400 0.98343450 0.75124687 0.14469285
14.26465034 16.34634590 1.27819288 0.88762701 0.75168109 0.42997152
9.92525101 15.11792374 -0.40623972 0.61760515 0.69519252 -0.13665505
10.64493752 14.95255661 -0.51888692 0.66238809 0.68758821 -0.17454846
10.33473110 16.18761063 0.21452174 0.64308530 0.74438173 0.07216300
10.32758045 14.94906998 0.09339067 0.64264035 0.68742788 0.03141570
10.57900810 13.75820255 -0.56750268 0.65828556 0.63266623 -0.19090232
10.46396446 12.62834167 -0.64990485 0.65112692 0.58070993 -0.21862160
10.39203453 13.91674805 0.01804160 0.64665103 0.63995689 0.00606902
13.16844177 16.35025597 -0.08966851 0.81941473 0.75186092 -0.03016361
11.33449650 17.24988365 2.38024759 0.70529634 0.79323000 0.80069190
13.11995125 18.52473450 2.50363088 0.81639737 0.85185355 0.84219682
14.25638390 16.31945992 -0.20989937 0.88711268 0.75044477 -0.07060808
12.56654358 16.34020042 2.17963743 0.78196126 0.75139850 0.73320860
13.24860191 15.95553589 2.05174232 0.82440275 0.73370987 0.69018596
13.06613255 16.19604301 2.79434061 0.81304848 0.74476951 0.93998873
14.09362888 15.77242947 1.99100530 0.87698513 0.72528976 0.66975462
15.75491047 16.35135269 1.97265816 0.98035944 0.75191134 0.66358280
13.69423580 15.76926231 2.68708372 0.85213262 0.72514415 0.90390855
14.83816242 15.85362148 2.64554596 0.92331421 0.72902334 0.88993567
13.07561207 18.41693115 0.93869698 0.81363839 0.84689629 0.31576842
10.98577404 17.30535698 1.65623093 0.68359685 0.79578090 0.55713981
13.40501881 19.47123528 1.81062055 0.83413589 0.89537805 0.60907495
12.54058933 16.38775253 0.74980265 0.78034621 0.75358516 0.25222623
13.93945312 16.86859322 0.66308546 0.86739141 0.77569646 0.22305542
12.56592846 16.92727470 1.48176622 0.78192300 0.77839494 0.49845159
13.02051830 16.22239876 1.33106637 0.81021011 0.74598145 0.44775763
14.54436970 16.33459091 0.55691004 0.90503275 0.75114059 0.18733907
14.22396469 16.45569611 1.28184092 0.88509536 0.75670952 0.43119869
10.56527805 16.26199150 -0.42564830 0.65743119 0.74780208 -0.14318390
10.61012459 15.05318069 -0.52017367 0.66022182 0.69221538 -0.17498131
10.22208023 16.17861557 0.21327424 0.63607550 0.74396807 0.07174335
10.34182930 15.12127972 0.09529959 0.64352697 0.69534689 0.03205785
10.49833488 13.78720379 -0.56685925 0.65326566 0.63399982 -0.19068588
10.35226440 12.61422062 -0.64734620 0.64417630 0.58006060 -0.21776089
13.02381992 16.32776451 -0.08991636 0.81041557 0.75082666 -0.03024698
11.17845345 17.24740982 2.36958647 0.69558644 0.79311621 0.79710561
14.08310127 16.32686615 -0.20954026 0.87633002 0.75078535 -0.07048728
13.22509956 16.13221550 2.06455612 0.82294029 0.74183440 0.69449639
12.93940639 16.24686241 2.78875685 0.80516285 0.74710637 0.93811035
14.05080032 15.92488766 1.99962020 0.87432009 0.73230052 0.67265254
15.06104279 15.83018589 1.89304435 0.93718308 0.72794569 0.63680148
13.52787590 15.77669048 2.67313766 0.84178078 0.72548568 0.89921725
14.83530140 16.05134010 2.66386175 0.92313617 0.73811537 0.89609689
11.24582195 17.41945076 0.96677279 0.69977850 0.80102748 0.32521287
13.07096672 18.65733337 0.94793445 0.81334931 0.85795110 0.31887582
10.94965839 17.49063492 1.66826689 0.68134952 0.80430084 0.56118858
13.23980141 19.49245644 1.80437601 0.82385516 0.89635390 0.60697436
13.38288975 16.40493965 0.63704002 0.83275890 0.75437552 0.21429400
12.90716934 16.28982544 1.32979810 0.80315691 0.74908203 0.44733101
14.34519768 16.31597137 0.55227417 0.89263916 0.75028437 0.18577960
14.05299377 16.46574020 1.27506590 0.87445658 0.75717139 0.42891964
16.00626183 17.39659500 1.27030611 0.99599993 0.79997647 0.42731848
10.42519188 16.26908302 -0.42460960 0.64871424 0.74812824 -0.14283450
10.48674583 15.07853985 -0.51913595 0.65254450 0.69338149 -0.17463224
10.07377720 16.16779900 0.21165983 0.62684727 0.74347067 0.07120029
10.32840538 15.30688667 0.09715761 0.64269167 0.70388192 0.03268287
10.40910149 13.84969521 -0.56676024 0.64771301 0.63687348 -0.19065258
10.20852470 12.59988308 -0.64416343 0.63523203 0.57940131 -0.21669024
10.49163723 13.33025837 -0.09891670 0.65284884 0.61298734 -0.03327461
11.01328182 17.22859573 2.35674477 0.68530852 0.79225105 0.79278576
13.13116550 19.04281616 2.55381155 0.81709522 0.87567735 0.85907710
13.91029167 16.33274269 -0.20918116 0.86557686 0.75105560 -0.07036649
14.99701595 16.32462120 -0.31434539 0.93319893 0.75068212 -0.10574270
12.64109421 16.87246895 2.23238945 0.78660023 0.77587467 0.75095385
13.47801208 16.65217209 2.12400389 0.83867794 0.76574445 0.71449405
12.77334118 16.24694633 2.77423954 0.79482937 0.74711025 0.93322688
14.04186535 16.11797142 2.01364422 0.87376410 0.74117941 0.67737013
15.03771687 16.00570869 1.90341258 0.93573159 0.73601705 0.64028925
13.35684967 15.77659893 2.65811896 0.83113855 0.72548151 0.89416510
14.88542175 16.30966949 2.69260740 0.92625493 0.74999458 0.90576667
10.99263573 17.26388168 0.95251274 0.68402380 0.79387367 0.32041591
13.10134697 18.95259094 0.96031451 0.81523973 0.87152839 0.32304037
9.99421692 16.18670845 1.52714956 0.62189656 0.74434024 0.51371807
11.74943447 17.53807831 1.60208488 0.73111612 0.80648249 0.53892559
12.67120361 16.99773407 0.77413046 0.78847378 0.78163499 0.26040986
13.10634136 16.27405739 0.62694377 0.81555051 0.74835694 0.21089771
12.50858402 17.30053329 1.50230014 0.77835470 0.79555911 0.50535899
12.73933792 16.28738022 1.32232976 0.79271346 0.74896961 0.44481874
14.19527340 16.35139465 0.54998797 0.88331002 0.75191325 0.18501055
13.82336903 16.40403175 1.26229763 0.86016804 0.75433379 0.42462450
10.27690315 16.26152611 -0.42333350 0.63948691 0.74778068 -0.14240523
10.40992928 15.17049217 -0.51980007 0.64776456 0.69760990 -0.17485563
10.01065731 16.29385567 0.21301740 0.62291956 0.74926734 0.07165696
10.32970333 15.51786995 0.09939741 0.64277244 0.71358395 0.03343631
10.25527668 13.82481956 -0.56398863 0.63814116 0.63572961 -0.18972023
10.08788586 12.61231232 -0.64210403 0.62772518 0.57997286 -0.21599749
10.38689709 14.42394638 0.02168552 0.64633137 0.66328025 0.00729480
10.91538525 17.31425858 2.35916781 0.67921686 0.79619026 0.79360086
13.72768116 16.32484055 -0.20876884 0.85421377 0.75069219 -0.07022779
14.81344509 16.32972717 -0.31338999 0.92177612 0.75091690 -0.10542131
12.61626148 17.06190491 2.24781275 0.78505498 0.78458583 0.75614208
13.01263523 16.28626060 2.06308579 0.80971956 0.74891812 0.69400179
12.63818264 16.28467178 2.76670146 0.78641903 0.74884504 0.93069118
14.05697918 16.34176636 2.03167534 0.87470454 0.75147051 0.68343562
15.04802799 16.21948433 1.91859484 0.93637323 0.74584740 0.64539641
13.18763161 15.77650642 2.64336824 0.82060885 0.72547722 0.88920307
14.66832256 16.27624893 2.67073035 0.91274577 0.74845773 0.89840740
10.94014835 17.42230606 0.95815289 0.68075776 0.80115879 0.32231322
13.03385258 19.11040878 0.96469522 0.81103987 0.87878561 0.32451397
9.87783718 16.22534180 1.52470744 0.61465478 0.74611676 0.51289660
12.65639687 17.20264244 0.78083563 0.78755242 0.79105765 0.26266542
12.96771526 16.31075096 0.62482208 0.80692440 0.75004429 0.21018401
13.70434761 19.21110153 1.67515290 0.85276186 0.88341594 0.56350493
12.63552952 16.36552238 1.32218885 0.78625393 0.75256294 0.44477132
14.12344360 16.47671700 0.55151206 0.87884033 0.75767618 0.18552324
16.00951385 17.34775925 0.45201802 0.99620229 0.79773074 0.15205441
13.71620178 16.48595619 1.26190674 0.85349947 0.75810105 0.42449301
14.58668613 16.26141357 1.16337585 0.90766591 0.74777555 0.39134818
10.12912273 16.25275040 -0.42205742 0.63029116 0.74737716 -0.14197597
10.41545773 15.38451004 -0.52353579 0.64810854 0.70745140 -0.17611229
9.83051491 16.22807503 0.21026558 0.61171013 0.74624246 0.07073127
10.18943596 13.91804600 -0.56487954 0.63404417 0.64001656 -0.19001992
9.95260715 12.60491562 -0.63929576 0.61930740 0.57963270 -0.21505281
10.37818336 14.60476398 0.02295999 0.64578915 0.67159504 0.00772352
10.40131569 13.56252098 -0.09862296 0.64722854 0.62366790 -0.03317580
10.96544743 17.63893127 2.39599681 0.68233204 0.81112021 0.80598974
11.78449821 17.56109238 2.32302618 0.73329794 0.80754083 0.78144318
13.55975819 16.33223152 -0.20842969 0.84376466 0.75103205 -0.07011370
14.62105465 16.32275391 -0.31232312 0.90980452 0.75059623 -0.10506243
12.54274082 17.18742752 2.25429487 0.78048009 0.79035795 0.75832266
12.83605385 16.27407265 2.05048203 0.79873168 0.74835765 0.68976200
12.51270199 16.33390999 2.76139712 0.77861094 0.75110924 0.92890686
14.18306541 16.69995880 2.06733704 0.88255036 0.76794189 0.69543183
14.93504906 16.30197525 1.91711366 0.92934304 0.74964076 0.64489818
13.08824444 15.85905457 2.64336824 0.81442440 0.72927320 0.88920307
10.98372746 17.73875999 0.97368997 0.68346947 0.81571078 0.32753974
11.80799103 17.55201340 0.87041605 0.73475981 0.80712330 0.29279938
11.37114716 17.44404030 1.57842124 0.70757693 0.80215824 0.53096539
12.52930164 17.25593567 0.77946025 0.77964383 0.79350829 0.26220277
12.79949474 16.30864143 0.62094456 0.79645675 0.74994731 0.20887965
13.60744572 19.33109283 1.67837095 0.84673208 0.88893366 0.56458747
12.54819393 16.46520233 1.32402062 0.78081942 0.75714666 0.44538751
14.20668411 16.78655815 0.56072038 0.88402003 0.77192414 0.18862082
13.53263378 16.47457886 1.25369859 0.84207684 0.75757784 0.42173189
14.45904827 16.32436943 1.16111588 0.89972359 0.75067055 0.39058796
9.98708534 16.25128555 -0.42092970 0.62145281 0.74730980 -0.14159662
9.68434906 16.21565056 0.20868787 0.60261482 0.74567115 0.07020055
10.48236275 16.18319702 0.10754215 0.65227175 0.74417877 0.03617612
10.12750340 14.01747704 -0.56596839 0.63019043 0.64458889 -0.19038621
9.82397652 12.60419655 -0.63679945 0.61130327 0.57959968 -0.21421307
10.37271881 13.70248604 -0.09840725 0.64544910 0.63010412 -0.03310323
9.96977234 16.26114845 2.18907523 0.62037551 0.74776334 0.73638338
11.46856880 17.32522011 2.27978301 0.71363908 0.79669434 0.76689661
13.38342285 16.32732391 -0.20804398 0.83279210 0.75080639 -0.06998395
13.73431301 15.52968121 -0.30291250 0.85462648 0.71412706 -0.10189679
13.03418827 18.10026932 2.36985731 0.81106073 0.83233470 0.79719669
12.67482376 16.27913284 2.04039907 0.78869903 0.74859035 0.68637019
12.55932713 16.60951805 2.79629493 0.78151220 0.76378298 0.94064611
13.34219933 15.90976906 1.95193791 0.83022690 0.73160529 0.65661269
14.78418255 16.34237289 1.91044831 0.91995525 0.75149840 0.64265603
13.05961323 16.02862740 2.65865541 0.81264281 0.73707092 0.89434552
9.88184547 16.18198967 0.87227321 0.61490417 0.74412322 0.29342413
11.56361771 17.42457962 0.85889304 0.71955353 0.80126333 0.28892317
11.21489620 17.44309425 1.57135499 0.69785410 0.80211473 0.52858835
13.03431034 18.19249916 0.82484919 0.81106836 0.83657587 0.27747115
12.67348671 16.35874367 0.61955446 0.78861588 0.75225121 0.20841202
13.16191292 18.94915009 1.63469803 0.81900847 0.87137020 0.54989636
14.13293934 16.91386795 0.56230801 0.87943125 0.77777845 0.18915489
14.68451405 16.32089043 0.41074815 0.91375333 0.75051057 0.13817164
13.35728550 16.47085571 1.24627209 0.83116567 0.75740665 0.41923368
14.26935673 16.31579208 1.15326560 0.88791990 0.75027609 0.38794720
9.84546852 16.24868202 -0.41980198 0.61264062 0.74719006 -0.14121726
10.22241497 15.51584530 -0.52357727 0.63609636 0.71349084 -0.17612624
9.54784298 16.21755219 0.20744038 0.59412068 0.74575859 0.06978090
10.35459232 16.20832062 0.10693130 0.64432114 0.74533409 0.03597064
10.05661201 14.10527325 -0.56671077 0.62577915 0.64862615 -0.19063593
9.69696999 12.60394287 -0.63436562 0.60340017 0.57958800 -0.21339436
10.34379196 14.95129013 0.02532944 0.64364910 0.68752998 0.00852057
10.36435318 13.87143803 -0.09810892 0.64492851 0.63787335 -0.03300288
9.82622147 16.19754982 2.17332602 0.61144292 0.74483877 0.73108548
13.15020943 16.19752312 -0.20721936 0.81828022 0.74483752 -0.06970656
14.28897476 16.30967903 -0.31049195 0.88914061 0.74999499 -0.10444644
13.16768837 18.46916199 2.41232729 0.81936789 0.84929806 0.81148320
12.56756878 16.29933167 2.03514743 0.78202504 0.74951917 0.68460357
12.62235546 16.85702705 2.82951760 0.78543419 0.77516460 0.95182192
13.27088833 15.97706223 1.95253897 0.82578957 0.73469973 0.65681493
14.39170837 16.06066513 1.86656809 0.89553332 0.73854417 0.62789518
13.08089924 16.21039200 2.67957425 0.81396735 0.74542934 0.90138245
13.86861706 15.93517971 2.56999326 0.86298358 0.73277378 0.86452043
9.79310799 16.20785141 0.87099618 0.60938245 0.74531251 0.29299456
9.44030190 16.12690544 1.49767017 0.58742887 0.74159020 0.50380152
11.00397015 17.29407501 1.55163527 0.68472910 0.79526210 0.52195483
13.06505013 18.41843224 0.83353156 0.81298113 0.84696531 0.28039181
12.58407593 16.40243912 0.61882287 0.78305221 0.75426054 0.20816593
13.25527573 19.27731323 1.65952265 0.82481807 0.88646066 0.55824709
12.57164669 16.87717056 1.34825790 0.78227878 0.77609092 0.45354071
13.98305798 16.89551544 0.55881518 0.87010479 0.77693450 0.18797994
14.53020477 16.30340958 0.40785027 0.90415132 0.74970669 0.13719682
13.10476398 16.31560898 1.22803164 0.81545234 0.75026768 0.41309777
14.18707752 16.37682343 1.15278983 0.88280004 0.75308263 0.38778716
9.73594475 16.23997498 -0.41885233 0.60582542 0.74678969 -0.14089781
9.85379219 15.11194038 -0.51237023 0.61315852 0.69491738 -0.17235631
9.44117832 16.21049500 0.20633964 0.58748341 0.74543405 0.06941063
10.24277306 16.20119095 0.10609137 0.63736314 0.74500620 0.03568809
10.00614643 14.17539406 -0.56740367 0.62263888 0.65185064 -0.19086902
9.59863567 12.59866524 -0.63236862 0.59728128 0.57934529 -0.21272258
10.34317207 15.10224819 0.02644235 0.64361054 0.69447172 0.00889495
10.37631321 14.02454090 -0.09781059 0.64567274 0.64491373 -0.03290252
9.67339706 16.17372513 2.16121125 0.60193336 0.74374318 0.72701019
13.08440781 16.32512093 -0.20741221 0.81418568 0.75070506 -0.06977143
14.10631561 16.30694771 -0.30952066 0.87777454 0.74986941 -0.10411971
13.08336353 18.59707451 2.41858602 0.81412071 0.85518008 0.81358856
12.49497700 16.90735435 2.82449245 0.77750796 0.77747887 0.95013148
13.62143707 16.61143112 2.02426267 0.84760267 0.76387095 0.68094206
13.97214413 15.79164410 1.82194734 0.86942565 0.72617334 0.61288518
12.96645451 16.27674866 2.67689252 0.80684596 0.74848074 0.90048033
13.54947472 15.76794434 2.52700186 0.84312475 0.72508353 0.85005856
9.64822865 16.19695091 0.86652660 0.60036725 0.74481124 0.29149103
11.30061531 17.44176292 0.85270298 0.70318806 0.80205351 0.28684089
9.23642445 16.00803947 1.47970343 0.57474244 0.73612422 0.49775767
10.93859673 17.43205261 1.55837286 0.68066120 0.80160695 0.52422130
13.02573681 18.60990524 0.83929116 0.81053483 0.85577011 0.28232929
13.18308640 19.43287086 1.66626513 0.82032603 0.89361393 0.56051522
14.36533546 16.32389641 0.40550199 0.89389223 0.75064880 0.13640688
12.93635464 16.31468201 1.22112632 0.80497301 0.75022507 0.41077489
14.17483902 16.57175636 1.16111588 0.88203847 0.76204652 0.39058796
9.60019970 16.24397850 -0.41787300 0.59737861 0.74697381 -0.14056836
9.31131744 16.22090530 0.20531230 0.57940269 0.74591279 0.06906503
10.10050201 16.20078278 0.10512418 0.62851024 0.74498743 0.03536274
9.90319252 14.21828079 -0.56680977 0.61623251 0.65382278 -0.19066924
9.50003052 12.63318729 -0.63137013 0.59114552 0.58093280 -0.21238670
10.34868431 15.31618881 0.02805788 0.64395350 0.70430970 0.00943840
10.36359310 14.19274616 -0.09751685 0.64488125 0.65264857 -0.03280371
9.53937721 16.17942619 2.15345764 0.59359390 0.74400538 0.72440195
11.00924110 17.27300644 2.24555826 0.68505710 0.79429328 0.75538373
12.90596962 16.31126213 -0.20700656 0.80308223 0.75006777 -0.06963497
13.92685890 16.30560684 -0.30858117 0.86660773 0.74980772 -0.10380367
13.10321426 18.87658691 2.44563246 0.81535590 0.86803341 0.82268673
13.46176910 16.62858391 2.01544738 0.83766723 0.76465970 0.67797667
13.89888000 15.90909004 1.82565033 0.86486673 0.73157406 0.61413080
12.79295921 16.26746941 2.66133738 0.79605013 0.74805403 0.89524770
13.52979755 15.94647408 2.54277372 0.84190035 0.73329312 0.85536408
9.50892162 16.19349098 0.86258912 0.59169877 0.74465215 0.29016650
11.09168530 17.35764694 0.84394169 0.69018722 0.79818547 0.28389367
8.96069622 15.75727844 1.44865406 0.55758506 0.72459304 0.48731297
10.99903297 17.77485847 1.58499444 0.68442190 0.81737077 0.53317654
13.03669453 18.87728500 0.84900510 0.81121671 0.86806548 0.28559697
12.67171097 16.95280838 0.63682055 0.78850538 0.77956909 0.21422017
11.75145912 17.55534172 1.48513746 0.73124212 0.80727637 0.49958563
12.60962772 17.37913704 1.37841344 0.78464216 0.79917365 0.46368474
13.19046879 16.35054016 0.52947575 0.82078540 0.75187397 0.17811044
14.20997334 16.35351372 0.40350345 0.88422471 0.75201070 0.13573459
12.76356125 16.30599213 1.21369994 0.79422081 0.74982548 0.40827674
9.46077061 16.24000359 -0.41677496 0.58870250 0.74679101 -0.14019899
9.99894333 15.76270676 -0.52536213 0.62219065 0.72484267 -0.17672665
9.95864296 16.19923019 0.10415699 0.61968297 0.74491602 0.03503739
9.83401012 14.30990791 -0.56770062 0.61192757 0.65803623 -0.19096890
9.39182472 12.65414047 -0.62987232 0.58441234 0.58189631 -0.21188286
10.33197880 15.50081253 0.02935031 0.64291400 0.71279955 0.00987315
10.35385132 14.36782551 -0.09720475 0.64427507 0.66069955 -0.03269872
9.39969540 16.17377853 2.14425039 0.58490211 0.74374568 0.72130477
10.92484856 17.38049889 2.25087690 0.67980570 0.79923630 0.75717288
12.74052143 16.31158447 -0.20666741 0.79278713 0.75008261 -0.06952088
13.75185108 16.30724144 -0.30768949 0.85571778 0.74988294 -0.10350372
12.57007599 16.95320511 2.09039402 0.78218108 0.77958733 0.70318800
12.96366596 16.21969223 1.95193791 0.80667245 0.74585700 0.65661269
14.19060993 16.44960594 1.88137996 0.88301980 0.75642949 0.63287771
12.64922619 16.29425812 2.65221882 0.78710622 0.74928588 0.89218032
13.23165512 15.79565430 2.50334382 0.82334822 0.72635776 0.84210026
9.33109665 16.12146759 0.85450131 0.58063346 0.74134016 0.28744584
10.90346527 17.30200577 0.83689451 0.67847514 0.79562682 0.28152308
8.76819801 15.64630890 1.43190837 0.54560673 0.71949017 0.48167989
9.86914253 16.17881012 1.42411458 0.61411375 0.74397701 0.47905815
13.02345181 19.11413765 0.85708570 0.81039268 0.87895709 0.28831521
12.66355324 17.16549110 0.64289296 0.78799772 0.78934920 0.21626286
13.78527451 19.24921989 1.53412306 0.85779756 0.88516879 0.51606393
13.00040817 16.32355118 0.52503037 0.80895877 0.75063288 0.17661506
14.12518787 16.46370125 0.40420294 0.87894887 0.75707763 0.13596989
12.66207504 16.38744736 1.21383023 0.78790575 0.75357115 0.40832055
14.08195686 16.88799477 1.17193973 0.87625879 0.77658868 0.39422899
9.32077789 16.23318481 -0.41564724 0.57999140 0.74647743 -0.13981964
9.91564178 15.85063076 -0.52598470 0.61700720 0.72888583 -0.17693608
9.02901077 16.19681740 0.20237702 0.56183600 0.74480510 0.06807764
9.85977936 16.26660919 0.10423335 0.61353111 0.74801445 0.03506308
9.81558990 14.47740936 -0.57086819 0.61078137 0.66573870 -0.19203445
9.37011528 12.79184628 -0.63293028 0.58306146 0.58822864 -0.21291152
10.31884289 15.69418812 0.03073248 0.64209664 0.72169185 0.01033811
10.36205006 14.57102489 -0.09681463 0.64478523 0.67004359 -0.03256749
9.25652313 16.16012001 2.13407397 0.57599312 0.74311757 0.71788150
10.98315430 17.71879578 2.28787661 0.68343383 0.81479275 0.76961917
12.57070351 16.30413246 -0.20630164 0.78222013 0.74973994 -0.06939784
13.57993793 16.31039619 -0.30682963 0.84502035 0.75002795 -0.10321447
11.83150578 17.50732613 2.23775411 0.73622304 0.80506837 0.75275850
12.54093075 17.13771057 2.10425806 0.78036749 0.78807175 0.70785171
12.84795761 16.28362656 1.94973409 0.79947239 0.74879700 0.65587139
14.19685555 16.66720009 1.89711761 0.88340849 0.76643550 0.63817173
12.53335476 16.35609436 2.64926863 0.77989608 0.75212938 0.89118791
13.24480343 16.01441956 2.52598429 0.82416642 0.73641759 0.84971625
10.99837303 17.69744873 0.85527420 0.68438083 0.81381112 0.28770584
8.65818405 15.68014908 1.42981517 0.53876108 0.72104627 0.48097578
12.51893425 17.19466400 0.64062494 0.77899873 0.79069072 0.21549994
11.37235165 17.45918846 1.46291780 0.70765191 0.80285478 0.49211118
13.74129200 19.44454956 1.54356432 0.85506070 0.89415097 0.51923984
12.82231617 16.30898094 0.52115655 0.79787683 0.74996293 0.17531194
14.05898476 16.59633446 0.40565190 0.87482935 0.76317674 0.13645731
12.56611347 16.47620964 1.21461189 0.78193450 0.75765288 0.40858349
13.54873848 16.45864487 1.13197470 0.84307897 0.75684512 0.38078517
9.80954361 15.90241528 -0.52573568 0.61040515 0.73126709 -0.17685232
8.94435883 16.28479576 0.20303746 0.55656850 0.74885076 0.06829980
9.71216106 16.25275230 0.10311345 0.60434544 0.74737722 0.03468635
9.75328350 14.58203983 -0.57215506 0.60690433 0.67055011 -0.19246733
9.36346912 12.95243645 -0.63686186 0.58264786 0.59561336 -0.21423407
10.55789566 16.28092003 0.03631503 0.65697181 0.74867254 0.01221602
10.34048557 14.73562908 -0.09653466 0.64344335 0.67761284 -0.03247331
9.94912624 16.28145027 2.08229733 0.61909080 0.74869692 0.70046437
12.40995121 16.30634499 -0.20598243 0.77221721 0.74984169 -0.06929047
13.40217400 16.30431747 -0.30589014 0.83395886 0.74974847 -0.10289843
11.69705105 17.54491615 2.23283648 0.72785652 0.80679697 0.75110424
12.45282650 17.24356079 2.10782909 0.77488512 0.79293925 0.70905298
12.68799400 16.29018784 1.94031787 0.78951859 0.74909872 0.65270382
14.17140865 16.85049248 1.90859675 0.88182503 0.77486414 0.64203316
12.52944279 16.56581879 2.67152858 0.77965266 0.76177353 0.89867592
9.09456730 16.17822075 0.85088307 0.56591529 0.74394995 0.28622869
10.00668240 16.33283806 0.77508932 0.62267226 0.75105995 0.26073241
11.50739479 17.35008049 0.75771135 0.71605504 0.79783750 0.25488666
11.21507454 17.45643234 1.45617533 0.69786525 0.80272806 0.48984307
13.76623249 19.74148178 1.56174219 0.85661268 0.90780526 0.52535474
12.69878292 16.36235619 0.52007693 0.79018992 0.75241733 0.17494877
13.94672489 16.67514610 0.40535212 0.86784393 0.76680088 0.13635647
12.57382488 16.70323372 1.22672880 0.78241432 0.76809245 0.41265950
9.03635120 16.20571899 -0.41321376 0.56229275 0.74521446 -0.13900104
9.75002956 16.03031921 -0.52735448 0.60670185 0.73714876 -0.17739686
8.76398659 16.19637299 0.20002881 0.54534471 0.74478465 0.06728772
9.58036137 16.26351738 0.10237534 0.59614414 0.74787229 0.03443806
9.65047836 14.62633228 -0.57166010 0.60050720 0.67258686 -0.19230084
9.35749817 13.11669540 -0.64091831 0.58227634 0.60316676 -0.21559861
10.42419338 16.29804420 0.03579447 0.64865214 0.74945998 0.01204091
10.32410049 14.91039181 -0.09622715 0.64242381 0.68564928 -0.03236987
8.99617958 16.11349106 2.11347866 0.55979306 0.74097335 0.71095341
9.79815483 16.20583344 2.06564736 0.60969651 0.74521971 0.69486344
12.27286530 16.28472519 -0.20564993 0.76368695 0.74884748 -0.06917861
13.16717243 16.17357826 -0.30389977 0.81933576 0.74373645 -0.10222889
11.51914597 17.45543289 2.21338987 0.71678627 0.80268210 0.74456257
13.19388485 18.44997406 2.25697351 0.82099795 0.84841573 0.75922370
12.57831478 16.30722237 1.93490851 0.78269374 0.74988204 0.65088421
14.02549458 16.83758163 1.89896905 0.87274539 0.77427042 0.63879454
12.54853725 16.75485229 2.69352031 0.78084081 0.77046615 0.90607375
13.13411140 16.24077034 2.53946686 0.81727850 0.74682623 0.85425168
9.00757408 16.20168686 0.84971249 0.56050211 0.74502903 0.28583494
8.70093536 16.17645645 1.46976066 0.54142129 0.74386883 0.49441302
9.27393341 15.81254482 1.37300766 0.57707644 0.72713447 0.46186626
13.06463146 18.36311340 0.68700916 0.81295508 0.84442151 0.23110312
11.00769806 17.31208038 1.43824649 0.68496108 0.79609007 0.48381197
12.58503819 16.37443161 0.51817179 0.78311211 0.75297260 0.17430790
13.77605247 16.62991142 0.40175474 0.85722369 0.76472080 0.13514635
12.57359219 16.86798477 1.23532784 0.78239983 0.77566850 0.41555214
13.05487442 16.21966553 1.10235775 0.81234795 0.74585575 0.37082231
8.93482590 16.20256424 -0.41244215 0.55597526 0.74506938 -0.13874148
9.57729053 15.91514492 -0.52345276 0.59595305 0.73185247 -0.17608435
8.65932369 16.18456650 0.19892807 0.53883201 0.74424171 0.06691745
9.46023941 16.23423195 0.10128088 0.58866948 0.74652559 0.03406989
9.60108948 14.70180130 -0.57255095 0.59743398 0.67605728 -0.19260050
9.38107872 13.28136539 -0.64553642 0.58374363 0.61073905 -0.21715210
10.29067898 16.25736427 0.03484311 0.64034408 0.74758935 0.01172088
10.34206676 15.08745003 -0.09586916 0.64354175 0.69379121 -0.03224944
8.82886791 16.04960251 2.09676003 0.54938197 0.73803550 0.70532948
9.65843582 16.20397758 2.05709124 0.60100240 0.74513435 0.69198525
12.10950947 16.27961349 -0.20531078 0.75352198 0.74861246 -0.06906453
13.09163380 16.28870010 -0.30423415 0.81463534 0.74903029 -0.10234138
13.15692711 18.64456749 2.27146792 0.81869823 0.85736406 0.76409948
13.85104275 16.84238052 1.88897109 0.86189002 0.77449107 0.63543129
12.53125763 16.95298576 2.71363473 0.77976555 0.77957726 0.91284001
12.98100090 16.25946045 2.52903700 0.80775112 0.74768573 0.85074317
8.87304211 16.19837189 0.84609425 0.55213076 0.74487656 0.28461778
9.65503597 16.15568542 0.75918567 0.60079080 0.74291366 0.25538260
8.57492352 16.18500519 1.46522534 0.53358012 0.74426192 0.49288741
9.21237755 15.93603420 1.37925231 0.57324612 0.73281306 0.46396691
13.07893085 18.62956619 0.69527638 0.81384486 0.85667419 0.23388414
10.96005344 17.47895241 1.44713426 0.68199635 0.80376363 0.48680174
13.59399128 16.62180328 0.39870694 0.84589481 0.76434791 0.13412109
12.94027042 16.28575325 1.10116839 0.80521667 0.74889481 0.37042221
8.80235958 16.20211792 -0.41149250 0.54773247 0.74504882 -0.13842203
9.48425865 15.98703671 -0.52374333 0.59016407 0.73515838 -0.17618211
8.52676392 16.18024254 0.19771726 0.53058338 0.74404293 0.06651014
9.31713676 16.22229385 0.10023734 0.57976484 0.74597663 0.03371885
9.50312233 14.75342560 -0.57230353 0.59133792 0.67843121 -0.19251728
9.35698795 13.42525196 -0.64878154 0.58224458 0.61735559 -0.21824373
10.15661240 16.27077293 0.03430460 0.63200176 0.74820590 0.01153973
10.33347797 15.27960396 -0.09551575 0.64300728 0.70262736 -0.03213056
8.74767590 16.14143372 2.10184836 0.54432976 0.74225831 0.70704114
9.51509571 16.19416237 2.04761004 0.59208292 0.74468303 0.68879586
11.96443367 16.29729652 -0.20507137 0.74449456 0.74942559 -0.06898399
12.93800259 16.30644989 -0.30358130 0.80507553 0.74984652 -0.10212176
13.06227970 18.75949097 2.27566910 0.81280875 0.86264879 0.76551270
13.67959976 16.84874535 1.87934339 0.85122186 0.77478379 0.63219261
12.52947807 17.17559242 2.73777223 0.77965480 0.78981376 0.92095965
12.82325840 16.27064323 2.51758957 0.79793549 0.74819994 0.84689236
8.73890877 16.19400978 0.84247601 0.54378420 0.74467599 0.28340065
9.55841637 16.22463036 0.75966179 0.59477860 0.74608409 0.25554276
8.43719292 16.16963577 1.45842242 0.52500975 0.74355519 0.49059895
11.10066700 17.38117790 0.74928689 0.69074613 0.79926753 0.25205275
10.99241352 17.77827835 1.46797478 0.68400997 0.81752801 0.49381229
11.74304008 17.48068047 1.34924424 0.73071820 0.80384308 0.45387250
12.67862129 16.93321037 0.53411162 0.78893536 0.77866787 0.17966990
13.19126129 16.33849144 0.38686559 0.82083470 0.75131994 0.13013779
12.53979683 17.27191734 1.25526202 0.78029692 0.79424322 0.42225781
12.76860237 16.27883530 1.09450746 0.79453450 0.74857664 0.36818156
8.66742802 16.19535828 -0.41045383 0.53933626 0.74473798 -0.13807262
9.41193867 16.09461212 -0.52490550 0.58566391 0.74010521 -0.17657305
8.40287304 16.19087601 0.19683670 0.52287418 0.74453187 0.06621393
9.38348293 14.77062225 -0.57106620 0.58389324 0.67922199 -0.19210106
9.35982609 13.61050034 -0.65358686 0.58242118 0.62587422 -0.21986020
10.33066273 15.48387718 -0.09513022 0.64283210 0.71202081 -0.03200087
8.61436272 16.13649750 2.09361029 0.53603423 0.74203134 0.70426989
9.38223648 16.20036888 2.04044151 0.58381569 0.74496841 0.68638444
11.79969501 16.28624916 -0.20471892 0.73424363 0.74891758 -0.06886543
12.76367664 16.29616928 -0.30265775 0.79422796 0.74937373 -0.10181109
11.02566814 17.41238022 2.17919040 0.68607926 0.80070233 0.73305821
13.14150238 19.12790108 2.31243014 0.81773841 0.87958997 0.77787876
9.97364521 16.26309586 2.64673424 0.62061650 0.74785286 0.89033538
11.52962589 17.30445671 2.79210711 0.71743840 0.79573953 0.93923736
12.58954430 16.97486305 1.98920214 0.78339249 0.78058326 0.66914803
13.04850769 16.28067589 1.80139589 0.81195176 0.74866128 0.60597187
12.61344528 16.21321487 2.49520350 0.78487974 0.74555916 0.83936191
8.60611725 16.19036674 0.83896422 0.53552115 0.74450845 0.28221932
9.40804291 16.20149612 0.75509071 0.58542150 0.74502027 0.25400510
8.31180668 16.17622566 1.45388710 0.51720750 0.74385822 0.48907334
8.93317890 15.91158199 1.36610579 0.55587280 0.73168862 0.45954457
10.94658279 17.37952805 0.74567640 0.68115813 0.79919165 0.25083822
13.00527954 19.02826309 0.70573848 0.80926186 0.87500817 0.23740348
9.85759544 16.16548157 1.31672847 0.61339521 0.74336416 0.44293451
12.67401505 17.15089417 0.53957307 0.78864872 0.78867799 0.18150708
12.94735336 16.24451065 0.38121971 0.80565739 0.74699825 0.12823856
13.84953308 19.33420753 1.41447508 0.86179608 0.88907689 0.47581550
12.65260601 16.34139061 1.09319913 0.78731656 0.75145322 0.36774144
8.54130459 16.20347404 -0.40968221 0.53148818 0.74511123 -0.13781306
9.32663441 16.18113136 -0.52556968 0.58035582 0.74408376 -0.17679647
8.27192211 16.18634033 0.19566257 0.51472569 0.74432331 0.06581897
9.03544521 16.20019913 0.09822661 0.56223637 0.74496061 0.03304246
9.36520004 13.80292034 -0.65864182 0.58275557 0.63472259 -0.22156063
9.86227226 16.24998856 0.03276087 0.61368620 0.74725014 0.01102043
10.32458305 15.68704414 -0.09474928 0.64245379 0.72136337 -0.03187273
8.48698902 16.14107513 2.08682609 0.52810836 0.74224180 0.70198780
11.64950848 16.29331398 -0.20444626 0.72489816 0.74924248 -0.06877371
12.59856796 16.29541397 -0.30184567 0.78395396 0.74933904 -0.10153791
10.96334171 17.55721855 2.18924904 0.68220097 0.80736268 0.73644185
13.15291214 19.40424919 2.33721757 0.81844842 0.89229774 0.78621703
9.78949070 16.18987274 2.62361360 0.60915732 0.74448574 0.88255781
11.36511612 17.29220772 2.77786875 0.70720166 0.79517627 0.93444771
12.55072117 17.14682770 2.00082231 0.78097671 0.78849101 0.67305696
12.87914944 16.27807426 1.79139781 0.80141336 0.74854165 0.60260862
12.51979542 16.30315208 2.49698424 0.77905232 0.74969488 0.83996093
8.48388577 16.20517349 0.83662301 0.52791524 0.74518937 0.28143176
9.28319454 16.22043419 0.75290036 0.57765275 0.74589109 0.25326827
8.21180058 16.23168945 1.45423603 0.51098454 0.74640870 0.48919070
8.62226772 15.58740616 1.33028173 0.53652614 0.71678156 0.44749370
10.99189949 17.69763184 0.75831312 0.68397802 0.81381953 0.25508907
11.38361263 17.41492081 1.33134818 0.70835263 0.80081916 0.44785243
12.60952854 17.28998947 0.54192281 0.78463602 0.79507422 0.18229750
12.83017731 16.30669975 0.38062015 0.79836601 0.74985802 0.12803687
13.81982613 19.55130196 1.42489815 0.85994756 0.89905989 0.47932172
12.52661800 16.39044952 1.09093916 0.77947688 0.75370920 0.36698121
8.40990639 16.19999313 -0.40873256 0.52331185 0.74495113 -0.13749361
9.21686554 16.22551346 -0.52523756 0.57352537 0.74612468 -0.17668475
8.95181370 16.28993225 0.09871020 0.55703235 0.74908698 0.03320514
9.35515404 13.97602177 -0.66294783 0.58213049 0.64268255 -0.22300914
9.72102642 16.24637604 0.03207876 0.60489714 0.74708402 0.01079098
10.54761219 16.24612045 -0.09339532 0.65633196 0.74707228 -0.03141727
8.36172199 16.14821815 2.08052635 0.52031350 0.74257028 0.69986862
11.49509621 16.29259682 -0.20414700 0.71528977 0.74920946 -0.06867304
12.43397522 16.29322815 -0.30103359 0.77371210 0.74923849 -0.10126474
10.01529217 16.26256752 2.00931120 0.62320799 0.74782860 0.67591250
11.73329258 17.54992104 2.09102416 0.73011166 0.80702710 0.70339996
9.65419483 16.19493103 2.61407638 0.60073847 0.74471837 0.87934959
11.19366455 17.26695442 2.76167631 0.69653296 0.79401499 0.92900074
12.60797977 17.45456696 2.02927136 0.78453964 0.80264229 0.68262690
12.71402454 16.27869225 1.78195524 0.79113835 0.74857008 0.59943223
12.51550388 16.51103210 2.51784396 0.77878529 0.75925416 0.84697795
8.35541630 16.20664978 0.83353686 0.51992112 0.74525726 0.28039360
8.09724426 16.25798225 1.45179391 0.50385624 0.74761772 0.48836920
8.70098591 15.96485996 1.36068285 0.54142445 0.73413861 0.45772034
10.02300453 16.36312294 0.68756473 0.62368792 0.75245261 0.23129001
11.53700733 17.34742546 0.62467575 0.71789771 0.79771543 0.21013477
9.61816025 16.22799683 1.31136513 0.59849620 0.74623889 0.44113034
11.24040413 17.43415642 1.32697988 0.69944137 0.80170369 0.44638297
12.64058495 17.56370544 0.54954344 0.78656852 0.80766100 0.18486100
12.67343616 16.31756592 0.37842175 0.78861272 0.75035769 0.12729736
12.59915447 16.70135880 1.10830498 0.78399050 0.76800627 0.37282291
8.27979851 16.19728279 -0.40781260 0.51521575 0.74482650 -0.13718414
9.09320831 16.24474144 -0.52432442 0.56583071 0.74700886 -0.17637758
8.10152054 16.35713768 0.19705683 0.50412232 0.75217736 0.06628798
8.78441238 16.22633743 0.09697945 0.54661572 0.74616259 0.03262293
9.35152721 15.35325336 -0.58289510 0.58190477 0.70601410 -0.19608018
9.34109211 14.14620304 -0.66712910 0.58125544 0.65050828 -0.22441567
9.58832932 16.25542450 0.03154025 0.59663993 0.74750012 0.01060983
10.42588234 16.28177452 -0.09347794 0.64875722 0.74871182 -0.03144506
8.25213718 16.12201881 2.07156134 0.51349455 0.74136549 0.69685286
8.87837219 15.96100712 1.98725438 0.55246240 0.73396146 0.66849285
11.36558628 16.27110863 -0.20384109 0.70723093 0.74822134 -0.06857014
12.30272579 16.27989388 -0.30031702 0.76554501 0.74862534 -0.10102369
9.87969875 16.21278000 1.99657035 0.61477059 0.74553913 0.67162663
11.50426292 17.38455963 2.06308579 0.71586013 0.79942304 0.69400179
9.54365253 16.18225098 2.60425019 0.59385991 0.74413526 0.87604415
11.06932831 17.25288010 2.75050902 0.68879604 0.79336780 0.92524421
13.17760658 18.42728996 2.14226627 0.81998503 0.84737259 0.72063732
12.61887360 16.31481552 1.77917802 0.78521752 0.75023121 0.59849799
12.52222252 16.68238640 2.53590536 0.77920336 0.76713383 0.85305363
8.24999714 16.18886948 0.83013147 0.51336139 0.74443960 0.27924806
9.05357933 16.23085785 0.74794835 0.56336480 0.74637043 0.25160247
8.10656738 16.47123909 1.46888852 0.50443637 0.75742429 0.49411964
8.72136211 16.18279839 1.37728035 0.54269236 0.74416041 0.46330357
9.83102703 16.22037506 0.67802274 0.61174196 0.74588841 0.22808018
9.49929619 16.20084572 1.30492914 0.59109980 0.74499035 0.43896532
11.05601788 17.32725906 1.31359303 0.68796784 0.79678810 0.44187978
13.07668972 18.35289383 0.57799381 0.81370544 0.84395152 0.19443144
12.57443142 16.34860229 0.37752241 0.78245205 0.75178486 0.12699483
12.59927177 16.86603165 1.11615527 0.78399777 0.77557868 0.37546366
8.17908287 16.18790054 -0.40701133 0.50894868 0.74439508 -0.13691461
8.97191906 16.20698738 -0.52241504 0.55828345 0.74527276 -0.17573528
8.11205578 16.57483864 0.20072593 0.50477791 0.76218826 0.06752223
8.67758656 16.21116638 0.09616497 0.53996837 0.74546492 0.03234895
9.36197853 14.32382584 -0.67212164 0.58255512 0.65867621 -0.22609511
9.48848152 16.26067352 0.03112739 0.59042686 0.74774152 0.01047095
10.31365395 16.27501297 -0.09362940 0.64177376 0.74840087 -0.03149601
8.11501980 16.10259438 2.06186938 0.50496233 0.74047226 0.69359261
8.85827541 16.16272354 2.00667930 0.55121189 0.74323732 0.67502719
11.21779728 16.27628326 -0.20357509 0.69803464 0.74845928 -0.06848066
12.14032745 16.27677727 -0.29952088 0.75543970 0.74848205 -0.10075588
9.74085522 16.21316528 1.98852348 0.60613096 0.74555683 0.66891974
9.40406418 16.17683983 2.59326792 0.58517396 0.74388641 0.87234980
10.94161701 17.29198456 2.74548364 0.68084913 0.79516596 0.92355371
13.15094280 18.63662148 2.15789318 0.81832588 0.85699862 0.72589403
12.51175308 16.88816261 2.55625629 0.77855188 0.77659637 0.85989946
8.13292599 16.21002197 0.82832235 0.50607657 0.74541229 0.27863950
8.85597324 16.11420441 0.73852044 0.55106860 0.74100620 0.24843101
8.09650421 16.71560669 1.48772740 0.50381017 0.76866144 0.50045687
8.59328747 16.18800926 1.37267900 0.53472281 0.74440008 0.46175572
9.69822502 16.23033333 0.67544383 0.60347831 0.74634629 0.22721267
9.32162476 16.12891388 1.29328310 0.58004409 0.74168259 0.43504772
10.93948078 17.38457108 1.31260669 0.68071622 0.79942352 0.44154799
13.08742523 18.61468697 0.58497941 0.81437343 0.85598999 0.19678132
12.53575802 17.00267029 1.12043715 0.78004557 0.78186196 0.37690404
8.11097717 16.30704880 -0.40813902 0.50471079 0.74987406 -0.13729395
8.85360241 16.23321533 -0.52170944 0.55092108 0.74647886 -0.17549792
8.10038853 16.81835175 0.20465186 0.50405186 0.77338612 0.06884287
8.54191113 16.20172119 0.09524869 0.53152591 0.74503058 0.03204072
9.29241276 14.41426468 -0.67330736 0.57822633 0.66283500 -0.22649397
9.35029888 16.25752068 0.03048118 0.58182836 0.74759650 0.01025357
10.16978455 16.27339363 -0.09380840 0.63282138 0.74832642 -0.03155622
8.09819221 16.32409096 2.08512998 0.50391519 0.75065774 0.70141721
8.72723007 16.16390419 1.99951053 0.54305750 0.74329162 0.67261571
10.90645123 16.03861237 -0.20233816 0.67866093 0.73753011 -0.06806457
11.99032974 16.28835869 -0.29888394 0.74610597 0.74901462 -0.10054162
9.59936523 16.20731354 1.97980595 0.59732670 0.74528778 0.66598725
11.23745346 17.45421410 2.05384302 0.69925779 0.80262607 0.69089258
9.08718586 15.85932064 2.52997565 0.56545597 0.72928542 0.85105896
10.92725945 17.51151085 2.77061009 0.67995572 0.80526084 0.93200600
13.07446861 18.77770996 2.16510558 0.81356722 0.86348653 0.72832024
12.56166935 16.66915894 1.80213642 0.78165793 0.76652557 0.60622096
11.84108639 17.52821350 2.72328973 0.73681921 0.80602890 0.91608787
12.48980999 17.08165932 2.57457209 0.77718645 0.78549427 0.86606073
8.11562347 16.43280411 0.83853853 0.50499988 0.75565684 0.28207612
8.77456570 16.20639801 0.74052030 0.54600298 0.74524564 0.24910374
8.14526653 17.09005356 1.51912558 0.50684446 0.78588027 0.51101893
8.45994091 16.18165970 1.36709177 0.52642524 0.74410808 0.45987624
9.54544258 16.20481110 0.67114562 0.59397131 0.74517268 0.22576679
9.15016079 16.06406403 1.28240311 0.56937462 0.73870045 0.43138778
10.99123383 17.71216583 1.33416653 0.68393660 0.81448787 0.44880050
13.05669212 18.82145500 0.58980584 0.81246108 0.86549819 0.19840488
12.65852737 16.89223862 0.38961360 0.78768498 0.77678382 0.13106218
11.81323719 17.57271576 1.24418747 0.73508626 0.80807531 0.41853243
12.52512836 17.21338272 1.13019061 0.77938414 0.79155153 0.38018501
8.10486221 16.55536652 -0.41140348 0.50433028 0.76129287 -0.13839209
8.71444798 16.21986771 -0.52009064 0.54226214 0.74586505 -0.17495337
8.03984070 16.96473694 0.20659648 0.50028425 0.78011763 0.06949703
8.41685772 16.21072578 0.09461238 0.52374440 0.74544466 0.03182667
9.37731171 16.01320076 -0.59724814 0.58350927 0.73636156 -0.20090841
9.34350491 14.69487190 -0.68154502 0.58140558 0.67573863 -0.22926505
10.02739620 16.27231026 -0.09398280 0.62396115 0.74827659 -0.03161489
8.07194519 16.53172493 2.10645199 0.50228196 0.76020569 0.70858973
8.59465027 16.16057396 1.99187934 0.53480762 0.74313843 0.67004859
10.92004776 16.27801132 -0.20302312 0.67950702 0.74853879 -0.06829498
11.82536411 16.27768135 -0.29804000 0.73584086 0.74852359 -0.10025772
9.46333504 16.20891571 1.97220612 0.58886212 0.74536145 0.66343075
10.98127651 17.29459000 2.02506447 0.68331701 0.79528582 0.68121177
8.80381203 15.59020424 2.47535348 0.54782283 0.71691018 0.83268458
9.94383526 16.16385651 2.53609657 0.61876154 0.74328941 0.85311794
13.13403034 19.11879539 2.19676018 0.81727350 0.87917125 0.73896855
12.59830093 16.93776703 1.82416916 0.78393739 0.77887744 0.61363256
11.54743385 17.32666588 2.67850161 0.71854651 0.79676080 0.90102160
12.51939297 17.34948921 2.60458970 0.77902728 0.79781032 0.87615836
8.10890579 16.68295860 0.85035098 0.50458187 0.76716012 0.28604969
8.64336205 16.20659828 0.73756808 0.53783876 0.74525487 0.24811065
8.16600704 17.41522408 1.54563963 0.50813502 0.80083311 0.51993799
8.33432961 16.18844604 1.36281919 0.51860899 0.74442017 0.45843896
9.40938759 16.20567703 0.66822284 0.58550519 0.74521250 0.22478360
11.01179600 17.43540764 0.61692065 0.68521607 0.80176127 0.20752604
8.72660160 15.54530430 1.23168123 0.54301840 0.71484548 0.41432545
9.97760391 16.30974770 1.21227610 0.62086284 0.74999815 0.40779775
13.07461643 19.10284424 0.59748995 0.81357640 0.87843776 0.20098974
12.65809155 17.11440468 0.39406034 0.78765786 0.78700006 0.13255802
11.50323677 17.34535217 1.22060525 0.71579629 0.79762006 0.41059962
8.09334564 16.79883575 -0.41457888 0.50361365 0.77248871 -0.13946027
8.60299110 16.25663757 -0.51967555 0.53532666 0.74755591 -0.17481375
7.88925219 16.92062759 0.20468855 0.49091378 0.77808928 0.06885522
8.28746605 16.20990181 0.09384882 0.51569289 0.74540681 0.03156982
9.37926579 16.25027657 -0.60234594 0.58363086 0.74726337 -0.20262325
9.35100174 14.91237068 -0.68741125 0.58187211 0.68574023 -0.23123838
9.88230419 16.26495934 -0.09417098 0.61493272 0.74793857 -0.03167819
8.06571007 16.78621674 2.13407397 0.50189400 0.77190840 0.71788150
8.47169590 16.17380524 1.98656070 0.52715671 0.74374688 0.66825950
10.77127075 16.27620506 -0.20274383 0.67024922 0.74845570 -0.06820103
11.66917801 16.27694702 -0.29730755 0.72612208 0.74848986 -0.10001133
9.31975079 16.19565964 1.96281803 0.57992750 0.74475187 0.66027266
10.93477154 17.46264076 2.03745818 0.68042320 0.80301356 0.68538088
8.67399311 15.58810902 2.46581626 0.53974479 0.71681386 0.82947636
9.82561779 16.19894218 2.53162956 0.61140537 0.74490279 0.85161531
12.55180931 17.09840393 1.83361173 0.78104442 0.78626424 0.61680895
11.33506203 17.24144554 2.65302324 0.70533150 0.79284197 0.89245093
8.10366058 16.94268227 0.86269552 0.50425547 0.77910346 0.29020229
8.51529598 16.21109581 0.73490161 0.52986974 0.74546170 0.24721368
8.16132927 17.69425774 1.56761837 0.50784397 0.81366438 0.52733141
8.16290379 16.10367393 1.35016572 0.50794196 0.74052191 0.45418248
9.26973820 16.19853401 0.66495621 0.57681543 0.74488401 0.22368473
10.97928619 17.62802124 0.62226146 0.68319315 0.81061852 0.20932263
8.62008667 15.58411312 1.23030210 0.53639042 0.71663010 0.41386151
9.78409576 16.22187996 1.19987571 0.60882163 0.74595761 0.40362638
13.03923988 19.31059837 0.60231638 0.81137508 0.88799125 0.20261331
12.62703133 17.29849625 0.39730796 0.78572512 0.79546541 0.13365050
13.73990250 19.38632965 1.27756166 0.85497427 0.89147371 0.42975917
8.04062557 16.96144867 -0.41641882 0.50033307 0.77996641 -0.14007920
8.45066833 16.21467400 -0.51743412 0.52584827 0.74562621 -0.17405975
7.79359293 16.99350357 0.20516554 0.48496133 0.78144044 0.06901567
9.34770393 15.11694622 -0.69277823 0.58166689 0.69514757 -0.23304379
8.92961693 16.22574997 0.02838099 0.55565113 0.74613553 0.00954709
9.73770142 16.25643158 -0.09435916 0.60593474 0.74754643 -0.03174149
8.17257404 17.28728676 2.19489050 0.50854367 0.79494995 0.73833960
10.62294960 16.27317429 -0.20246452 0.66101986 0.74831635 -0.06810708
11.52156639 16.28631592 -0.29668653 0.71693689 0.74892068 -0.09980243
10.03463459 16.25407982 1.87886083 0.62441158 0.74743831 0.63203031
8.55024529 15.59541798 2.45801306 0.53204453 0.71714997 0.82685143
9.68596840 16.19750977 2.52129984 0.60271561 0.74483693 0.84814048
11.76382732 17.59071541 1.99200702 0.73201174 0.80890304 0.67009157
12.44880962 17.18337631 1.83435225 0.77463520 0.79017168 0.61705804
11.22004700 17.30234146 2.65141416 0.69817466 0.79564226 0.89190966
13.04843140 18.56787491 2.77121282 0.81194705 0.85383737 0.93220872
8.22952175 17.48865128 0.89185417 0.51208729 0.80420965 0.30001098
8.38383675 16.20753098 0.73185420 0.52168965 0.74529773 0.24618855
8.14689445 17.95938873 1.58820152 0.50694573 0.82585633 0.53425539
8.10348606 16.23842239 1.35788929 0.50424463 0.74671829 0.45678061
10.00925446 16.30094147 0.56226921 0.62283230 0.74959320 0.18914184
8.65530968 15.88325882 1.25175548 0.53858221 0.73038620 0.42107823
9.65133476 16.23162270 1.19564831 0.60056049 0.74640560 0.40220433
12.49586010 17.34668922 0.39635867 0.77756292 0.79768157 0.13333116
11.27788353 17.47846603 1.21982348 0.70177352 0.80374128 0.41033661
13.68885040 19.57365227 1.28493619 0.85179752 0.90008771 0.43223989
7.89257431 16.92278290 -0.41496468 0.49112052 0.77818835 -0.13959004
8.32300377 16.21766853 -0.51627195 0.51790428 0.74576396 -0.17366880
7.65467930 16.97101212 0.20373459 0.47631735 0.78040618 0.06853431
9.33490276 15.31012344 -0.69770831 0.58087033 0.70403075 -0.23470221
8.80846596 16.24635315 0.02802198 0.54811245 0.74708301 0.00942632
9.60276604 16.26222038 -0.09450603 0.59753829 0.74781263 -0.03179090
8.15890694 17.47138023 2.21451640 0.50769323 0.80341542 0.74494153
8.27254772 16.22529411 1.98124194 0.51476461 0.74611461 0.66647029
10.50063515 16.25245094 -0.20218521 0.65340877 0.74736339 -0.06801312
11.38379478 16.25366974 -0.29584262 0.70836395 0.74741942 -0.09951854
9.05765724 16.14799118 1.94359481 0.56361854 0.74255985 0.65380621
9.89872551 16.20450211 1.86688733 0.61595458 0.74515849 0.62800252
8.48889542 15.65816784 2.46177006 0.52822697 0.72003549 0.82811522
9.57215405 16.17994881 2.51097012 0.59563345 0.74402940 0.84466565
11.52066898 17.40353966 1.96275651 0.71688104 0.80029583 0.66025198
13.06854534 18.21693039 1.94599676 0.81319863 0.83769929 0.65461415
11.08815193 17.27657890 2.63880897 0.68996739 0.79445755 0.88766938
