3.62629080 40.96546555 0.61672807 0.47051784 0.88074881 0.24669667
5.74688673 45.41315460 0.44473422 0.74566901 0.97637314 0.17789760
3.94251275 41.50743866 -0.75660300 0.51154822 0.89240110 -0.30264786
6.25125599 46.46589279 -1.11111867 0.81111187 0.99900681 -0.44445726
3.31460905 40.32376480 0.60450995 0.43007657 0.86695236 0.24180931
5.36396646 44.64029312 0.43437511 0.69598442 0.95975679 0.17375387
3.07699013 39.72086716 0.59313577 0.39924508 0.85399020 0.23725954
5.06149626 43.87045288 0.42419419 0.65673840 0.94320542 0.16968141
3.45382333 39.45851898 1.97253370 0.44813988 0.84834975 0.78903085
2.78480744 39.13702011 0.58205509 0.36133385 0.84143758 0.23282717
4.70370293 43.15192795 0.41459867 0.61031401 0.92775726 0.16584313
3.15764546 38.88223267 1.94060826 0.40971026 0.83595973 0.77626044
5.13944530 43.94355774 -1.05628705 0.66685241 0.94477713 -0.42252412
2.50714445 38.66084671 0.57299244 0.32530656 0.83119994 0.22920203
4.36704016 42.54604721 0.40647939 0.56663144 0.91473097 0.16259533
2.86825490 38.29583740 1.90825701 0.37216130 0.82335234 0.76331961
2.78931427 39.12723160 -0.71998197 0.36191863 0.84122711 -0.28799912
2.23210192 38.12285995 0.56282902 0.28961930 0.81963336 0.22513656
4.00446749 41.58931732 0.39390597 0.51958698 0.89416146 0.15756586
2.58676672 37.71334457 1.87622499 0.33563769 0.81082886 0.75050652
4.47912836 41.63446045 1.85815692 0.58117509 0.89513201 0.74327916
3.70903230 41.23722458 0.38909549 0.48125371 0.88659155 0.15564163
2.37393451 37.17101288 1.84664071 0.30802232 0.79916888 0.73867255
4.21821499 41.02915192 1.82815897 0.54732108 0.88211805 0.73127967
4.12431002 41.47306442 -1.00303268 0.53513676 0.89166206 -0.40122190
3.89401650 40.37083435 1.79539943 0.50525576 0.86796433 0.71817559
1.85274410 36.13478470 1.78991961 0.24039693 0.77689016 0.71598363
3.58006263 39.72998428 1.76359212 0.46451965 0.85418618 0.70545238
5.47110605 43.64030838 1.75420558 0.70988601 0.93825734 0.70169771
2.84344983 39.20688629 0.36244693 0.36894280 0.84293967 0.14498197
1.60351467 35.64691162 1.76331508 0.20805895 0.76640099 0.70534158
3.27213645 39.06093216 1.73054671 0.42456567 0.83980173 0.69223392
5.11095953 42.94956589 1.72282875 0.66315633 0.92340654 0.68914670
1.36140287 35.18130112 1.73798740 0.17664450 0.75639045 0.69521028
2.98518467 38.54893875 1.70511997 0.38733315 0.82879394 0.68206298
4.75703955 42.23221970 1.69042039 0.61723453 0.90798372 0.67618304
2.89719081 39.10298157 -0.95181215 0.37591580 0.84070575 -0.38073325
6.23179626 46.51208878 -0.03015425 0.80858696 1.00000000 -0.01206196
1.12279189 34.63822174 1.70861590 0.14568430 0.74471438 0.68346143
2.69822979 37.94324112 1.67531252 0.35010025 0.81577158 0.67013979
4.40897560 41.48036194 1.65663648 0.57207263 0.89181894 0.66266918
0.94639891 34.15799713 1.68275630 0.12279698 0.73438966 0.67311734
2.48098397 37.38147354 1.64788580 0.32191220 0.80369371 0.65916884
4.15159082 40.88836288 1.63015962 0.53867650 0.87909108 0.65207821
6.36768770 46.39249420 -1.59979582 0.82621908 0.99742872 -0.63993245
0.72282088 33.73397064 1.65987623 0.09378733 0.72527319 0.66396511
2.21500278 36.88384628 1.62341130 0.28740066 0.79299486 0.64937884
3.82905006 40.22138214 1.60024416 0.49682623 0.86475116 0.64011174
5.99836588 44.73690033 1.51431692 0.77829891 0.96183383 0.60574013
5.11776257 43.96484756 -0.03627228 0.66403902 0.94523484 -0.01450923
0.50513160 33.34444427 1.63891184 0.06554174 0.71689844 0.65557921
1.95136607 36.31056595 1.59541333 0.25319332 0.78066945 0.63817936
3.51628852 39.56592178 1.57093048 0.45624486 0.85065889 0.62838602
0.29185495 32.89162064 1.61464846 0.03786871 0.70716286 0.64587361
1.70096087 35.85917282 1.57331955 0.22070278 0.77096456 0.62934166
3.21730804 38.97386169 1.54445350 0.41745159 0.83792973 0.61779499
5.24076653 43.20764923 1.45527577 0.67999899 0.92895526 0.58212316
5.19727802 44.01691055 -1.52160037 0.67435628 0.94635421 -0.60865355
0.08535570 32.97868347 1.61922443 0.01107506 0.70903468 0.64770406
1.45613945 35.40208817 1.55103540 0.18893676 0.76113737 0.62042785
2.92605901 38.38162613 1.51806259 0.37966150 0.82519680 0.60723841
4.88189030 42.48325348 1.42740130 0.63343418 0.91338092 0.57097310
4.04230499 41.53950119 -0.04206903 0.52449644 0.89309043 -0.01682798
-0.12241554 33.10838318 1.62614167 -0.01588364 0.71182317 0.65047097
1.21359456 34.84353638 1.52398968 0.15746611 0.74912858 0.60960931
2.64376426 37.80722427 1.49253130 0.34303322 0.81284726 0.59702569
4.53384352 41.76999283 1.40003896 0.58827448 0.89804596 0.56002790
-0.27508104 32.73598099 1.60634780 -0.03569227 0.70381659 0.64255327
4.26316929 41.08320618 1.37399352 0.55315399 0.88328016 0.54960954
0.41731086 33.09173584 0.28334117 0.05414684 0.71146530 0.11333896
-0.47424909 32.30826187 1.58368063 -0.06153468 0.69462073 0.63348621
0.83484018 35.03651428 1.53265572 0.10832204 0.75327760 0.61307579
5.97102594 44.61188889 1.29198456 0.77475148 0.95914608 0.51680523
-0.93543327 30.25102425 0.41745943 -0.12137417 0.65039057 0.16698745
0.20652288 32.68174744 0.27809802 0.02679672 0.70265061 0.11124166
5.17145109 43.81528473 -0.28454715 0.67100519 0.94201928 -0.11382136
-0.66908818 31.92726707 1.56356752 -0.08681541 0.68642944 0.62544078
0.60686553 34.60963058 1.51208568 0.07874191 0.74409968 0.60484761
3.62846565 39.84379959 1.32658505 0.47080004 0.85663319 0.53064573
-1.11413062 29.94481468 0.41195580 -0.14456049 0.64380711 0.16478595
2.88022399 39.16195297 -0.04773269 0.37371433 0.84197366 -0.01909350
4.82863760 43.24065018 -0.28251886 0.62652451 0.92966479 -0.11301003
-0.85876900 31.53114128 1.54270959 -0.11142685 0.67791283 0.61709744
0.38400477 34.15730667 1.49037290 0.04982532 0.73437482 0.59616232
3.33136439 39.31816483 1.30646574 0.43225062 0.84533215 0.52259779
5.22875452 43.18104935 1.24391091 0.67844045 0.92838335 0.49757531
3.15920258 38.75477982 -1.35179198 0.40991229 0.83321953 -0.54072869
2.61369252 38.87796783 -0.04842573 0.33913139 0.83586800 -0.01937072
-1.04499936 31.17781830 1.52419269 -0.13559057 0.67031646 0.60969049
0.16690767 33.71355820 1.46913636 0.02165657 0.72483432 0.58766747
1.45673251 36.40777206 1.42960572 0.18901370 0.78275937 0.57185489
3.12262583 39.82448196 1.32431710 0.40516639 0.85621786 0.52973849
4.87656260 42.50601196 1.22130311 0.63274288 0.91387022 0.48853201
-0.39432055 31.40402794 0.26185945 -0.05116381 0.67517990 0.10474609
2.87307382 38.21174622 -1.33419335 0.37278658 0.82154441 -0.53368908
2.33232355 38.29076385 -0.04981181 0.30262324 0.82324326 -0.01992516
4.10650301 41.48668671 -0.27646723 0.53282624 0.89195490 -0.11058933
-1.22625887 30.80944443 1.50493097 -0.15910932 0.66239649 0.60198563
-0.04460957 33.28443146 1.44866157 -0.00578817 0.71560818 0.57947737
1.21106124 35.90695572 1.40768492 0.15713741 0.77199191 0.56308639
2.82950187 39.25326538 1.30266130 0.36713302 0.84393686 0.52107602
4.52341413 41.73884201 1.19583738 0.58692122 0.89737624 0.47834548
2.58849716 37.58889771 -1.31416082 0.33586222 0.80815327 -0.52567589
2.06130099 37.75350189 -0.05107856 0.26745757 0.81169224 -0.02043187
-1.35529459 30.44619560 1.48588204 -0.17585194 0.65458673 0.59436589
-0.19930527 32.88830566 1.42980576 -0.02586022 0.70709157 0.57193488
1.02763772 35.41292953 1.38619387 0.13333787 0.76137042 0.55448979
2.60565424 38.69386292 1.28166401 0.33808839 0.83190984 0.51267689
4.38306332 42.30651474 1.21330142 0.56871045 0.90958107 0.48533127
2.37534142 37.04411316 -1.29674935 0.30820489 0.79644054 -0.51871115
-1.52911007 30.09800911 1.46779096 -0.19840482 0.64710081 0.58712929
-0.40102458 32.46691132 1.40980709 -0.05203367 0.69803166 0.56393528
0.79475552 34.95123291 1.36607838 0.10312098 0.75144404 0.54644340
2.32638025 38.12297440 1.26015460 0.30185208 0.81963581 0.50407296
1.72970974 37.01655197 2.47923160 0.22443299 0.79584795 0.99171448
4.05823851 41.72437286 1.19386876 0.52656382 0.89706510 0.47755802
5.31209707 44.10617828 -0.49155486 0.68925428 0.94827342 -0.19662628
-1.70033252 29.77876282 1.45129609 -0.22062124 0.64023703 0.58053124
-0.59785229 32.06626511 1.39085603 -0.07757243 0.68941784 0.55635464
0.56743079 34.47004700 1.34518909 0.07362518 0.74109864 0.53808749
2.05636954 37.58605194 1.23996210 0.26681769 0.80809212 0.49599576
3.74054480 41.13586044 1.17430913 0.48534250 0.88441223 0.46973401
5.86803532 45.52453232 1.00916135 0.76138830 0.97876775 0.40367344
5.04068851 43.99139023 2.49994493 0.65403855 0.94580549 1.00000000
2.94636035 39.14271164 -0.26836735 0.38229564 0.84155995 -0.10734931
-1.86568820 29.42866898 1.43320489 -0.24207644 0.63271010 0.57329458
-0.79019523 31.68641281 1.37295258 -0.10252927 0.68125111 0.54919314
0.34675911 34.04734421 1.32687879 0.04499263 0.73201066 0.53076321
1.79388297 37.06123352 1.22028172 0.23275958 0.79680860 0.48812345
3.42454505 40.47530746 1.15252674 0.44434097 0.87021047 0.46102086
5.48427582 44.76673126 0.98917592 0.71159476 0.96247518 0.39567909
-2.02853584 29.10358429 1.41649723 -0.26320621 0.62572086 0.56661135
-0.97766668 31.30143166 1.35485852 -0.12685403 0.67297411 0.54195535
0.13131618 33.59127808 1.30719304 0.01703851 0.72220534 0.52288872
1.53824389 36.53861237 1.20074761 0.19958995 0.78557241 0.48030964
-0.33721876 31.65864372 2.29469538 -0.04375475 0.68065411 0.91789836
3.12040615 39.85628510 1.13214159 0.40487838 0.85690165 0.45286661
5.11073732 44.00991058 0.96929044 0.66312748 0.94620371 0.38772473
-2.14306426 28.79297638 1.40042806 -0.27806649 0.61904287 0.56018358
-1.11289644 30.94908714 1.33828831 -0.14440034 0.66539878 0.53532714
-0.02641411 33.18989563 1.28991425 -0.00342728 0.71357566 0.51597708
1.34649539 36.03017426 1.18187201 0.17471023 0.77464110 0.47275922
-0.48068920 31.29980087 2.26726580 -0.06237030 0.67293906 0.90692627
2.88741183 39.25250244 1.11245489 0.37464696 0.84392047 0.44499177
4.81686068 43.26056290 0.94985461 0.62499648 0.93009287 0.37995023
4.04312658 41.64575958 2.35471487 0.52460307 0.89537495 0.94190669
4.00969648 41.52185059 -0.46997890 0.52026546 0.89271092 -0.18799570
-2.29831219 28.46443367 1.38361394 -0.29821020 0.61197925 0.55345780
-1.29255426 30.58619499 1.32133710 -0.16771127 0.65759665 0.52854651
-0.23163071 32.75748825 1.27134609 -0.03005451 0.70427901 0.50854963
1.10459793 35.54849625 1.16394758 0.14332360 0.76428509 0.46558928
0.56169301 33.45119858 2.22488213 0.07288069 0.71919364 0.88997245
2.60212970 38.69145203 1.09403837 0.33763108 0.83185798 0.43762499
4.46778584 42.55826187 0.93146801 0.57970333 0.91499358 0.37259540
-2.45353436 28.18084526 1.36924744 -0.31835055 0.60588217 0.54771101
-1.46826971 30.23425293 1.30495727 -0.19051068 0.65003002 0.52199441
-0.43222451 32.38176727 1.25527072 -0.05608192 0.69620109 0.50211936
0.86890852 35.06921387 1.14616930 0.11274247 0.75398064 0.45847782
0.34697983 33.04710770 2.19613576 0.04502127 0.71050578 0.87847364
2.32353115 38.12040329 1.07536769 0.30148241 0.81958055 0.43015656
4.12871599 41.86325836 0.91333127 0.53570843 0.90005112 0.36534056
1.70889759 36.99113464 2.27933264 0.22173257 0.79530150 0.91175312
-1.50415802 28.96133041 -0.73987389 -0.19516724 0.62266243 -0.29595608
-2.60303879 27.87258148 1.35360396 -0.33774903 0.59925455 0.54145354
-1.64004660 29.88930321 1.28895843 -0.21279904 0.64261365 0.51559472
-0.62758005 31.97886276 1.23807800 -0.08142965 0.68753874 0.49524212
0.63981944 34.61637115 1.12941539 0.08301774 0.74424464 0.45177612
0.13724165 32.61571884 2.16555762 0.01780735 0.70123100 0.86624211
2.05448103 37.58932114 1.05803084 0.26657265 0.80816239 0.42322165
3.80428410 41.22742081 0.89674336 0.49361280 0.88638079 0.35870525
-2.66012597 26.68126297 1.29071057 -0.34515619 0.57364148 0.51629561
-1.80815053 29.55337334 1.27343559 -0.23461083 0.63539124 0.50938547
-0.81836718 31.59277725 1.22165883 -0.10618463 0.67923796 0.48867428
0.41673666 34.18403625 1.11346626 0.05407234 0.73494947 0.44539630
-0.06709655 32.20695496 2.13667011 -0.00870590 0.69244266 0.85468686
1.79229307 37.05838394 1.04075730 0.23255329 0.79674739 0.41631210
3.48697495 40.57722855 0.87985569 0.45244136 0.87240177 0.35195002
1.17112648 34.80758286 2.13549376 0.15195580 0.74835563 0.85421634
2.81873798 39.29092407 2.20877099 0.36573640 0.84474647 0.88352787
-2.80077577 26.41181755 1.27719545 -0.36340576 0.56784844 0.51088941
-1.90765154 28.25177193 1.21182084 -0.24752127 0.60740709 0.48473901
-1.00459015 31.21355820 1.20558357 -0.13034740 0.67108488 0.48224404
0.19903424 33.73828888 1.09707808 0.02582506 0.72536600 0.43884090
-0.26587608 31.74306488 2.10397816 -0.03449791 0.68246913 0.84160978
1.53661036 36.51966476 1.02329338 0.19937800 0.78516501 0.40932637
3.18293786 39.98649216 0.86451691 0.41299200 0.85970104 0.34581438
0.93851525 34.29554367 2.10161853 0.12177406 0.73734689 0.84066594
-2.89862943 26.16014481 1.26442528 -0.37610245 0.56243753 0.50578123
-2.02265978 27.98940277 1.19972646 -0.26244378 0.60176617 0.47990116
-0.41141060 31.41629601 2.08100939 -0.05338128 0.67544365 0.83242208
1.34692979 36.04906464 1.00811553 0.17476660 0.77504718 0.40325511
2.94638610 39.36305618 0.84852856 0.38229898 0.84629732 0.33941889
0.76778150 33.88656616 2.07464886 0.09962105 0.72855395 0.82987785
2.23858333 36.90236282 2.06449246 0.29046026 0.79339296 0.82581520
-2.09885383 27.75336647 -0.71563339 -0.27233011 0.59669149 -0.28625965
-3.23840642 25.44097900 0.33270332 -0.42018914 0.54697561 0.13308427
-3.03720593 25.92323875 1.25271916 -0.39408302 0.55734414 0.50109869
-2.17770267 27.70925331 1.18696547 -0.28256088 0.59574306 0.47479665
-0.16341034 31.83972931 1.02757490 -0.02120279 0.68454742 0.41103902
-0.60248077 31.07598877 2.05719495 -0.07817298 0.66812712 0.82289612
1.10577166 35.57727814 0.99287426 0.14347589 0.76490390 0.39715844
2.65685701 38.77043533 0.83323973 0.34473205 0.83355612 0.33330324
0.54783386 33.44572449 2.04559445 0.07108244 0.71907598 0.81825578
1.97569895 36.35155106 2.03083158 0.25635055 0.78155059 0.81235051
-3.16602159 25.63014030 1.23803341 -0.41079709 0.55104256 0.49522427
-2.32897067 27.42428970 1.17401397 -0.30218819 0.58961636 0.46961594
-0.35941148 31.46234703 1.01382065 -0.04663429 0.67643374 0.40553719
-0.78729510 30.65476036 2.02774382 -0.10215297 0.65907079 0.81111538
0.84261870 33.94882965 0.94092691 0.10933132 0.72989261 0.37637904
2.37714648 38.21167374 0.81885022 0.30843911 0.82154286 0.32754731
0.33347547 33.00547028 2.01667023 0.04326905 0.70961058 0.80668586
1.72486627 35.90260696 2.00335550 0.22380455 0.77189839 0.80135983
-3.22841406 25.38960075 -0.51767576 -0.41889262 0.54587102 -0.20707487
-3.29748774 25.38398552 1.22590172 -0.42785504 0.54575026 0.49037150
-1.61255980 28.92889786 1.10853028 -0.20923257 0.62196517 0.44342187
-0.55094969 31.09976006 1.00065160 -0.07148673 0.66863823 0.40026945
-0.96877563 30.29426575 2.00266123 -0.12570040 0.65132028 0.80108213
0.62227082 33.56171417 0.92847985 0.08074077 0.72156972 0.37140012
2.10512686 37.66093063 0.80471057 0.27314404 0.80970198 0.32189131
0.12475437 32.58980179 1.98943985 0.01618711 0.70067382 0.79579347
1.47823477 35.41606522 1.97373855 0.19180366 0.76143783 0.78951281
-3.42625809 25.13917923 1.21387649 -0.44456324 0.54048699 0.48556128
-0.73696631 30.69406319 0.98594618 -0.09562273 0.65991580 0.39438716
-1.14605749 29.94069099 1.97814226 -0.14870305 0.64371848 0.79127431
0.40649509 33.14520264 0.91514373 0.05274348 0.71261477 0.36606556
-0.07868711 32.15886307 1.96129751 -0.01020980 0.69140869 0.78453630
1.23685193 34.90192032 1.94257534 0.16048379 0.75038385 0.77704728
-2.68497324 26.58762932 -0.69259661 -0.34838018 0.57162839 -0.27704474
-3.55293465 24.89969444 1.20217049 -0.46099976 0.53533810 0.48087880
-0.91855824 30.30924797 0.97204554 -0.11918461 0.65164238 0.38882679
-1.31902242 29.58809090 1.95376420 -0.17114556 0.63613766 0.78152287
0.19573139 32.68134308 0.90034699 0.02539650 0.70264190 0.36014673
-0.27689525 31.74662590 1.93445790 -0.03592766 0.68254572 0.77380019
1.00341308 34.43405533 1.91426671 0.13019468 0.74032485 0.76572353
-3.63125896 24.61992645 1.18801677 -0.47116247 0.52932316 0.47521716
-1.04984868 29.96900558 0.95975441 -0.13621978 0.64432722 0.38391021
1.34750891 34.96661758 0.73656029 0.17484173 0.75177485 0.29463062
-0.42112908 31.36381912 1.90957284 -0.05464227 0.67431545 0.76384598
0.82980263 33.98534393 1.88726652 0.10766841 0.73067766 0.75492322
-3.22108817 25.47009850 0.18888770 -0.41794208 0.54760170 0.07555675
-1.52211654 29.00384331 -0.07119509 -0.19749740 0.62357646 -0.02847866
-3.75380707 24.38938904 1.17684281 -0.48706332 0.52436668 0.47074750
-1.22465384 29.63031387 0.94760966 -0.15890107 0.63704544 0.37905222
-1.60806596 28.91243935 1.90712178 -0.20864949 0.62161130 0.76286554
-0.61070883 30.99341202 1.88559961 -0.07924058 0.66635174 0.75425649
0.60787719 33.54275894 1.86062324 0.07887317 0.72116220 0.74426568
-3.87074232 24.14054680 1.16471112 -0.50223589 0.51901662 0.46589470
-3.12581420 25.72964859 1.09754312 -0.40558010 0.55318195 0.43902692
-1.39524484 29.29062271 0.93546486 -0.18103556 0.62974215 0.37419418
-1.77799249 28.71059990 1.89359403 -0.23069777 0.61727178 0.75745428
-0.35460445 31.47454071 0.86205328 -0.04601058 0.67669594 0.34482890
-0.79575717 30.62586403 1.86188710 -0.10325094 0.65844953 0.74477124
0.39129812 33.07878113 1.83279037 0.05077164 0.71118677 0.73313230
-3.98932314 23.91878128 1.15406930 -0.51762193 0.51424873 0.46163788
-3.25870728 25.48357582 1.08668673 -0.42282322 0.54789144 0.43468428
-1.56193495 28.95595551 0.92353958 -0.20266391 0.62254685 0.36942396
-1.93254280 28.31668472 1.86653852 -0.25075096 0.60880268 0.74663186
-0.97607994 30.25324059 1.83791387 -0.12664816 0.65043825 0.73518175
0.18109028 32.69727325 1.80995321 0.02349679 0.70298439 0.72399724
-4.10458612 23.69255257 1.14321458 -0.53257751 0.50938481 0.45729589
-3.38466859 25.20715714 1.07440186 -0.43916693 0.54194850 0.42977020
-1.72506928 28.63034058 0.91198009 -0.22383088 0.61554623 0.36480007
-2.08632803 27.97768784 1.84342873 -0.27070487 0.60151434 0.73738772
-0.73188585 30.72419739 0.83842927 -0.09496352 0.66056371 0.33537909
-1.15269089 29.90350533 1.81550419 -0.14956374 0.64291900 0.72621769
-0.02429735 32.22859955 1.78200150 -0.00315262 0.69290805 0.71281630
-4.38899040 23.09528160 0.29348069 -0.56947953 0.49654365 0.11739486
-4.21858454 23.47368813 1.13278556 -0.54736906 0.50467932 0.45312420
-3.51226711 24.96578217 1.06383121 -0.45572308 0.53675902 0.42554185
-1.88351762 28.29385948 0.90005481 -0.24438985 0.60831195 0.36002985
-2.25027800 27.81686592 1.83300114 -0.29197767 0.59805667 0.73321658
-0.91427946 30.37332916 0.82744282 -0.11862943 0.65302008 0.33098441
-1.32703340 29.59861374 1.79609120 -0.17218500 0.63636386 0.71845233
-0.22441497 31.85647583 1.75987792 -0.02911825 0.68490744 0.70396668
-3.84880829 24.27382278 0.17493984 -0.49938989 0.52188200 0.06997748
-4.28945732 23.23950768 1.12118602 -0.55656493 0.49964446 0.44848430
-3.59526634 24.70971870 1.05230820 -0.46649235 0.53125370 0.42093256
-1.99670446 27.99956894 0.88959277 -0.25907606 0.60198474 0.35584494
-2.39534545 27.97094727 1.84469700 -0.31080043 0.60136938 0.73789507
-1.47350883 29.73155785 1.80521142 -0.19119045 0.63922215 0.72210050
-0.37027022 31.47176743 1.73704076 -0.04804324 0.67663628 0.69483161
-4.33583307 23.02966690 -0.48562494 -0.56258225 0.49513292 -0.19425425
-2.06736779 27.74380302 -1.00643384 -0.26824474 0.59648585 -0.40258241
-1.46093476 28.99071693 -0.23436522 -0.18955895 0.62329423 -0.09374815
-4.40413809 23.04930496 1.11235321 -0.57144493 0.49555513 0.44495109
-3.72239614 24.50096130 1.04335642 -0.48298770 0.52676547 0.41735175
-2.14960337 27.68755531 0.87861854 -0.27891496 0.59527653 0.35145515
-2.57376266 27.98514748 1.84681070 -0.33395040 0.60167474 0.73874056
-1.21931660 29.67039299 0.80546999 -0.15820855 0.63790715 0.32219508
-1.63651347 29.30128098 1.77772045 -0.21234061 0.62997133 0.71110386
-0.56234193 31.14344597 1.71765304 -0.07296489 0.66957748 0.68707633
-3.75909400 24.19708633 -0.64619100 -0.48774931 0.52023220 -0.25848210
-4.50998878 22.82528305 1.10171139 -0.58517927 0.49073872 0.44069427
-3.83834147 24.23633575 1.03173816 -0.49803180 0.52107608 0.41270435
-4.90829945 23.13690376 1.93236053 -0.63686079 0.49743849 0.77296126
-2.30065036 27.39863586 0.86852229 -0.29851359 0.58906484 0.34741658
-2.72184014 27.68448257 1.82666004 -0.35316372 0.59521049 0.73068011
-1.38978076 29.33069611 0.79492813 -0.18032658 0.63060373 0.31797826
-0.32254988 31.49401093 0.64917409 -0.04185143 0.67711455 0.25967535
-1.81445098 29.19281960 1.77133632 -0.23542832 0.62763941 0.70855016
-0.74798596 30.71616745 1.69243693 -0.09705254 0.66039103 0.67698967
-4.61681032 22.61845779 1.09202731 -0.59903955 0.48629203 0.43682054
-3.95757508 24.01065636 1.02202451 -0.51350260 0.51622397 0.40881881
-5.01468372 22.92852211 1.91648698 -0.65066433 0.49295834 0.76661170
-2.44815230 27.10892487 0.85842603 -0.31765223 0.58283609 0.34337798
-2.86521101 27.37315178 1.80580473 -0.37176636 0.58851695 0.72233778
-1.55591631 28.98804665 0.78432274 -0.20188297 0.62323684 0.31373602
-1.99893951 29.19677162 1.77237856 -0.25936604 0.62772435 0.70896703
-0.94353759 30.79667091 1.69755149 -0.12242572 0.66212189 0.67903554
-4.72369289 22.42292023 1.08298171 -0.61290777 0.48208800 0.43320224
-4.07681036 23.80019951 1.01307273 -0.52897358 0.51169920 0.40523803
-5.11908436 22.72166634 1.90078795 -0.66421056 0.48851100 0.76033193
-4.48816776 24.09606934 1.88243318 -0.58234793 0.51806039 0.75298989
-2.59191489 26.81646156 0.84825665 -0.33630568 0.57654822 0.33931014
-3.00958920 27.10474968 1.78804958 -0.39049968 0.58274633 0.71523559
-1.72022307 28.68438530 0.77498740 -0.22320208 0.61670816 0.31000179
-0.70148730 30.72989464 0.63023794 -0.09101926 0.66068619 0.25210074
-2.16041708 28.89308167 1.75335646 -0.28031805 0.62119508 0.70135802
-1.14273512 30.94775009 1.70694804 -0.14827196 0.66537005 0.68279427
-4.98008823 21.87097740 0.27370426 -0.64617550 0.47022134 0.10948411
-4.36589622 23.05744934 0.16081381 -0.56648302 0.49573025 0.06432694
-2.65233588 26.55715561 -0.97111166 -0.34414542 0.57097322 -0.38845322
-4.78873301 22.21302605 1.07276559 -0.62134683 0.47757533 0.42911568
-4.15098095 23.56427193 1.00259733 -0.53859735 0.50662684 0.40104777
-5.19109821 22.54587936 1.88718200 -0.67355448 0.48473161 0.75488943
-4.57223320 23.91996193 1.86945105 -0.59325558 0.51427406 0.74779689
-2.69163465 26.53946495 0.83852619 -0.34924451 0.57059282 0.33541787
-3.89958572 25.21479797 1.82241488 -0.50597835 0.54211277 0.72898203
-3.10581541 26.81675720 1.76860356 -0.40298522 0.57655460 0.70745701
-1.83410740 28.35082054 0.76463604 -0.23797879 0.60953659 0.30586115
-0.83661968 30.36648941 0.62124449 -0.10855293 0.65287304 0.24850327
-2.27101421 28.56428337 1.73251021 -0.29466823 0.61412603 0.69301933
-1.27539659 30.62086105 1.68779814 -0.16548504 0.65834200 0.67513412
-4.89167547 22.01876259 1.06382644 -0.63470381 0.47339872 0.42553994
-4.26394558 23.34510422 0.99326462 -0.55325472 0.50191474 0.39731461
-5.28886604 22.32867622 1.87061071 -0.68624002 0.48006177 0.74826080
-4.68048239 23.67758751 1.85153902 -0.60730112 0.50906307 0.74063194
-2.83196497 26.27560234 0.82945418 -0.36745262 0.56491983 0.33178899
-4.02000904 24.95554924 1.80417955 -0.52160352 0.53653902 0.72168773
-3.24731421 26.57489967 1.75282121 -0.42134494 0.57135469 0.70114392
-1.99103796 28.04364395 0.75523728 -0.25834081 0.60293239 0.30210158
-1.01580083 30.01093483 0.61250091 -0.13180201 0.64522868 0.24500576
-2.42635131 28.27108574 1.71426976 -0.31482351 0.60782230 0.68572301
-1.45135999 30.26524734 1.66710198 -0.18831660 0.65069640 0.66685545
-4.93035364 21.82440948 -0.46989629 -0.63972241 0.46922016 -0.18796265
-3.19329381 25.45827484 -0.07896540 -0.41433570 0.54734749 -0.03158686
-4.99191999 21.82214355 1.05478084 -0.64771074 0.46917143 0.42192164
-4.37321234 23.11956406 0.98364627 -0.56743228 0.49706569 0.39346719
-5.39593840 22.15952682 1.85840034 -0.70013285 0.47642511 0.74337649
-4.78825188 23.44652557 1.83461285 -0.62128443 0.50409532 0.73386133
-2.96638513 25.98720169 0.81950426 -0.38489389 0.55871928 0.32780892
-4.13997889 24.71152306 1.78717005 -0.53716981 0.53129250 0.71488374
-2.14355946 27.72765541 0.74558443 -0.27813074 0.59613866 0.29824033
-1.19125700 29.67232323 0.60420692 -0.15456776 0.63794863 0.24168809
-2.57957125 27.99297142 1.69707167 -0.33470407 0.60184294 0.67884362
-1.62311935 29.91263199 1.64664364 -0.21060270 0.64311522 0.65867198
-5.09034824 21.62708282 1.04584169 -0.66048199 0.46497768 0.41834590
-4.48477936 22.91907310 0.97526586 -0.58190829 0.49275517 0.39011493
-5.49527264 21.96673012 1.84409678 -0.71302164 0.47228003 0.73765498
-4.89494133 23.22285461 1.81834412 -0.63512754 0.49928641 0.72735369
-3.10180855 25.73586464 0.81094438 -0.40246531 0.55331558 0.32438490
-4.26081991 24.48859024 1.77184629 -0.55284917 0.52649945 0.70875412
-3.51041698 26.00603104 1.71533811 -0.45548302 0.55912411 0.68615037
-2.29487872 27.44273949 0.73694772 -0.29776469 0.59001303 0.29478559
-1.36286414 29.34069252 0.59611285 -0.17683411 0.63081867 0.23845039
-2.72505784 27.67036819 1.67700708 -0.35358122 0.59490705 0.67081761
-1.79181838 29.58098793 1.62749374 -0.23249170 0.63598496 0.65101182
-5.18275118 21.41612816 1.03605115 -0.67247140 0.46044219 0.41442961
-4.59124184 22.70438957 0.96621889 -0.59572202 0.48813954 0.38649607
-5.58593225 21.74848747 1.82752550 -0.72478491 0.46758786 0.73102629
-5.00069761 23.00656891 1.80273271 -0.64884961 0.49463633 0.72110897
-3.23119116 25.46006584 0.80150658 -0.41925293 0.54738599 0.32060969
-4.37902403 24.26512146 1.75652242 -0.56818634 0.52169496 0.70262444
-3.63874912 25.73453712 1.69758296 -0.47213432 0.55328709 0.67904812
-2.44107795 27.13910866 0.72773945 -0.31673431 0.58348507 0.29110220
-1.53035164 29.00808907 0.58801877 -0.19856592 0.62366772 0.23521270
-2.86952710 27.37483788 1.65876675 -0.37232637 0.58855319 0.66352129
-1.95707405 29.25837708 1.60893857 -0.25393394 0.62904888 0.64358962
-5.28334808 21.24750328 1.02860188 -0.68552405 0.45681679 0.41144982
-4.69477797 22.48732567 0.95707667 -0.60915601 0.48347270 0.38283911
-5.68476820 21.57042694 1.81461740 -0.73760903 0.46375957 0.72586292
-5.11087322 22.82100677 1.78975058 -0.66314512 0.49064678 0.71591598
-3.36510730 25.24310875 0.79426360 -0.43662882 0.54272145 0.31771243
-4.49458981 24.04114342 1.74119866 -0.58318120 0.51687944 0.69649482
-3.77367520 25.52957535 1.68461895 -0.48964125 0.54888046 0.67386240
-2.58625650 26.86259270 0.71942025 -0.33557150 0.57754004 0.28777444
-1.69476235 28.69251633 0.58037436 -0.21989851 0.61688298 0.23215486
-3.01283312 27.10041428 1.64195943 -0.39092058 0.58265311 0.65679824
-2.11921358 28.94681931 1.59109700 -0.27497181 0.62235045 0.63645279
-4.96431732 21.86064720 0.14745136 -0.64412922 0.46999925 0.05898184
-2.00504971 27.78118515 -0.35961509 -0.26015887 0.59728956 -0.14384921
-5.34102964 21.05592537 1.01944995 -0.69300836 0.45269790 0.40778896
-4.76244545 22.28518486 0.94831538 -0.61793596 0.47912672 0.37933451
-5.73656988 21.35872269 1.79787171 -0.74433041 0.45920798 0.71916455
-5.17227793 22.59455872 1.77266014 -0.67111248 0.48577821 0.70907968
-3.44732475 24.95965958 0.78438681 -0.44729668 0.53662735 0.31376165
-4.56708002 23.80822182 1.72464883 -0.59258693 0.51187170 0.68987471
-3.85919976 25.28270721 1.66827297 -0.50073820 0.54357284 0.66732389
-2.68609142 26.58759689 0.71103752 -0.34852526 0.57162768 0.28442127
-1.80956030 28.36095428 0.57228023 -0.23479375 0.60975450 0.22891714
-3.10765696 26.80443001 1.62345839 -0.40322417 0.57628953 0.64939767
-2.23161197 28.62598801 1.57254183 -0.28955573 0.61545265 0.62903059
-3.78301501 24.26464081 -0.08148972 -0.49085310 0.52168459 -0.03259661
-5.43888092 20.89055824 1.01221347 -0.70570475 0.44914255 0.40489429
-4.86342239 22.07724953 0.93964928 -0.63103795 0.47465616 0.37586799
-5.63239574 20.45999146 1.71955061 -0.73081362 0.43988547 0.68783540
-5.27680779 22.40248871 1.75918508 -0.68467546 0.48164874 0.70368952
-3.57309437 24.72186661 0.77641225 -0.46361551 0.53151488 0.31057173
-4.68190479 23.60499954 1.71101069 -0.60748571 0.50750244 0.68441933
-3.98429799 25.04514503 1.65305424 -0.51696992 0.53846526 0.66123629
-2.82386088 26.29990768 0.70240080 -0.36640111 0.56544238 0.28096652
-1.96598899 28.03587532 0.56443596 -0.25509065 0.60276532 0.22577935
-3.24651313 26.54469681 1.60769343 -0.42124099 0.57070535 0.64309156
-2.38565850 28.30302429 1.55410552 -0.30954355 0.60850900 0.62165588
-5.52710915 20.69585991 1.00338078 -0.71715248 0.44495657 0.40136114
-4.96549797 21.88452148 0.93174511 -0.64428240 0.47051254 0.37270626
-5.68214560 20.14622688 1.69425762 -0.73726875 0.43313959 0.67771798
-5.37352037 22.18675232 1.74373794 -0.69722408 0.47701046 0.69751054
-3.69274926 24.46174622 0.76763290 -0.47914094 0.52592236 0.30705991
-4.78913212 23.37589073 1.69538033 -0.62139863 0.50257665 0.67816705
-4.10364628 24.78930283 1.63656735 -0.53245556 0.53296471 0.65464139
-2.95880437 26.01750565 0.69395459 -0.38391027 0.55937082 0.27758795
-2.11915970 27.71993256 0.55684149 -0.27496484 0.59597266 0.22274150
-2.53841710 28.00909615 1.53745341 -0.32936424 0.60218960 0.61499494
-5.61839962 20.52014351 0.99561220 -0.72899759 0.44117871 0.39825365
-5.06489277 21.68944359 0.92374563 -0.65717906 0.46631843 0.36950639
-5.81360769 20.12734985 1.69582760 -0.75432622 0.43273374 0.67834598
-5.47636509 22.00551796 1.73124886 -0.71056837 0.47311395 0.69251478
-3.81422400 24.23270226 0.76002413 -0.49490252 0.52099794 0.30401635
-4.89573812 23.15612602 1.68051624 -0.63523096 0.49785179 0.67222130
-4.21758270 24.51919174 1.61909401 -0.54723907 0.52715743 0.64765185
-3.09247112 25.75231743 0.68607992 -0.40125376 0.55366933 0.27443802
-2.27089071 27.43307304 0.54999650 -0.29465222 0.58980525 0.22000344
-3.51345944 26.01334190 1.57551205 -0.45587778 0.55928129 0.63021868
-2.68776846 27.71636200 1.52092028 -0.34874287 0.59589589 0.60838151
-2.59123993 26.57143402 -0.35041147 -0.33621812 0.57128018 -0.14016768
-5.70499516 20.33448982 0.98731154 -0.74023354 0.43718719 0.39493331
-5.16621637 21.51147270 0.91660327 -0.67032599 0.46249208 0.36664939
-5.94505692 20.10761642 1.69739747 -0.77138197 0.43230948 0.67897397
-5.56976938 21.79489708 1.71629477 -0.72268772 0.46858564 0.68653303
-3.93650436 24.02480507 0.75322014 -0.51076859 0.51652819 0.30129468
-5.00233173 22.94764137 1.66657162 -0.64906168 0.49336940 0.66664332
-4.33456898 24.28399467 1.60415721 -0.56241822 0.52210069 0.64167702
-3.22267079 25.48450470 0.67814177 -0.41814741 0.54791141 0.27126268
-2.41769361 27.12947845 0.54275179 -0.31370017 0.58327800 0.21710549
-3.64704108 25.78131104 1.56170154 -0.47321025 0.55429268 0.62469435
-2.83456111 27.43279839 1.50498188 -0.36778948 0.58979934 0.60200602
-5.79114103 20.15432167 0.97933018 -0.75141114 0.43331361 0.39174071
-5.25978136 21.30981064 0.90831816 -0.68246621 0.45815638 0.36333528
-6.17487335 20.41112328 1.72862124 -0.80120111 0.43883482 0.69146371
-5.66880751 21.61483383 1.70396996 -0.73553813 0.46471432 0.68160301
-4.04697418 23.76115799 0.74436760 -0.52510226 0.51085985 0.29775360
-5.10518408 22.73290253 1.65216720 -0.66240692 0.48875257 0.66088146
-4.44949055 24.05222702 1.58950222 -0.57732952 0.51711774 0.63581491
-3.35439515 25.25174522 0.67134666 -0.43523890 0.54290712 0.26854458
-2.56718111 26.89281082 0.53720587 -0.33309644 0.57818973 0.21488708
-3.77432489 25.52495003 1.54632735 -0.48972553 0.54878098 0.61854458
-2.97746539 27.14452553 1.48880553 -0.38633156 0.58360153 0.59553534
-5.84949255 20.00224686 0.97241294 -0.75898230 0.43004405 0.38897374
-5.32077169 21.12783432 0.90060443 -0.69037986 0.45424393 0.36024970
-6.25512075 20.33039856 1.72391152 -0.81161332 0.43709925 0.68957978
-5.73110199 21.43957138 1.69131649 -0.74362093 0.46094623 0.67654151
-4.12629700 23.55476952 0.73741728 -0.53539455 0.50642252 0.29497340
-5.17553329 22.54924965 1.63960159 -0.67153490 0.48480406 0.65585506
-4.52721405 23.84280205 1.57597446 -0.58741426 0.51261514 0.63040370
-3.43963361 24.99210548 0.66353554 -0.44629875 0.53732497 0.26542005
-2.66420007 26.58197975 0.52971131 -0.34568483 0.57150692 0.21188919
-3.86216784 25.29580688 1.53238654 -0.50112331 0.54385448 0.61296815
-3.07376933 26.85247803 1.47215343 -0.39882717 0.57732254 0.58887434
-3.72200084 24.24550629 -0.21940906 -0.48293638 0.52127320 -0.08776556
-5.93311739 19.82546616 0.96464443 -0.76983279 0.42624331 0.38586628
-5.41555071 20.94695663 0.89336681 -0.70267761 0.45035511 0.35735461
-6.33656216 20.14439583 1.71048009 -0.82218051 0.43310022 0.68420708
-5.81161451 21.20508766 1.67439032 -0.75406760 0.45590487 0.66977090
-4.23687935 23.32186699 0.72973537 -0.54974282 0.50141519 0.29190058
-5.27617121 22.34359550 1.62596345 -0.68459284 0.48038253 0.65039968
-4.64094687 23.62983894 1.56272852 -0.60217130 0.50803649 0.62510520
-3.56449747 24.74842644 0.65642291 -0.46250004 0.53208590 0.26257494
-3.98383784 25.03849792 1.51701236 -0.51691025 0.53832239 0.60681832
-3.21148467 26.57494545 1.45669079 -0.41669598 0.57135564 0.58268917
-6.15524721 19.41268539 0.23580249 -0.79865456 0.41736859 0.09432307
-6.01592636 19.65225029 0.95708871 -0.78057742 0.42251921 0.38284391
-5.50520611 20.75413704 0.88555783 -0.71431053 0.44620952 0.35423094
-5.91948843 21.07793617 1.66666687 -0.76806444 0.45317113 0.66668141
-4.33991718 23.06297493 0.72110236 -0.56311220 0.49584904 0.28844729
-5.37631941 22.14532471 1.61293817 -0.69758725 0.47611976 0.64518946
-4.75257826 23.41835022 1.54962361 -0.61665571 0.50348955 0.61986309
-3.69211745 24.54172707 0.65051693 -0.47905898 0.52764189 0.26021251
-4.10504866 24.79641533 1.50268066 -0.53263754 0.53311765 0.60108548
-6.31172037 19.48012352 0.23785718 -0.81895721 0.41881850 0.09514496
-6.10577106 19.50736046 0.95112926 -0.79223496 0.41940409 0.38046008
-5.60101366 20.59187698 0.87927252 -0.72674173 0.44272098 0.35171676
-6.00567484 20.87937737 1.65286303 -0.77924728 0.44890216 0.66115975
-4.46610689 22.93910408 0.71751744 -0.57948554 0.49318585 0.28701329
-5.32064724 21.33347511 1.55133641 -0.69036371 0.45866516 0.62054825
-4.70570183 22.45840454 1.48254859 -0.61057341 0.48285091 0.59303248
-3.80825067 24.27714539 0.64276928 -0.49412748 0.52195346 0.25711337
-4.19550323 24.39254761 1.47766519 -0.54437417 0.52443457 0.59107912
-3.47839475 26.02980614 1.42647910 -0.45132807 0.55963528 0.57060421
-6.13675880 19.36343384 -0.43929958 -0.79625565 0.41630971 -0.17572370
-6.47243357 19.55584526 0.24009533 -0.83981007 0.42044652 0.09604025
-6.23615360 19.49333382 0.95251274 -0.80915231 0.41910252 0.38101348
-5.68805170 20.40421486 0.87174928 -0.73803508 0.43868628 0.34870741
-5.90439844 20.04941559 1.58483005 -0.76610649 0.43105817 0.63394600
-4.56500340 22.68522263 0.70910388 -0.59231752 0.48772746 0.28364781
-5.39351463 21.06207085 1.53248811 -0.69981837 0.45283005 0.61300874
-4.80223370 22.22165298 1.46761179 -0.62309855 0.47776079 0.58705765
-3.20027447 25.45711899 0.50328064 -0.41524145 0.54732263 0.20131668
-4.19650316 23.51707840 1.42138040 -0.54450393 0.50561219 0.56856471
-3.49071574 24.92185402 1.36117899 -0.45292673 0.53581452 0.54448360
-6.28920221 19.41958618 -0.44078341 -0.81603545 0.41751698 -0.17631724
-6.63370419 19.62841797 0.24229679 -0.86073524 0.42200682 0.09692085
-6.39647436 19.56952667 0.95900422 -0.82995421 0.42074066 0.38361013
-5.77787399 20.23357010 0.86508304 -0.74968970 0.43501744 0.34604084
-6.67380714 19.49263954 1.66547596 -0.86593866 0.41908759 0.66620505
-5.98783636 19.87065315 1.57266963 -0.77693272 0.42721480 0.62908173
-5.25740337 21.26405907 0.80438977 -0.68215770 0.45717275 0.32176301
-5.48454618 20.87158585 1.52007580 -0.71162987 0.44873464 0.60804373
-4.90634394 22.03132820 1.45605683 -0.63660705 0.47366887 0.58243555
-4.30845070 23.29795456 1.40861201 -0.55902934 0.50090104 0.56345719
-3.61759567 24.69594193 1.34892786 -0.46938965 0.53095752 0.53958303
-6.45015287 19.49736023 -0.44262338 -0.83691913 0.41918910 -0.17705326
-6.79744816 19.70351028 0.24457163 -0.88198131 0.42362127 0.09783080
-4.93824100 21.84865379 -0.08644197 -0.64074576 0.46974140 -0.03457755
-6.52839375 19.65853691 0.96570861 -0.84707099 0.42265436 0.38629195
-5.83703518 20.08139038 0.85889304 -0.75736594 0.43174562 0.34356478
-6.72294331 19.33869362 1.65413773 -0.87231416 0.41577780 0.66166967
-6.04414558 19.72021103 1.56215239 -0.78423893 0.42398033 0.62487471
-5.32860804 21.12476540 0.79931790 -0.69139659 0.45417795 0.31973422
-5.54815435 20.71648407 1.50980878 -0.71988314 0.44540000 0.60393679
-4.97614574 21.85814667 1.44520652 -0.64566398 0.46994549 0.57809532
-4.38417149 23.09899330 1.39675581 -0.56885427 0.49662343 0.55871463
-3.70422602 24.48119736 1.33703351 -0.48063007 0.52634054 0.53482521
-6.58221102 19.58613205 -0.44449300 -0.85405385 0.42109767 -0.17780112
-6.93993950 19.81275368 0.24732345 -0.90046978 0.42596999 0.09893156
-5.92505264 19.91599083 0.85251248 -0.76878637 0.42818955 0.34101251
-6.80290842 19.17969131 1.64332283 -0.88268977 0.41235927 0.65734363
-6.13109159 19.56388474 1.55196393 -0.79552031 0.42061937 0.62079924
-5.42101812 20.93615532 0.79244077 -0.70338696 0.45012289 0.31698328
-5.64218378 20.55048752 1.49938858 -0.73208362 0.44183111 0.59976864
-5.08210754 21.69239426 1.43548346 -0.65941274 0.46638185 0.57420605
-4.49716854 22.90847397 1.38594174 -0.58351582 0.49252731 0.55438894
-3.82733512 24.26217842 1.32525802 -0.49660370 0.52163166 0.53011489
-6.74679518 19.66540718 -0.44639233 -0.87540901 0.42280206 -0.17856087
-7.11556768 19.91182137 0.25011197 -0.92325789 0.42809993 0.10004699
-6.14574575 19.40966225 0.12126094 -0.79742169 0.41730359 0.04850544
-6.86268616 19.82776451 0.97996867 -0.89044607 0.42629272 0.39199612
-6.00600576 19.73307800 0.84527493 -0.77929020 0.42425698 0.33811742
-6.27874470 19.60282707 1.55870152 -0.81467855 0.42145661 0.62349433
-5.50766611 20.73371124 0.78496194 -0.71462971 0.44577038 0.31399170
-4.94555092 21.89279747 0.68364376 -0.64169425 0.47069049 0.27346352
-5.73380566 20.38221550 1.48881519 -0.74397177 0.43821329 0.59553921
-4.33812571 23.12923431 0.60968298 -0.56287974 0.49727362 0.24387856
-4.60157061 22.68616486 1.37304318 -0.59706217 0.48774770 0.54922938
-3.94751787 24.04061699 1.31336367 -0.51219767 0.51686811 0.52535707
-6.90799475 19.73017502 -0.44808388 -0.89632493 0.42419457 -0.17923750
-7.23916292 19.86296272 0.25003859 -0.93929458 0.42704946 0.10001764
-6.30256176 19.47915459 0.12271172 -0.81776887 0.41879767 0.04908577
-6.08134508 19.53849030 0.83746594 -0.78906560 0.42007339 0.33499375
-6.95833683 18.86285782 1.62186742 -0.90285689 0.40554741 0.64876127
-5.81689072 20.19061852 1.47640288 -0.75475216 0.43409398 0.59057415
-5.26831150 21.27815819 1.41011894 -0.68357301 0.45747587 0.56405997
-3.78817630 24.25378036 0.47555086 -0.49152279 0.52145112 0.19022453
-4.70335770 22.46345520 1.36014462 -0.61026925 0.48295951 0.54406983
-4.05671310 23.76930428 1.29849577 -0.52636594 0.51103497 0.51940978
-7.08173990 19.82569313 -0.45027998 -0.91886866 0.42624819 -0.18011595
-6.10732555 19.39330864 -0.55993801 -0.79243660 0.41695201 -0.22398014
-7.32331896 19.70840836 0.24791050 -0.95021397 0.42372659 0.09916639
-6.46111727 19.54933739 0.12418795 -0.83834177 0.42030659 0.04967628
-7.20156956 19.98977661 0.99412233 -0.93441677 0.42977595 0.39765769
-6.19976187 19.48656464 0.83679932 -0.80443043 0.41895700 0.33472711
-7.03944969 18.71996498 1.61262238 -0.91338146 0.40247527 0.64506316
-5.90685129 20.02938271 1.46644235 -0.76642472 0.43062747 0.58658987
-5.36859226 21.11312866 1.40053689 -0.69658464 0.45392776 0.56022710
-4.80802870 22.26572418 1.34893978 -0.62385046 0.47870833 0.53958780
-4.17374706 23.56049538 1.28743398 -0.54155129 0.50654560 0.51498497
-7.22675753 19.83715630 -0.45117027 -0.93768495 0.42649463 -0.18047208
-6.24615526 19.40786552 -0.56110024 -0.81045002 0.41726497 -0.22444504
-7.40653038 19.55545235 0.24581912 -0.96101081 0.42043805 0.09832981
-6.62909174 19.64293480 0.12599507 -0.86013675 0.42231891 0.05039914
-6.35778904 19.55745316 0.84232271 -0.82493472 0.42048109 0.33693650
-7.11403894 18.56378365 1.60215628 -0.92305952 0.39911738 0.64087665
-5.98981476 19.85064316 1.45510268 -0.77718937 0.42678460 0.58205390
-5.45445871 20.89941025 1.38743186 -0.70772594 0.44933286 0.55498499
-4.90822601 22.05783272 1.33708346 -0.63685125 0.47423869 0.53484517
-4.28508806 23.33348465 1.27530181 -0.55599797 0.50166494 0.51013196
-7.31425476 19.69203758 -0.44959739 -0.94903791 0.42337462 -0.17984292
-6.40657806 19.48604584 -0.56367373 -0.83126521 0.41894585 -0.22547446
-7.48883247 19.40410042 0.24376443 -0.97168970 0.41718403 0.09750792
-6.79135084 19.71438026 0.12752220 -0.88119018 0.42385498 0.05101001
-4.85103178 21.87613869 -0.21235327 -0.62943023 0.47033232 -0.08494318
-7.34610128 19.70921707 0.98273557 -0.95317006 0.42374396 0.39310288
-6.48673630 19.63923073 0.84794140 -0.84166586 0.42223927 0.33918405
-7.15512800 18.41124725 1.59099257 -0.92839092 0.39583790 0.63641107
-6.71346283 19.37598419 1.55229259 -0.87108403 0.41657954 0.62093073
-6.03927326 19.67926216 1.44360983 -0.78360671 0.42309994 0.57745665
-5.51506424 20.73077011 1.37700427 -0.71558964 0.44570714 0.55081385
-4.97300816 21.86324120 1.32561803 -0.64525688 0.47005501 0.53025889
-4.35891533 23.12073517 1.26364529 -0.56557721 0.49709088 0.50546926
-7.36455297 19.54511261 -0.44781679 -0.95556420 0.42021576 -0.17913066
-6.53622818 19.56947136 -0.56616420 -0.84808755 0.42073947 -0.22647066
-7.54512024 19.27924538 0.24200326 -0.97899312 0.41449967 0.09680343
-6.92894888 19.81056595 0.12925296 -0.89904374 0.42592296 0.05170232
-7.42215061 19.53762817 0.97560555 -0.96303755 0.42005485 0.39025080
-6.61446095 19.61134148 0.84860802 -0.85823840 0.42163965 0.33945069
-7.22287464 18.24556351 1.57965434 -0.93718117 0.39227572 0.63187563
-6.79267120 19.21310425 1.54177547 -0.88136148 0.41307765 0.61672378
-6.12327528 19.51539040 1.43349612 -0.79450613 0.41957673 0.57341111
-5.60597134 20.55131721 1.36643577 -0.72738498 0.44184893 0.54658633
-5.07374954 21.67613983 1.31519496 -0.65832824 0.46603239 0.52608955
-4.46681118 22.90082359 1.25198877 -0.57957691 0.49236283 0.50080651
-7.44481039 19.38834953 -0.44606587 -0.96597773 0.41684538 -0.17843027
-6.69702291 19.63971519 -0.56861311 -0.86895096 0.42224970 -0.22745025
-7.09551144 19.88534164 0.13085645 -0.92065555 0.42753062 0.05234373
-6.14084387 19.42079544 0.04496709 -0.79678571 0.41754296 0.01798723
-6.86875057 19.04624939 1.53092957 -0.89123291 0.40949032 0.61238533
-5.46548462 20.68321228 0.64516091 -0.70915657 0.44468465 0.25807005
-6.27509165 19.56764984 1.44085157 -0.81420457 0.42070031 0.57635331
-5.70822382 20.41959572 1.35939002 -0.74065244 0.43901697 0.54376799
-4.93748808 21.92602348 0.57608867 -0.64064807 0.47140482 0.23044054
-5.17140007 21.48476028 1.30451119 -0.67099857 0.46191776 0.52181596
-4.57565260 22.69809532 1.24140286 -0.59369928 0.48800421 0.49657208
-7.53069401 19.24996948 -0.44461173 -0.97712129 0.41387025 -0.17784861
-6.86092377 19.71437454 -0.57118660 -0.89021736 0.42385486 -0.22847967
-7.23804855 19.88924408 0.13151821 -0.93914998 0.42761451 0.05260845
-5.51855612 20.61811829 -0.80423641 -0.71604270 0.44328514 -0.32170165
-6.29235363 19.47314453 0.04582870 -0.81644434 0.41866845 0.01833189
-7.43489218 18.11282921 1.57581675 -0.96469080 0.38942197 0.63034058
-6.98073816 18.98213005 1.52912199 -0.90576351 0.40811175 0.61166227
-6.08845711 19.54324341 0.74266768 -0.78998840 0.42017558 0.29707360
-6.43901491 19.65286446 1.45096529 -0.83547395 0.42253241 0.58039892
-5.78605604 20.20682716 1.34642601 -0.75075132 0.43444249 0.53858227
-5.26973343 21.30463791 1.29460931 -0.68375754 0.45804518 0.51785511
-4.68171883 22.49295425 1.23069787 -0.60746157 0.48359373 0.49228999
-7.02869415 19.79528427 -0.57392609 -0.91198587 0.42559439 -0.22957550
-7.32123899 19.73083878 0.12999108 -0.94994414 0.42420882 0.05199758
-6.45293617 19.54903221 0.04692367 -0.83728021 0.42030004 0.01876988
-7.11242914 18.97150230 1.53207994 -0.92285067 0.40788326 0.61284548
-6.20018244 19.47034264 0.74112028 -0.80448496 0.41860822 0.29645464
-5.87095070 20.02644730 1.33585739 -0.76176655 0.43056434 0.53435475
-5.36107731 21.10479546 1.28340447 -0.69560957 0.45374861 0.51337308
-4.78372002 22.27957344 1.21951723 -0.62069643 0.47900608 0.48781765
-7.19910860 19.87862206 -0.57674861 -0.93409747 0.42738613 -0.23070453
-7.40696049 19.58340454 0.12861666 -0.96106660 0.42103902 0.05144780
-6.61471987 19.62366867 0.04801865 -0.85827196 0.42190468 0.01920788
-7.21235037 18.96573257 1.53454483 -0.93581563 0.40775922 0.61383146
-6.33074570 19.56063652 0.74653602 -0.82142580 0.42054951 0.29862100
-5.92717552 19.87043190 1.32641625 -0.76906186 0.42721006 0.53057820
-5.42129374 20.92863846 1.27324188 -0.70342273 0.44996127 0.50930798
-4.85154486 22.08710098 1.20916915 -0.62949681 0.47486797 0.48367831
-7.26105976 19.75811005 -0.57483929 -0.94213575 0.42479515 -0.22994079
-7.45486546 19.43247604 0.12703861 -0.96728241 0.41779411 0.05081657
-6.75064325 19.71900749 0.04922131 -0.87590826 0.42395446 0.01968896
-7.18267965 18.53516579 1.50052834 -0.93196577 0.39850211 0.60022455
-6.49189711 19.63616371 0.75177985 -0.84233546 0.42217335 0.30071858
-6.01244020 19.70300484 1.31683409 -0.78012508 0.42361042 0.52674526
-5.51616240 20.75725174 1.26399136 -0.71573216 0.44627649 0.50560766
-4.95336533 21.89258194 1.19917786 -0.64270818 0.47068584 0.47968170
-7.33887863 19.58847046 -0.57209975 -0.95223290 0.42114794 -0.22884494
-7.53251743 19.27158928 0.12548602 -0.97735786 0.41433507 0.05019551
-6.91607952 19.79510689 0.05035219 -0.89737391 0.42559057 0.02014132
-7.41433716 19.61385918 0.86155951 -0.96202379 0.42169380 0.34463140
-6.60360813 19.56092072 0.75023246 -0.85683018 0.42055562 0.30009958
-6.09761333 19.54100990 1.30767465 -0.79117644 0.42012754 0.52308136
-5.60540676 20.57202911 1.25382888 -0.72731173 0.44229424 0.50154263
-5.05699348 21.71516418 1.19025707 -0.65615416 0.46687141 0.47611332
-7.42125797 19.43545532 -0.56973386 -0.96292174 0.41785815 -0.22789857
-6.12131071 19.40100479 -0.09116016 -0.79425120 0.41711748 -0.03646487
-6.22510672 19.51752281 1.30880201 -0.80771893 0.41962257 0.52353233
-4.91053343 21.85769653 0.42194000 -0.63715065 0.46993580 0.16877972
-5.70116043 20.41725922 1.24575090 -0.73973596 0.43896672 0.49831134
-5.14422846 21.47711182 1.17764902 -0.66747302 0.46175334 0.47106999
-7.50200558 19.28218269 -0.56736791 -0.97339892 0.41456282 -0.22695217
-7.23142290 19.89076996 0.05211132 -0.93829030 0.42764732 0.02084499
-6.27184629 19.45165443 -0.09094444 -0.81378347 0.41820642 -0.03637858
-7.70702076 18.82832146 1.53898180 -1.00000000 0.40480489 0.61560631
-6.05123281 19.50677109 0.60967773 -0.78515851 0.41939142 0.24387647
-6.38397551 19.58997345 1.31711590 -0.82833248 0.42118025 0.52685797
-5.78472948 20.22565269 1.23519754 -0.75057918 0.43484724 0.49408990
-5.24246120 21.29506111 1.16849041 -0.68021888 0.45783928 0.46740645
-6.09313107 19.42305946 -0.77340752 -0.79059488 0.41759163 -0.30936983
-7.31792593 19.74184036 0.05112405 -0.94951421 0.42444536 0.02045007
-6.42949724 19.52017593 -0.09068283 -0.83423901 0.41967961 -0.03627393
-7.30502272 18.21685410 2.14589047 -0.94784003 0.39165848 0.85837507
-6.14296198 19.37117004 0.60594648 -0.79706055 0.41647604 0.24238393
-6.54148579 19.65362167 1.32486618 -0.84876972 0.42254868 0.52995813
-5.87005663 20.04721451 1.22555614 -0.76165056 0.43101084 0.49023324
-5.33812380 21.11069489 1.15921283 -0.69263130 0.45387545 0.46369535
-6.21261501 19.37677574 -0.77315789 -0.80609810 0.41659656 -0.30926996
-7.40709639 19.60383415 0.05024448 -0.96108425 0.42147827 0.02009824
-6.59270525 19.60075378 -0.09038909 -0.85541552 0.42141202 -0.03615643
-7.38929367 18.17854500 2.14542794 -0.95877433 0.39083484 0.85819006
-6.39616537 20.02050781 2.08115125 -0.82991409 0.43043664 0.83247882
-5.31788874 22.16917801 1.98117495 -0.69000578 0.47663260 0.79248744
-6.28979969 19.51517296 0.61260414 -0.81611300 0.41957206 0.24504705
-7.45011044 19.56991386 1.47088623 -0.96666539 0.42074898 0.58836746
-6.61746407 19.57342148 1.32120240 -0.85862803 0.42082438 0.52849263
-5.92158270 19.87592125 1.21578455 -0.76833618 0.42732808 0.48632452
