12.60126400 -17.98747444 1.78444016 0.49614760 -0.77433670 0.48854655
11.84920788 -18.66813660 0.91603190 0.46653700 -0.80363828 0.25079250
12.85608578 -18.10763550 1.80589569 0.50618064 -0.77950943 0.49442068
12.55692577 -17.97725296 1.03041101 0.49440187 -0.77389663 0.28210738
11.91336823 -18.51095390 0.91136557 0.46906319 -0.79687178 0.24951497
13.11756897 -18.23176193 1.82804883 0.51647598 -0.78485292 0.50048578
12.80712605 -18.09185410 1.04307485 0.50425297 -0.77883011 0.28557453
11.99237537 -18.37881660 0.90812767 0.47217393 -0.79118341 0.24862848
13.38346481 -18.35652733 1.85055077 0.52694505 -0.79022390 0.50664639
13.08256912 -18.23644829 1.05786705 0.51509798 -0.78505468 0.28962433
13.66803455 -18.50108147 1.87549496 0.53814942 -0.79644680 0.51347566
13.31853771 -18.38146973 1.07148862 0.52438873 -0.79129767 0.29335368
13.73478889 -18.40933800 1.87252951 0.54077768 -0.79249734 0.51266378
13.59707546 -18.51944160 1.08617437 0.53535551 -0.79723716 0.29737437
13.82733250 -18.29249954 1.86921525 0.54442137 -0.78746760 0.51175642
12.56251907 -17.97672272 1.66978908 0.49462211 -0.77387381 0.45715722
13.74181080 -18.47207451 1.08872831 0.54105419 -0.79519808 0.29807359
12.30347252 -17.91814423 0.89812839 0.48442271 -0.77135211 0.24589087
13.89105701 -18.13886833 1.86188900 0.54693043 -0.78085399 0.50975060
12.80867863 -18.08624840 1.68885148 0.50431412 -0.77858877 0.46237615
13.81668282 -18.33117867 1.08511019 0.54400212 -0.78913271 0.29708302
12.50128269 -17.96354675 0.90527076 0.49221104 -0.77330661 0.24784632
13.97785282 -18.01662254 1.85805154 0.55034781 -0.77559149 0.50870001
13.06250763 -18.20148468 1.70873547 0.51430809 -0.78354955 0.46782002
13.47737122 -17.74947739 -0.46859050 0.53064245 -0.76409125 -0.12829137
13.88668823 -18.18531418 1.08117259 0.54675841 -0.78285342 0.29600498
12.76109123 -18.09374619 0.91746038 0.50244045 -0.77891153 0.25118360
14.03531265 -17.85799980 1.85020196 0.55261016 -0.76876295 0.50655091
13.32999420 -18.33036804 1.73026288 0.52483976 -0.78909779 0.47371382
12.78780460 -16.62538528 -0.44912258 0.50349224 -0.71570057 -0.12296142
14.26248455 -18.06007195 0.28438133 0.56155455 -0.77746189 0.07785832
13.96397209 -18.05034637 1.07798004 0.54980129 -0.77704322 0.29513091
13.01258087 -18.20674515 0.92879289 0.51234233 -0.78377599 0.25428623
14.13233185 -17.75077057 1.84810877 0.55643010 -0.76414692 0.50597787
13.61614323 -18.47908020 1.75409079 0.53610629 -0.79549962 0.48023745
13.04092598 -16.73543358 -0.45271346 0.51345831 -0.72043800 -0.12394454
14.31565094 -17.89520264 0.28262016 0.56364787 -0.77036452 0.07737615
14.00948906 -17.93401337 1.07457471 0.55159342 -0.77203524 0.29419860
13.25238228 -18.35917664 0.94136345 0.52178395 -0.79033798 0.25772783
14.16583538 -17.62190819 1.84113133 0.55774921 -0.75859952 0.50406754
13.73040771 -18.45151329 1.75787044 0.54060519 -0.79431295 0.48127228
13.29050446 -16.89051247 -0.45680884 0.52328497 -0.72711396 -0.12506577
14.35202122 -17.76847267 0.28122589 0.56507987 -0.76490897 0.07699443
14.03974247 -17.81118774 2.62908649 0.55278456 -0.76674777 0.71979505
14.09335709 -17.80964088 1.07212710 0.55489552 -0.76668119 0.29352850
13.52414131 -18.49014282 0.95402926 0.53248388 -0.79597586 0.26119548
14.24856949 -17.49859047 1.83729386 0.56100672 -0.75329089 0.50301695
13.82209969 -18.33302689 1.75458384 0.54421538 -0.78921223 0.48037246
12.59847641 -18.00983620 1.55072343 0.49603784 -0.77529931 0.42455927
14.24622250 -17.87080765 -0.47701868 0.56091428 -0.76931435 -0.13059886
14.40380192 -17.60525894 0.27950144 0.56711864 -0.75788283 0.07652230
14.04844284 -17.59395027 2.60897589 0.55312717 -0.75739598 0.71428913
14.15495872 -17.65845108 1.06787038 0.55732095 -0.76017267 0.29236308
13.80519104 -18.62804604 0.96726644 0.54354966 -0.80191243 0.26481959
14.31762314 -17.35956955 1.83171189 0.56372553 -0.74730623 0.50148869
13.89471722 -18.19034195 1.74883223 0.54707456 -0.78306985 0.47879776
12.83841324 -18.10915184 1.56757963 0.50548482 -0.77957475 0.42917418
14.37960720 -17.80737305 -0.47752318 0.56616604 -0.76658356 -0.13073698
14.43621826 -17.42055893 0.27726328 0.56839496 -0.74993175 0.07590953
14.17995930 -17.53155708 2.61309505 0.55830532 -0.75471002 0.71541685
14.23160172 -17.52733421 1.06499708 0.56033862 -0.75452828 0.29157642
13.85606480 -18.45301628 0.96202868 0.54555267 -0.79437762 0.26338559
14.40723228 -17.24634933 1.82909536 0.56725371 -0.74243224 0.50077236
13.96487045 -18.04589081 1.74291635 0.54983664 -0.77685142 0.47717813
12.51801300 -17.97254372 0.80430382 0.49286976 -0.77369392 0.22020344
13.10338974 -18.23852539 1.58750057 0.51591772 -0.78514409 0.43462816
14.41009045 -17.61767769 -0.47562388 0.56736624 -0.75841743 -0.13021699
14.80921459 -17.64326096 0.28478491 0.58308089 -0.75951874 0.07796882
14.25960350 -17.40528679 2.60727978 0.56144112 -0.74927425 0.71382475
14.32747746 -17.42061424 1.06382644 0.56411356 -0.74993414 0.29125592
14.57581043 -19.16109467 1.00964439 0.57389110 -0.82485944 0.27642187
14.72658920 -17.40473747 1.85770261 0.57982767 -0.74925065 0.50860447
14.04235744 -17.91226959 1.73815072 0.55288756 -0.77109921 0.47587338
12.76799393 -18.08766747 0.81453353 0.50271225 -0.77864987 0.22300415
13.38224411 -18.38138771 1.60895395 0.52689701 -0.79129410 0.44050169
14.42471218 -17.41137886 -0.47339812 0.56794196 -0.74953651 -0.12960760
15.13241005 -17.79953384 0.29080224 0.59580600 -0.76624608 0.07961625
14.24645042 -18.06314468 0.15493433 0.56092328 -0.77759421 0.04241814
14.33949184 -17.28023529 2.60170698 0.56458658 -0.74389100 0.71229905
14.39698124 -17.28271484 1.06052744 0.56685007 -0.74399775 0.29035270
15.04979515 -17.56129646 1.88648427 0.59255326 -0.75599027 0.51648432
14.11624146 -17.77526283 1.73305643 0.55579656 -0.76520127 0.47447866
13.02922249 -18.21334457 0.82545096 0.51299757 -0.78406006 0.22599314
13.64918232 -18.50221062 1.62856841 0.53740710 -0.79649538 0.44587177
14.83622932 -17.68013000 -0.48037216 0.58414453 -0.76110590 -0.13151698
12.96949482 -16.70933342 -0.57695615 0.51064587 -0.71931440 -0.15795988
15.45684052 -17.95091820 0.29678288 0.60857975 -0.77276295 0.08125364
14.31228065 -17.91386223 0.15396714 0.56351519 -0.77116776 0.04215334
14.52066994 -17.27635765 2.61551785 0.57172006 -0.74372405 0.71608019
14.66386795 -17.37952423 1.07361698 0.57735819 -0.74816525 0.29393637
14.07738018 -18.02942848 0.95241034 0.55426651 -0.77614272 0.26075226
15.38861370 -17.72950554 1.91701031 0.60589349 -0.76323146 0.52484179
14.17772865 -17.62405014 1.72648323 0.55821747 -0.75869173 0.47267902
13.30896759 -18.35907936 0.83757186 0.52401191 -0.79033375 0.22931162
13.78428936 -18.44162560 1.63102031 0.54272670 -0.79388726 0.44654307
15.14407921 -17.81800270 -0.48488301 0.59626544 -0.76704115 -0.13275196
13.25445366 -16.85717773 -0.58301628 0.52186555 -0.72567892 -0.15961902
15.82717514 -18.14861488 0.30397430 0.62316090 -0.78127354 0.08322252
14.38056850 -17.76913452 0.15307631 0.56620389 -0.76493746 0.04190945
14.82823277 -17.47395134 2.65816212 0.58382970 -0.75223023 0.72775543
14.93877411 -17.53658676 1.08947325 0.58818203 -0.75492656 0.29827753
14.33020782 -18.17639542 0.96536183 0.56422102 -0.78246945 0.26429814
15.68885994 -17.90385246 1.94579196 0.61771506 -0.77073687 0.53272170
14.23928261 -17.53072166 1.72368956 0.56064105 -0.75467408 0.47191417
13.54188061 -18.49594498 0.84823138 0.53318232 -0.79622567 0.23222999
13.84097004 -18.33670044 1.62718928 0.54495835 -0.78937042 0.44549420
12.49223614 -17.92284775 1.40490520 0.49185488 -0.77155459 0.38463694
13.49890709 -17.00296783 -0.58853680 0.53149039 -0.73195499 -0.16113044
16.17044067 -18.36627960 0.31112903 0.63667625 -0.79064375 0.08518135
14.40979099 -17.63453293 0.15198186 0.56735444 -0.75914299 0.04160981
15.14628029 -17.62265587 2.69717193 0.59635210 -0.75863171 0.73843557
15.27851391 -17.70831490 1.10820293 0.60155857 -0.76231921 0.30340537
14.64960480 -18.34374428 0.98107499 0.57679659 -0.78967363 0.26860011
16.04990578 -18.08486557 1.97858560 0.63193041 -0.77852923 0.54170001
14.31625938 -17.40085793 1.71941698 0.56367183 -0.74908364 0.47074443
13.82827187 -18.63982582 0.86052424 0.54445839 -0.80241954 0.23559555
13.88799477 -18.16072845 1.61860800 0.54680985 -0.78179502 0.44314480
12.74484253 -18.04293251 1.42209661 0.50180072 -0.77672410 0.38934362
16.51996040 -18.52680397 0.31758663 0.65043783 -0.79755408 0.08694932
14.47445297 -17.48814392 0.15106559 0.56990039 -0.75284117 0.04135895
15.47982216 -17.78300667 2.73860478 0.60948461 -0.76553464 0.74977911
14.19960308 -17.51424599 2.48582482 0.55907875 -0.75396484 0.68057263
15.61967754 -17.87495232 1.12682617 0.61499113 -0.76949275 0.30850407
15.95314503 -19.72320557 1.07125926 0.62812066 -0.84905756 0.29329088
16.43516541 -18.28572845 2.01417017 0.64709920 -0.78717613 0.55144238
14.38197041 -17.25846291 1.71382976 0.56625909 -0.74295372 0.46921474
13.91025829 -18.50628281 0.85803127 0.54768640 -0.79667068 0.23491302
13.96759224 -18.02900124 1.61431730 0.54994380 -0.77612436 0.44197008
13.00060558 -18.16216469 1.43942904 0.51187080 -0.78185683 0.39408892
14.30941963 -17.56739616 -0.60821146 0.56340253 -0.75625288 -0.16651700
16.89492989 -18.70886230 0.32466799 0.66520143 -0.80539149 0.08888806
14.76115513 -17.60850525 0.15457800 0.58118868 -0.75802255 0.04232058
15.83305168 -17.95919800 2.78318739 0.62339228 -0.77311939 0.76198500
14.27914238 -17.38780975 2.48027492 0.56221044 -0.74852192 0.67905319
15.97545338 -18.05144119 1.14640713 0.62899905 -0.77709037 0.31386498
15.28243828 -18.65148735 1.01145387 0.60171306 -0.80292153 0.27691728
16.80612183 -18.46331406 2.04748726 0.66170484 -0.79482096 0.56056398
14.66735077 -17.37812042 1.73650742 0.57749534 -0.74810481 0.47542346
13.99111366 -18.37244797 0.85553837 0.55086994 -0.79090929 0.23423050
14.04361820 -17.89385796 1.60972011 0.55293721 -0.77030659 0.44071147
13.27474403 -18.30151367 1.45873427 0.52266443 -0.78785563 0.39937434
14.48561478 -17.55740547 -0.61036986 0.57033986 -0.75582278 -0.16710792
17.30659676 -18.92379189 0.33266664 0.68140996 -0.81464392 0.09107795
15.10036278 -17.78544426 0.15908305 0.59454423 -0.76563954 0.04355399
16.19968414 -18.14347839 2.82970834 0.63782763 -0.78105247 0.77472156
14.34369564 -17.24425316 2.47218108 0.56475210 -0.74234200 0.67683727
12.81173706 -18.05797768 2.19983649 0.50443453 -0.77737176 0.60227436
16.37141037 -18.26576614 1.16896784 0.64458901 -0.78631675 0.32004169
14.41284561 -17.36441422 0.93774468 0.56747472 -0.74751478 0.25673708
17.20427704 -18.66329575 2.08394408 0.67738134 -0.80342990 0.57054520
14.99102211 -17.53732109 1.76378632 0.59023917 -0.75495815 0.48289192
14.06472874 -18.23042488 0.85261554 0.55376840 -0.78479534 0.23343030
12.97192192 -18.18621635 0.67976624 0.51074147 -0.78289223 0.18610737
14.12346935 -17.76471138 1.60573602 0.55608118 -0.76474702 0.43962070
13.56058025 -18.45099258 1.47916675 0.53391862 -0.79429054 0.40496838
14.70579624 -17.59809685 -0.61393952 0.57900900 -0.75757450 -0.16808523
15.35900307 -17.86168861 0.16195917 0.60472763 -0.76892179 0.04434141
14.29125023 -17.89385223 0.06769220 0.56268716 -0.77030635 0.01853287
16.54842758 -18.35869598 2.87768316 0.65155864 -0.79031730 0.78785616
14.54093170 -17.31501007 2.49322462 0.57251781 -0.74538797 0.68259859
13.93349552 -17.97901154 2.41948009 0.54860133 -0.77397239 0.66240871
13.05867386 -18.22389030 2.22924542 0.51415712 -0.78451407 0.61032599
16.71213341 -18.46957970 1.18918741 0.65800422 -0.79509068 0.32557741
16.16208076 -19.28985977 1.06164086 0.63634706 -0.83040261 0.29065755
17.58138466 -18.89245224 2.12109852 0.69222909 -0.81329477 0.58071738
15.29205513 -17.72018814 1.79139388 0.60209167 -0.76283038 0.49045035
14.09147072 -18.08833504 0.84848928 0.55482125 -0.77867860 0.23230061
14.16203594 -17.64201736 1.60021937 0.55759960 -0.75946522 0.43811032
13.73169804 -18.50070000 1.48917162 0.54065603 -0.79643035 0.40770751
15.01139355 -17.79319572 -0.62112033 0.59104127 -0.76597327 -0.17005120
15.76256943 -18.15787125 0.16816953 0.62061721 -0.78167206 0.04604169
14.34776497 -17.79208374 0.06729729 0.56491232 -0.76592535 0.01842475
16.93004227 -18.54591751 2.92590022 0.66658390 -0.79837692 0.80105710
14.86544132 -17.47772408 2.53207445 0.58529472 -0.75239259 0.69323492
13.31297874 -18.33473778 2.25445294 0.52416980 -0.78928590 0.61722732
17.09389305 -18.65406799 1.21015179 0.67303520 -0.80303264 0.33131707
16.24809647 -19.14677429 1.05906963 0.63973379 -0.82424301 0.28995359
18.00608253 -19.10616493 2.16017175 0.70895070 -0.82249480 0.59141487
15.61537647 -17.86707306 1.81801546 0.61482179 -0.76915354 0.49773887
14.17386246 -17.96025276 0.84634018 0.55806530 -0.77316481 0.23171222
14.23230171 -17.50321198 1.59531569 0.56036621 -0.75348985 0.43676779
13.81173992 -18.36619186 1.48494422 0.54380751 -0.79063994 0.40655014
12.51434898 -17.96347427 1.29109144 0.49272552 -0.77330351 0.35347685
15.35906315 -17.97540665 -0.62867475 0.60473001 -0.77381718 -0.17211947
16.13490486 -18.35307121 0.17315818 0.63527709 -0.79007512 0.04740749
14.41114330 -17.64276886 0.06661518 0.56740767 -0.75949758 0.01823800
17.31600189 -18.73051643 2.97435975 0.68178022 -0.80632365 0.81432444
15.20680904 -17.65360451 2.57346773 0.59873533 -0.75996405 0.70456767
13.59979534 -18.48478127 2.28512192 0.53546262 -0.79574507 0.62562394
17.50037766 -18.85788155 1.23281896 0.68903965 -0.81180656 0.33752292
18.69931412 -21.76115799 1.22972441 0.73624516 -0.93678868 0.33667570
18.41762543 -19.29798889 2.19715190 0.72515428 -0.83075255 0.60153937
15.97281361 -18.04643250 1.84858096 0.62889510 -0.77687472 0.50610715
14.26269722 -17.84120941 0.84470689 0.56156296 -0.76804018 0.23126505
13.76616573 -18.61219597 0.70946968 0.54201311 -0.80123013 0.19423962
14.31788158 -17.38421822 1.59240425 0.56373572 -0.74836731 0.43597069
13.86648178 -18.19964790 1.47789848 0.54596281 -0.78347045 0.40462115
12.76989079 -18.08652115 1.30724728 0.50278693 -0.77860051 0.35790002
14.45917416 -17.47642517 0.06573562 0.56929880 -0.75233668 0.01799719
17.71444511 -18.92112160 3.02451515 0.69746810 -0.81452894 0.82805604
15.52748013 -17.79890633 2.61069870 0.61136103 -0.76621908 0.71476078
13.72160625 -18.40694427 2.28617239 0.54025865 -0.79239428 0.62591153
17.94019890 -19.08930588 1.25782728 0.70635664 -0.82176906 0.34436974
18.77801514 -21.57688904 1.22553420 0.73934388 -0.92885619 0.33552849
18.86137962 -19.51544952 2.23779511 0.74262613 -0.84011394 0.61266673
16.35437965 -18.24575996 1.88177586 0.64391845 -0.78545552 0.51519525
14.33423138 -17.70158577 0.84195602 0.56437945 -0.76202953 0.23051192
13.87206173 -18.51092911 0.70881122 0.54618251 -0.79687071 0.19405934
14.39741516 -17.25872231 1.58887970 0.56686717 -0.74296486 0.43500575
13.96107674 -18.08687782 1.47564387 0.54968727 -0.77861589 0.40400389
13.04258251 -18.22814560 1.32509685 0.51352358 -0.78469723 0.36278689
14.76415253 -17.61804962 0.06846406 0.58130670 -0.75843346 0.01874419
18.14329529 -19.13624001 3.07951665 0.71435314 -0.82378948 0.84311444
15.88473511 -17.97960472 2.65394187 0.62542719 -0.77399790 0.72659999
14.23247433 -17.44161606 2.39310408 0.56037301 -0.75083822 0.65518743
12.57306862 -17.96041489 2.06873941 0.49503747 -0.77317178 0.56638241
18.35880470 -19.28991127 1.28092015 0.72283834 -0.83040482 0.35069215
18.12921715 -20.56769753 1.16896677 0.71379882 -0.88541180 0.32004139
16.71765327 -18.41736221 1.91234136 0.65822154 -0.79284275 0.52356356
14.38300991 -17.53552628 0.83774382 0.56629997 -0.75488091 0.22935869
13.95067215 -18.37402534 0.70654327 0.54927766 -0.79097718 0.19343843
14.70269108 -17.40079308 1.61232519 0.57888675 -0.74908084 0.44142470
14.02288723 -17.93274879 1.46972549 0.55212092 -0.77198082 0.40238354
13.30816841 -18.35412979 1.34190416 0.52398044 -0.79012072 0.36738843
17.23243332 -18.87332344 0.18741146 0.67848992 -0.81247127 0.05130978
15.08572483 -17.77328491 0.07138997 0.59396791 -0.76511610 0.01954525
18.57416153 -19.34527206 3.13427567 0.73131758 -0.83278805 0.85810643
16.25677490 -18.16983795 2.69926643 0.64007545 -0.78218716 0.73900902
14.32783794 -17.33500671 2.39064527 0.56412774 -0.74624884 0.65451425
12.80441952 -18.04811859 2.08937502 0.50414640 -0.77694732 0.57203203
18.81807899 -19.52479744 1.30688620 0.74092126 -0.84051639 0.35780117
18.97854805 -21.26167297 1.22058213 0.74723941 -0.91528654 0.33417270
19.77041245 -19.94716072 2.32047701 0.77841735 -0.85869855 0.63530350
17.11606407 -18.62035370 1.94685078 0.67390811 -0.80158126 0.53301156
14.42771339 -17.36648369 0.83335966 0.56806010 -0.74760383 0.22815840
14.03419590 -18.24479103 0.70464104 0.55256623 -0.78541380 0.19291763
15.02848339 -17.56089401 1.63791597 0.59171414 -0.75597298 0.44843096
14.11301136 -17.81611824 1.46718907 0.55566937 -0.76696002 0.40168911
13.57466412 -18.47587967 1.35858107 0.53447312 -0.79536188 0.37195426
17.63283348 -19.07031631 0.19270554 0.69425482 -0.82095158 0.05275920
15.41504192 -17.93122482 0.07438767 0.60693401 -0.77191520 0.02036596
13.48364925 -16.91011429 -0.08821359 0.53088963 -0.72795779 -0.02415124
18.97762489 -19.57946587 3.18903470 0.74720305 -0.84286976 0.87309843
16.60296631 -18.38219833 2.74459100 0.65370601 -0.79132903 0.75141805
11.82427883 -16.12230492 -0.20432656 0.46555549 -0.69404364 -0.05594081
14.39789486 -17.25357437 2.38863349 0.56688607 -0.74274325 0.65396345
15.07189846 -17.53843880 3.23775244 0.59342349 -0.75500631 0.88643646
13.03439713 -18.18963814 2.11441803 0.51320130 -0.78303957 0.57888836
19.20675278 -19.74057770 1.32955337 0.75622445 -0.84980541 0.36400700
16.61444664 -18.43360901 1.04497528 0.65415800 -0.79354215 0.28609481
20.21110344 -20.20000267 2.36338782 0.79576862 -0.86958307 0.64705169
17.49757576 -18.85678101 1.98251057 0.68892932 -0.81175917 0.54277456
14.06735611 -18.11053467 0.70149511 0.55387181 -0.77963424 0.19205633
15.32900906 -17.74168015 1.66350675 0.60354668 -0.76375556 0.45543724
14.14702129 -17.68705177 1.46155250 0.55700845 -0.76140386 0.40014592
13.73301792 -18.50780678 1.36639845 0.54070795 -0.79673630 0.37409452
15.72899914 -18.12250519 0.07752898 0.61929542 -0.78014958 0.02122599
13.71852970 -17.03970528 -0.08764447 0.54013753 -0.73353648 -0.02399543
16.98069763 -18.56504250 2.78991580 0.66857833 -0.79920024 0.76382709
14.71793079 -17.41303444 2.42551517 0.57948679 -0.74960780 0.66406101
15.44320965 -17.74321556 3.29584289 0.60804307 -0.76382166 0.90234053
13.30764198 -18.32622528 2.14166522 0.52395970 -0.78891945 0.58634818
19.83014488 -21.73094940 1.26438868 0.78076917 -0.93548828 0.34616613
20.70373344 -20.43343925 2.40839195 0.81516486 -0.87963217 0.65937299
17.90347099 -19.05318642 2.01718450 0.70491058 -0.82021415 0.55226761
15.13193130 -17.81089211 0.86748731 0.59578717 -0.76673502 0.23750190
14.14383316 -17.97463608 0.69930029 0.55688292 -0.77378398 0.19145542
15.66495609 -17.90143967 1.68971050 0.61677384 -0.77063298 0.46261135
14.21772766 -17.54817581 1.45704329 0.55979240 -0.75542545 0.39891139
13.82982254 -18.39564896 1.36431384 0.54451942 -0.79190803 0.37352377
12.43437099 -17.89036560 1.15992641 0.48957655 -0.77015626 0.31756631
17.52848625 -19.07685852 -0.67566144 0.69014633 -0.82123321 -0.18498355
15.14767361 -17.73231697 -0.71519071 0.59640700 -0.76335251 -0.19580592
16.12141991 -18.34002876 0.08131649 0.63474613 -0.78951365 0.02226295
14.01722813 -17.18894386 -0.08694684 0.55189812 -0.73996103 -0.02380443
19.91544533 -20.03591919 3.30897188 0.78412771 -0.86251950 0.90593505
17.36272240 -18.74531364 2.83547163 0.68361974 -0.80696064 0.77629948
15.04311752 -17.57216072 2.46284389 0.59229034 -0.75645798 0.67428088
15.82029915 -17.94697380 3.35451126 0.62289017 -0.77259320 0.91840285
13.57602692 -18.45047760 2.16771007 0.53452677 -0.79426837 0.59347874
20.17747116 -20.22242165 1.38414598 0.79444444 -0.87054819 0.37895346
20.60848045 -22.30181313 1.30952835 0.81141448 -0.96006316 0.35852453
21.28003693 -20.73928642 2.46316433 0.83785558 -0.89279848 0.67436862
18.32349777 -19.25678444 2.05317283 0.72144824 -0.82897878 0.56212056
15.45488548 -17.96064949 0.88141352 0.60850281 -0.77318192 0.24131465
14.23658085 -17.86038971 0.69812971 0.56053466 -0.76886582 0.19113494
16.01939201 -18.07556343 1.71775317 0.63072902 -0.77812880 0.47028890
14.29230595 -17.41528320 1.45309770 0.56272870 -0.74970460 0.39783114
13.88580894 -18.23064804 1.35792971 0.54672378 -0.78480500 0.37177593
12.69120407 -18.01767731 1.17491341 0.49968880 -0.77563685 0.32166946
14.32766914 -17.85790062 -0.85266393 0.56412107 -0.76875871 -0.23344354
16.49987984 -18.53391838 0.08487066 0.64964718 -0.79786038 0.02323601
14.39339924 -17.42613792 -0.08597842 0.56670904 -0.75017190 -0.02353929
20.41020012 -20.27671814 3.37245369 0.80360764 -0.87288553 0.92331517
17.77211380 -18.94760513 2.88518977 0.69973868 -0.81566900 0.78991133
15.37478733 -17.73238182 2.50084329 0.60534912 -0.76335526 0.68468446
16.09105492 -18.02424049 3.38919187 0.63355058 -0.77591944 0.92789775
13.71193027 -18.39191628 2.17111588 0.53987771 -0.79174733 0.59441119
20.74874687 -20.53465843 1.41745496 0.81693715 -0.88398951 0.38807282
20.69363785 -22.11350441 1.30571914 0.81476736 -0.95195675 0.35748163
21.88109207 -21.05801010 2.52037859 0.86152083 -0.90651911 0.69003284
18.76474190 -19.47451591 2.09129763 0.73882127 -0.83835185 0.57255846
15.80659199 -18.13714790 0.89705890 0.62235045 -0.78077990 0.24559806
14.30085945 -17.71145248 0.69534957 0.56306553 -0.76245433 0.19037379
16.40329170 -18.27558708 1.74886048 0.64584422 -0.78673953 0.47880551
14.37724304 -17.29596710 1.45042026 0.56607294 -0.74456823 0.39709812
13.95692062 -18.64813042 0.60206234 0.54952365 -0.80277705 0.16483349
13.96712303 -18.10040855 1.35441184 0.54992533 -0.77919835 0.37081280
12.96286392 -18.16034508 1.19120860 0.51038480 -0.78177851 0.32613078
19.38733482 -20.00330162 0.21668161 0.76333451 -0.86111534 0.05932340
14.40306759 -17.72250366 -0.85085416 0.56708974 -0.76293004 -0.23294806
14.72694397 -17.60400581 -0.08517522 0.57984167 -0.75782889 -0.02331939
20.91442299 -20.51763344 3.43690467 0.82346028 -0.88325661 0.94096065
18.19292259 -19.15412712 2.93629551 0.71630710 -0.82455951 0.80390316
15.71299267 -17.89359283 2.53951311 0.61866522 -0.77029520 0.69527149
14.17998695 -17.42727089 2.23428679 0.55830640 -0.75022066 0.61170620
13.81521034 -18.28953171 2.16911244 0.54394412 -0.78733987 0.59386271
12.50502300 -17.91798592 1.89304435 0.49235833 -0.77134532 0.51828039
21.22038841 -20.73866653 1.44299543 0.83550704 -0.89277184 0.39506534
21.72472954 -22.92618370 1.36761963 0.85536438 -0.98694152 0.37442884
22.43639755 -21.32197762 2.57148790 0.88338476 -0.91788256 0.70402563
19.18300438 -19.66032600 2.12630010 0.75528944 -0.84635067 0.58214146
16.15052986 -18.29794693 0.91201669 0.63589227 -0.78770208 0.24969323
14.37773418 -17.57944489 0.69337422 0.56609225 -0.75677156 0.18983299
16.77958488 -18.45969200 1.77874196 0.66065997 -0.79466504 0.48698649
14.59729958 -17.33816910 1.46267974 0.57473719 -0.74638498 0.40045455
14.36160755 -18.93891335 0.61717665 0.56545734 -0.81529486 0.16897149
14.03504562 -17.95415878 1.34959114 0.55259967 -0.77290249 0.36949298
13.23564243 -18.29868317 1.20738494 0.52112490 -0.78773379 0.33055955
19.83598137 -20.21102715 0.22256109 0.78099900 -0.87005764 0.06093309
14.45448875 -17.55906677 -0.84792101 0.56911433 -0.75589430 -0.23214503
15.05165958 -17.76461601 -0.08441334 0.59262663 -0.76474291 -0.02311081
21.45671082 -20.78612518 3.50717068 0.84481174 -0.89481485 0.96019816
18.63352966 -19.37329292 2.99017644 0.73365504 -0.83399433 0.81865478
16.07233047 -18.07202148 2.58131218 0.63281333 -0.77797633 0.70671535
14.31826782 -17.37315941 2.23911834 0.56375092 -0.74789125 0.61302900
14.72878456 -17.36494637 3.07073164 0.57991415 -0.74753767 0.84070927
13.86810398 -18.12182808 2.15889478 0.54602671 -0.78012043 0.59106529
12.75631618 -18.03591728 1.91544724 0.50225246 -0.77642208 0.52441388
21.77736664 -21.01654434 1.47460175 0.85743684 -0.90473408 0.40371856
18.79006195 -19.57717896 1.15553904 0.73981816 -0.84277135 0.31636512
23.06855011 -21.64790344 2.63131881 0.90827441 -0.93191326 0.72040617
16.49976730 -18.45810890 0.92714632 0.64964277 -0.79459685 0.25383544
17.16423607 -18.64564323 1.80923641 0.67580479 -0.80266994 0.49533531
14.91543198 -17.49222183 1.48550785 0.58726299 -0.75301671 0.40670446
14.42789459 -18.78018379 0.61444592 0.56806725 -0.80846179 0.16822387
14.12276936 -17.83435059 1.34698546 0.55605358 -0.76774490 0.36877960
13.51538086 -18.44074631 1.22403705 0.53213900 -0.79384941 0.33511859
20.33588982 -20.46215248 0.22930595 0.80068183 -0.88086826 0.06277971
14.65915966 -17.58160019 -0.85253912 0.57717282 -0.75686431 -0.23340937
15.37246037 -17.91423798 -0.08367440 0.60525745 -0.77118397 -0.02290850
22.03332520 -21.07739830 3.58252501 0.86751467 -0.90735376 0.98082876
19.04435539 -19.55348396 3.03850722 0.74983042 -0.84175128 0.83188683
14.25768661 -17.97310638 -0.21412885 0.56136566 -0.77371818 -0.05862450
16.46514130 -18.28057098 2.62825251 0.64827943 -0.78695410 0.71956670
14.38003445 -17.22631645 2.23134589 0.56618285 -0.74156988 0.61090106
15.00003338 -17.46148682 3.10590863 0.59059399 -0.75169361 0.85034007
13.94507313 -17.98718834 2.15288448 0.54905719 -0.77432436 0.58941978
13.01189804 -18.15463066 1.93822050 0.51231545 -0.78153253 0.53064877
22.35022926 -21.29924011 1.50705934 0.87999207 -0.91690373 0.41260484
22.26710510 -22.91516304 1.38514221 0.87671924 -0.98646706 0.37922621
23.66618538 -21.93017006 2.68644023 0.93180501 -0.94406444 0.73549742
20.10898399 -20.09878922 2.20567179 0.79174787 -0.86522597 0.60387194
16.87849236 -18.64419746 0.94399524 0.66455424 -0.80260772 0.25844836
14.82336617 -17.66706085 0.70625061 0.58363807 -0.76054329 0.19335830
17.58998108 -18.86828804 1.84402156 0.69256759 -0.81225455 0.50485885
15.24127865 -17.64899826 1.50889945 0.60009247 -0.75976574 0.41310865
14.12033272 -18.14370537 0.59247303 0.55595767 -0.78106219 0.16220811
14.18578911 -17.68459129 1.34190416 0.55853486 -0.76129794 0.36738843
13.74392128 -18.50783348 1.23533666 0.54113728 -0.79673743 0.33821222
14.97033024 -17.72758293 -0.86227453 0.58942449 -0.76314873 -0.23607475
22.54912376 -21.36770248 3.65254879 0.88782310 -0.91985095 1.00000000
14.29465961 -17.84644508 -0.21387614 0.56282139 -0.76826555 -0.05855532
13.89713001 -18.75614738 -0.32370824 0.54716951 -0.80742705 -0.08862530
16.80805206 -18.48489761 2.67116928 0.66178083 -0.79575008 0.73131651
14.65310955 -17.38666153 2.26285529 0.57693458 -0.74847251 0.61952776
15.31547165 -17.66011810 3.15616155 0.60301369 -0.76024443 0.86409837
13.99038315 -17.87116814 2.14647341 0.55084115 -0.76932985 0.58766454
13.25708008 -18.31425476 1.96358585 0.52196896 -0.78840411 0.53759331
22.95750999 -21.67181969 1.54419935 0.90390247 -0.93294281 0.42277309
22.78586388 -23.22952652 1.41314018 0.89714426 -1.00000000 0.38689151
20.57997131 -20.37711525 2.24938393 0.81029201 -0.87720752 0.61583954
17.23869705 -18.86217690 0.96135998 0.67873651 -0.81199145 0.26320249
15.11809921 -17.84730339 0.71824902 0.59524256 -0.76830250 0.19664323
17.97140694 -19.09572220 1.87681448 0.70758539 -0.82204527 0.51383692
15.54824257 -17.83432007 1.53299570 0.61217850 -0.76774359 0.41970575
15.22458172 -19.37118149 0.64480144 0.59943509 -0.83390343 0.17653465
14.23878860 -17.58035278 1.33877718 0.56062162 -0.75681067 0.36653233
13.79030609 -18.38851929 1.23129261 0.54296356 -0.79160112 0.33710504
15.28431988 -17.92781830 -0.87338293 0.60178715 -0.77176857 -0.23911601
19.95989990 -20.04873657 3.15436220 0.78587800 -0.86307126 0.86360580
14.37244987 -17.71437454 -0.21369660 0.56588423 -0.76258010 -0.05850616
17.19201088 -18.66965294 2.71565080 0.67689836 -0.80370355 0.74349475
14.97490025 -17.54404831 2.29751563 0.58960444 -0.75524777 0.62901711
15.68333340 -17.85689545 3.21116066 0.61749744 -0.76871544 0.87915611
14.06649590 -17.73772812 2.14066339 0.55383795 -0.76358545 0.58607388
13.52246380 -18.43627167 1.98728490 0.53241783 -0.79365683 0.54408169
13.81484985 -18.27423477 2.79868674 0.54392993 -0.78668135 0.76622844
24.90584755 -22.57385826 2.80453229 0.98061407 -0.97177434 0.76782882
21.10637474 -20.63786888 2.29539633 0.83101797 -0.88843262 0.62843686
17.65164566 -19.07147789 0.98001415 0.69499546 -0.82100159 0.26830965
15.46395302 -18.02520943 0.73141807 0.60885978 -0.77596110 0.20024867
18.39532280 -19.30121613 1.91068017 0.72427619 -0.83089149 0.52310872
15.89348221 -18.00118256 1.55793750 0.62577158 -0.77492678 0.42653435
14.29030895 -17.95140457 0.59101242 0.56265008 -0.77278394 0.16180822
14.31221867 -17.44582939 1.33499885 0.56351274 -0.75101960 0.36549789
13.86093426 -18.24265480 1.22689176 0.54574442 -0.78532183 0.33590016
20.46319771 -20.29813766 3.21633673 0.80569428 -0.87380761 0.88057321
14.43897533 -17.56967926 -0.21346384 0.56850350 -0.75635117 -0.05844244
17.58165932 -18.85320663 2.76057935 0.69223994 -0.81160527 0.75579536
15.29274178 -17.69053841 2.33112574 0.60211873 -0.76155400 0.63821894
16.04900360 -18.04381371 3.26504278 0.63189489 -0.77676201 0.89390808
14.14398098 -17.60713959 2.13525414 0.55688876 -0.75796378 0.58459294
13.70447540 -18.44050980 1.99765313 0.53958416 -0.79383922 0.54692030
21.71566200 -20.96899986 2.35044718 0.85500735 -0.90268737 0.64350879
18.07336426 -19.28214836 0.99901217 0.71159977 -0.83007067 0.27351096
15.79691410 -18.18134499 0.74370915 0.62196940 -0.78268254 0.20361374
18.81558800 -19.49495506 1.94377971 0.74082321 -0.83923173 0.53217077
16.25603676 -18.18077278 1.58442926 0.64004642 -0.78265792 0.43378729
14.35885143 -17.80683899 0.58878976 0.56534880 -0.76656055 0.16119970
14.38962841 -17.31721306 1.33174157 0.56656057 -0.74548280 0.36460611
13.94122314 -18.11087608 1.22356129 0.54890561 -0.77964896 0.33498836
15.97903156 -18.27346611 -0.89572448 0.62913990 -0.78664821 -0.24523272
16.78998375 -18.65998840 -0.08024133 0.66106939 -0.80328751 -0.02196858
20.99025917 -20.56146431 3.28154850 0.82644618 -0.88514352 0.89842701
14.66820526 -17.62145805 -0.21408230 0.57752895 -0.75858015 -0.05861176
17.98520660 -19.04413986 2.80729628 0.70812875 -0.81982470 0.76858556
15.61955166 -17.84120750 2.36578608 0.61498618 -0.76804006 0.64770830
16.39114761 -18.19737625 3.31334138 0.64536607 -0.78337270 0.90713131
14.20403576 -17.45622826 2.12724018 0.55925328 -0.75146723 0.58239883
13.79972935 -18.32697678 1.99450564 0.54333460 -0.78895181 0.54605860
14.47942066 -17.28759575 2.91236567 0.57009596 -0.74420786 0.79735160
24.91902161 -22.64879227 1.65625811 0.98113275 -0.97500014 0.45345271
21.10115433 -20.71347809 1.27153099 0.83081245 -0.89168751 0.34812155
22.29965019 -21.26436424 2.40204716 0.87800062 -0.91540241 0.65763587
18.51355934 -19.50419044 1.01895583 0.72893149 -0.83962929 0.27897117
16.16277695 -18.36853409 0.75768298 0.63637447 -0.79074079 0.20743953
19.24458313 -19.68986130 1.97749209 0.75771397 -0.84762216 0.54140061
16.63618279 -18.37278557 1.61247110 0.65501380 -0.79092383 0.44146463
14.44386673 -17.68378067 0.58745611 0.56869608 -0.76126307 0.16083457
14.62551308 -17.37751007 1.34464025 0.57584804 -0.74807853 0.36813751
14.01427269 -17.97093391 1.21963620 0.55178177 -0.77362466 0.33391374
16.42852020 -18.55161095 -0.91151333 0.64683753 -0.79862201 -0.24955541
21.51428604 -20.81204414 3.34560418 0.84707862 -0.89593065 0.91596425
14.99672985 -17.78716660 -0.21520618 0.59046388 -0.76571369 -0.05891945
14.12806797 -18.09809685 -0.32065096 0.55626220 -0.77909881 -0.08778828
18.43307877 -19.27379227 2.86071873 0.72576272 -0.82971096 0.78321165
15.98048687 -18.02420044 2.40548778 0.62919724 -0.77591771 0.65857786
16.77051353 -18.38541412 3.36889887 0.66030282 -0.79146743 0.92234194
14.29189587 -17.34055138 2.12383437 0.56271261 -0.74648750 0.58146638
13.85549259 -18.16227531 1.98543334 0.54553014 -0.78186160 0.54357475
14.70968533 -17.33975029 2.93784404 0.57916212 -0.74645305 0.80432713
21.59641457 -20.93530846 1.29581499 0.85031223 -0.90123701 0.35477006
22.90559196 -21.56961060 2.45561886 0.90185827 -0.92854285 0.67230284
18.95724487 -19.72144890 1.03889942 0.74640065 -0.84898198 0.28443137
16.53027916 -18.55033875 0.77158362 0.65084410 -0.79856724 0.21124525
17.02880287 -18.57102966 1.64149928 0.67047238 -0.79945797 0.44941202
14.51769829 -17.54804420 0.58561444 0.57160306 -0.75541979 0.16033036
14.27660847 -18.60599518 0.44817084 0.56211066 -0.80096316 0.12270085
14.94566441 -17.53265190 1.36587727 0.58845329 -0.75475717 0.37395182
14.09229660 -17.83863068 1.21630573 0.55485380 -0.76792914 0.33300191
16.60342979 -18.51355171 -0.91425925 0.65372425 -0.79698360 -0.25030720
20.33806229 -20.45643997 0.12105851 0.80076736 -0.88062233 0.03314357
22.09969902 -21.11176300 3.41890979 0.87012798 -0.90883315 0.93603396
14.24026299 -18.00740051 -0.32063505 0.56067967 -0.77519447 -0.08778392
18.87208176 -19.48571587 2.91212964 0.74304754 -0.83883399 0.79728699
16.35760498 -18.21816254 2.44729042 0.64404541 -0.78426749 0.67002267
17.12468529 -18.53881836 3.41859341 0.67424756 -0.79807132 0.93594736
14.36992836 -17.21377563 2.11902618 0.56578493 -0.74102998 0.58015001
13.94014168 -18.03701782 1.98098981 0.54886299 -0.77646947 0.54235822
15.03814316 -17.50234604 2.98343658 0.59209448 -0.75345254 0.81680954
14.16233540 -17.78618431 2.77655506 0.55761141 -0.76567143 0.76016921
22.16161919 -21.21531105 1.32447970 0.87256598 -0.91329074 0.36261794
23.53373718 -21.88436317 2.51116276 0.92659014 -0.94209254 0.68750972
19.42809105 -19.95821190 1.06030452 0.76493919 -0.85917431 0.29029167
16.89533997 -18.72229958 0.78519160 0.66521758 -0.80596989 0.21497087
20.21519661 -20.16848564 2.05610323 0.79592979 -0.86822629 0.56292284
17.43812370 -18.77968216 1.67193675 0.68658853 -0.80844015 0.45774522
14.86801243 -17.74278450 0.59748995 0.58539593 -0.76380312 0.16358165
14.16892815 -18.22685623 0.43902752 0.55787098 -0.78464174 0.12019758
15.26311207 -17.67840958 1.38659322 0.60095215 -0.76103187 0.37962347
14.16049099 -17.69513893 1.21214271 0.55753881 -0.76175201 0.33186215
17.00543785 -18.72429466 -0.92755187 0.66955245 -0.80605578 -0.25394648
22.67336082 -21.45694160 3.49499035 0.89271468 -0.92369258 0.95686340
14.29753971 -17.90568924 -0.32028475 0.56293482 -0.77081591 -0.08768801
16.70350647 -18.42845535 2.48825264 0.65766454 -0.79332030 0.68123734
17.45341110 -18.71737289 3.46856713 0.68719041 -0.80575782 0.94962925
14.63832188 -17.36785126 2.14827657 0.57635236 -0.74766272 0.58815819
13.97970390 -17.91300011 1.97413933 0.55042070 -0.77113068 0.54048270
15.34925461 -17.69458389 3.03063869 0.60434383 -0.76172811 0.82973260
14.14542294 -17.59392929 2.75594974 0.55694550 -0.75739509 0.75452781
22.73361206 -21.55908966 1.35552514 0.89508694 -0.92808992 0.37111759
19.85829353 -20.20824242 1.08093584 0.78187752 -0.86993778 0.29594016
17.26578712 -18.95297241 0.80055547 0.67980313 -0.81590009 0.21917722
20.66767883 -20.42598724 2.09471941 0.81374526 -0.87931138 0.57349527
17.81134224 -19.00173187 1.70138764 0.70128322 -0.81799912 0.46580833
14.84547615 -17.54747772 0.59228253 0.58450860 -0.75539541 0.16215596
14.11531830 -17.98204422 0.43338165 0.55576020 -0.77410293 0.11865184
15.57333851 -17.86636162 1.40913320 0.61316663 -0.76912296 0.38579449
14.21739960 -17.59557724 1.20964491 0.55977947 -0.75746602 0.33117831
17.47276115 -19.05830002 -0.94508809 0.68795228 -0.82043427 -0.25874755
23.18632889 -21.66832542 3.55534601 0.91291171 -0.93279237 0.97338766
14.34066296 -17.72991753 -0.31940895 0.56463265 -0.76324922 -0.08744824
19.74569321 -19.94317245 3.01763344 0.77744406 -0.85852689 0.82617199
17.09040451 -18.61934280 2.53068519 0.67289782 -0.80153775 0.69285458
14.96443844 -17.52960396 2.18193460 0.58919251 -0.75462598 0.59737313
14.05743599 -17.78103828 1.96895516 0.55348122 -0.76544988 0.53906333
15.72986126 -17.90428352 3.08588624 0.61932939 -0.77075541 0.84485835
14.24317551 -17.48931122 2.75340581 0.56079435 -0.75289142 0.75383133
23.36118317 -21.87769508 1.38771343 0.91979623 -0.94180548 0.37993017
24.77796364 -22.53962708 2.62323642 0.97557890 -0.97030073 0.71819341
17.66753006 -19.15136337 0.81584620 0.69562089 -0.82444054 0.22336353
21.18833160 -20.67847061 2.13685989 0.83424485 -0.89018047 0.58503252
18.23778915 -19.21380424 1.73295236 0.71807361 -0.82712853 0.47445017
15.46843147 -18.05147934 0.61730361 0.60903615 -0.77709198 0.16900626
14.17830372 -17.83036041 0.43138310 0.55824012 -0.76757312 0.11810468
15.92193890 -18.03577232 1.43245494 0.62689203 -0.77641582 0.39217955
14.28978157 -17.45951653 1.20607662 0.56262934 -0.75160879 0.33020136
14.41379738 -17.59301758 -0.31893128 0.56751221 -0.75735587 -0.08731746
20.23815155 -20.18476486 3.07597351 0.79683357 -0.86892706 0.84214443
17.49929237 -18.82649612 2.57605863 0.68899691 -0.81045544 0.70527697
15.28924751 -17.68342400 2.21499157 0.60198116 -0.76124769 0.60642356
14.14276791 -17.65969658 1.96506703 0.55684102 -0.76022631 0.53799886
16.07545662 -18.06698036 3.13335633 0.63293642 -0.77775931 0.85785472
14.31117058 -17.34893608 2.74501109 0.56347150 -0.74684846 0.75153303
20.86148453 -20.70112610 1.12641084 0.82137597 -0.89115572 0.30839035
18.07107353 -19.34398079 0.83106375 0.71150953 -0.83273244 0.22752981
21.80347633 -21.01231956 2.18865442 0.85846490 -0.90455222 0.59921294
18.67588043 -19.42988968 1.76536250 0.73532254 -0.83643073 0.48332345
15.81893253 -18.22698784 0.62879813 0.62283635 -0.78464741 0.17215325
14.25873470 -17.70196915 0.43013400 0.56140691 -0.76204604 0.11776270
16.28392601 -18.21339035 1.45681894 0.64114445 -0.78406203 0.39884996
14.36483479 -17.32785797 1.20286512 0.56558442 -0.74594110 0.32932213
14.51001835 -17.48516464 -0.31875610 0.57130069 -0.75271291 -0.08726950
20.76558495 -20.45160103 3.13923120 0.81760013 -0.88041401 0.85946316
17.88420677 -19.00024414 2.61723113 0.70415211 -0.81793505 0.71654928
15.62313366 -17.84132385 2.24905038 0.61512721 -0.76804507 0.61574823
14.20457268 -17.51012802 1.95784628 0.55927444 -0.75378758 0.53602195
16.45292282 -18.25839806 3.18672681 0.64779836 -0.78599960 0.87246662
14.41100025 -17.24801064 2.74323034 0.56740206 -0.74250376 0.75104553
18.52850342 -19.58602905 0.84898823 0.72951984 -0.84315234 0.23243721
22.39327812 -21.31038857 2.23723102 0.88168705 -0.91738367 0.61251229
19.10905266 -19.63263321 1.79692721 0.75237775 -0.84515858 0.49196529
16.18544960 -18.41379929 0.64092761 0.63726717 -0.79268938 0.17547408
14.38356495 -17.62908173 0.43068361 0.56632185 -0.75890833 0.11791317
16.66753197 -18.40785789 1.48300695 0.65624815 -0.79243362 0.40601975
14.54139328 -17.31835556 1.20916915 0.57253599 -0.74553204 0.33104804
14.90624523 -17.73531532 -0.32230699 0.58690125 -0.76348156 -0.08824167
21.29715347 -20.71259117 3.20248866 0.83852947 -0.89164931 0.87678188
18.31311798 -19.21311188 2.66470528 0.72103953 -0.82709873 0.72954679
15.98867416 -18.02844429 2.28751659 0.62951958 -0.77610040 0.62627953
14.28400230 -17.38357735 1.95340264 0.56240177 -0.74833971 0.53480536
16.83208084 -18.44430923 3.23982882 0.66272688 -0.79400283 0.88700491
14.67525959 -17.34201050 2.77426553 0.57780671 -0.74655032 0.75954235
18.79487801 -19.61943436 0.85659701 0.74000782 -0.84459037 0.23452035
22.99203110 -21.60595131 2.28626728 0.90526164 -0.93010724 0.62593752
16.53364182 -18.57283974 0.65204108 0.65097648 -0.79953587 0.17851673
14.39226437 -17.41497421 0.42668653 0.56666440 -0.74969131 0.11681885
17.05556488 -18.59968185 1.50932539 0.67152607 -0.80069137 0.41322526
14.83596897 -17.44581985 1.22629702 0.58413428 -0.75101918 0.33573735
21.85001755 -20.98420143 3.26842880 0.86029732 -0.90334177 0.89483505
18.75091743 -19.42705536 2.71301961 0.73827696 -0.83630872 0.74277437
16.36249733 -18.21758270 2.32678437 0.64423805 -0.78424251 0.63703030
14.36367512 -17.25825500 1.94914424 0.56553876 -0.74294478 0.53363949
17.20209694 -18.61307716 3.29051733 0.67729545 -0.80126804 0.90088248
14.99284744 -17.49365807 2.81547618 0.59031105 -0.75307852 0.77082509
19.43924713 -20.03930473 0.88403249 0.76537842 -0.86266524 0.24203168
23.64070511 -21.93683434 2.34005380 0.93080181 -0.94435132 0.64066327
20.02883148 -20.06782341 1.86442482 0.78859204 -0.86389291 0.51044488
16.88044357 -18.72377205 0.66296399 0.66463107 -0.80603331 0.18150723
14.59370136 -17.43467140 0.43028390 0.57459551 -0.75053924 0.11780374
17.45753098 -18.79903412 1.53668606 0.68735266 -0.80927324 0.42071611
15.16264915 -17.60507774 1.24616063 0.59699661 -0.75787503 0.34117562
22.42702675 -21.33548737 3.34263897 0.88301581 -0.91846412 0.91515243
19.13628387 -19.64070511 2.75755286 0.75344992 -0.84550607 0.75496674
16.70771408 -18.42604828 2.36565137 0.65783024 -0.79321671 0.64767140
14.57153702 -17.34142876 1.96747398 0.57372284 -0.74652529 0.53865784
17.54401779 -18.80404663 3.34093761 0.69075787 -0.80948901 0.91468662
15.28129005 -17.66152000 2.85592365 0.60166782 -0.76030475 0.78189886
23.05829430 -21.82496834 1.22793424 0.90787059 -0.93953568 0.33618557
19.87441254 -20.29615974 0.90188384 0.78251213 -0.87372249 0.24691904
20.49813843 -20.34592056 1.90176702 0.80707002 -0.87586462 0.52066851
17.27015114 -18.97492790 0.67718917 0.67997497 -0.81684524 0.18540181
14.87165260 -17.59800148 0.43787837 0.58553928 -0.75757039 0.11988296
17.84646606 -19.03664207 1.56534958 0.70266610 -0.81950194 0.42856362
15.47576714 -17.79878998 1.26709461 0.60932493 -0.76621407 0.34690696
22.98097229 -21.58851051 3.40746140 0.90482622 -0.92935646 0.93289965
17.10470390 -18.62681580 2.40752363 0.67346084 -0.80185950 0.65913522
14.89552021 -17.50298882 1.99839377 0.58647901 -0.75348020 0.54712307
18.00102425 -19.05189323 3.40771747 0.70875150 -0.82015848 0.93296975
15.64011574 -17.84884834 2.90425706 0.61579585 -0.76836902 0.79513162
24.87330437 -22.57558632 2.44303012 0.97933275 -0.97184873 0.66885626
20.99859810 -20.58287430 1.93868637 0.82677454 -0.88606519 0.53077632
17.66700363 -19.16714478 0.69020778 0.69560015 -0.82511991 0.18896607
15.21051025 -17.77175331 0.44667193 0.59888107 -0.76505017 0.12229048
18.27102089 -19.24521637 1.59427369 0.71938205 -0.82848078 0.43648252
15.81532764 -17.96061134 1.28767192 0.62269443 -0.77318025 0.35254064
20.07832336 -20.09708023 2.86174393 0.79054070 -0.86515236 0.78349233
17.50622368 -18.82476425 2.44959617 0.68926978 -0.81038088 0.67065394
15.21950340 -17.65813255 2.02894330 0.59923512 -0.76015896 0.55548698
18.41794395 -19.24893188 3.46591544 0.72516686 -0.82864076 0.94890326
15.99662685 -18.02641678 2.95157290 0.62983268 -0.77601308 0.80808580
21.57445335 -20.88375473 1.98265147 0.84944761 -0.89901769 0.54281312
18.10243607 -19.39307976 0.70487750 0.71274441 -0.83484608 0.19298236
15.53381252 -17.92076492 0.45476604 0.61161035 -0.77146494 0.12450649
18.71688271 -19.46788406 1.62489164 0.73693693 -0.83806634 0.44486514
16.18407440 -18.14868164 1.31062806 0.63721305 -0.78127640 0.35882562
20.59999466 -20.36230469 2.92056155 0.81108040 -0.87656993 0.79959548
17.89723969 -19.00391579 2.48966527 0.70466524 -0.81809312 0.68162411
15.54601574 -17.80988693 2.05949283 0.61209083 -0.76669180 0.56385088
18.81043243 -19.41302681 3.51874924 0.74062020 -0.83570480 0.96336818
16.36392593 -18.20905685 3.00041509 0.64429432 -0.78387552 0.82145792
21.39976501 -21.04691315 0.96077865 0.84256959 -0.90604144 0.26304334
22.17075539 -21.19336700 2.02816653 0.87292570 -0.91234607 0.55527431
18.53864479 -19.61138153 0.71942025 0.72991914 -0.84424371 0.19696391
15.90174866 -18.11452293 0.46445894 0.62609708 -0.77980596 0.12716024
19.14256668 -19.66140366 1.65329456 0.75369728 -0.84639710 0.45264134
16.55579758 -18.33281708 1.33358407 0.65184885 -0.78920323 0.36511055
21.14141846 -20.63704491 2.98168969 0.83239776 -0.88839716 0.81633127
18.32967377 -19.21917534 2.53534412 0.72169137 -0.82735974 0.69413012
15.89874458 -17.98510170 2.09337497 0.62597877 -0.77423453 0.57312715
16.74214554 -18.39659119 3.05078363 0.65918589 -0.79194862 0.83524787
21.94422913 -21.31335640 0.98184913 0.86400670 -0.91751146 0.26881206
22.78772926 -21.51136971 2.07523179 0.89721769 -0.92603564 0.56815994
18.79983902 -19.63880920 0.72577077 0.74020314 -0.84542441 0.19870256
16.31121063 -18.34771919 0.47560081 0.64221877 -0.78984475 0.13021067
16.93719482 -18.52035713 1.35713494 0.66686553 -0.79727656 0.37155834
21.67851830 -20.96333122 3.04638886 0.85354489 -0.90244335 0.83404469
18.74601364 -19.47065353 2.58262563 0.73808384 -0.83818555 0.70707494
16.24428558 -18.20290184 2.12984920 0.63958371 -0.78361052 0.58311313
17.09549141 -18.60841751 3.10140657 0.67309809 -0.80106747 0.84910750
22.45175934 -21.60214424 1.00255382 0.88398963 -0.92994338 0.27448061
23.38107491 -21.86463547 2.12286067 0.92057943 -0.94124329 0.58119982
19.45241928 -20.12888527 0.75136346 0.76589704 -0.86652154 0.20570935
16.60562515 -18.50294876 0.48339513 0.65381068 -0.79652715 0.13234460
20.04513931 -20.13952827 1.71687555 0.78923416 -0.86697972 0.47004864
17.30166054 -18.74127769 1.38151836 0.68121558 -0.80678689 0.37823406
22.23530769 -21.23357964 3.10856748 0.87546730 -0.91407716 0.85106802
19.15436554 -19.64578247 2.62389684 0.75416183 -0.84572464 0.71837419
16.61446762 -18.38436127 2.16539764 0.65415883 -0.79142213 0.59284562
17.46723747 -18.77534485 3.14948559 0.68773478 -0.80825347 0.86227065
22.99104691 -21.84500694 1.02296579 0.90522289 -0.94039828 0.28006902
23.94132805 -22.10872078 2.16358471 0.94263816 -0.95175081 0.59234929
17.14879799 -18.86910629 0.49928352 0.67519695 -0.81228977 0.13669455
20.57392502 -20.41209984 1.75387752 0.81005394 -0.87871355 0.48017907
17.72830963 -18.96349907 1.40851855 0.69801396 -0.81635326 0.38562620
22.84405708 -21.54270554 3.17767811 0.89943546 -0.92738461 0.86998922
16.99964905 -18.57510567 2.20261240 0.66932452 -0.79963344 0.60303438
17.89339256 -18.99323273 3.20723152 0.70451373 -0.81763321 0.87808043
17.52675629 -19.04364967 0.50887650 0.69007826 -0.81980360 0.13932092
21.09264755 -20.66485023 1.78957677 0.83047754 -0.88959414 0.48995286
18.15019226 -19.17238235 1.43480515 0.71462470 -0.82534540 0.39282298
23.46772957 -21.85449600 3.24825907 0.92399126 -0.94080681 0.88931298
20.11499023 -20.11788368 2.72567225 0.79198438 -0.86604792 0.74623841
17.40680695 -18.78218842 2.24241924 0.68535548 -0.80854803 0.61393273
18.31885910 -19.20218468 3.26421404 0.72126555 -0.82662833 0.89368117
25.32115173 -22.80136299 2.26856542 0.99696577 -0.98156816 0.62109107
17.96750450 -19.27857971 0.52066791 0.70743173 -0.82991701 0.14254920
21.65266037 -20.94792557 1.82866335 0.85252678 -0.90178013 0.50065404
18.58090973 -19.38246727 1.46156740 0.73158324 -0.83438927 0.40015000
20.62211800 -20.36698151 2.77956533 0.81195146 -0.87677127 0.76099336
17.81722832 -18.98487663 2.28222632 0.70151496 -0.81727350 0.62483114
18.73800468 -19.39653397 3.31941581 0.73776853 -0.83499479 0.90879440
22.25025749 -21.25644875 1.87074673 0.87605590 -0.91506165 0.51217568
19.02330971 -19.59648705 1.48904335 0.74900180 -0.84360254 0.40767241
21.16309357 -20.63964081 2.83766556 0.83325118 -0.88850892 0.77690011
18.22401810 -19.17591286 2.32110739 0.71753144 -0.82549739 0.63547605
21.99747276 -21.37330055 0.83646059 0.86610305 -0.92009199 0.22900736
22.87435722 -21.57880211 1.91478431 0.90062851 -0.92893851 0.52423239
21.77140045 -20.96698380 2.90458083 0.85720193 -0.90260059 0.79522026
18.67391396 -19.40421677 2.36535788 0.73524511 -0.83532554 0.64759105
22.58742523 -21.67170143 0.85652828 0.88933116 -0.93293774 0.23450153
23.49313736 -21.88461685 1.95790994 0.92499161 -0.94210345 0.53603935
19.98866844 -20.08086586 1.54994249 0.78701073 -0.86445439 0.42434546
22.29065895 -21.26496506 2.96308184 0.87764663 -0.91542828 0.81123674
19.06325531 -19.62332535 2.40516472 0.75057459 -0.84475785 0.65848941
20.11599541 -20.11709595 3.50918818 0.79202396 -0.86601400 0.96075052
23.07350540 -21.92971420 0.87335724 0.90846950 -0.94404483 0.23910898
20.42387390 -20.32609367 1.57860792 0.80414599 -0.87501109 0.43219352
22.91225815 -21.58400726 3.03059816 0.90212077 -0.92916262 0.82972145
20.63410950 -20.37809944 3.57990766 0.81242359 -0.87724990 0.98011220
20.95102310 -20.59088135 1.61203110 0.82490134 -0.88640988 0.44134417
23.55184746 -21.90824890 3.09991765 0.92730319 -0.94312078 0.84869987
19.98806763 -20.06557083 2.49477649 0.78698707 -0.86379594 0.68302345
