-2.77897239 19.33486938 1.57180476 -0.26157078 0.77677560 0.64631307
-2.12844920 20.07263756 1.52583539 -0.20034027 0.80641538 0.62741083
-1.26148808 22.77260017 0.84324551 -0.11873756 0.91488600 0.34673554
-0.77716416 24.31823540 1.58034277 -0.07315058 0.97698164 0.64982378
-2.61025023 19.61576271 -0.43152428 -0.24568979 0.78806049 -0.17743920
-1.89382172 20.00886154 -0.55508161 -0.17825596 0.80385315 -0.22824495
-2.79686213 19.16026497 0.21742032 -0.26325464 0.76976091 0.08940143
-2.18051147 20.02303886 0.11848664 -0.20524064 0.80442274 0.04872072
-1.27289176 21.96493912 -0.68252516 -0.11981093 0.88243830 -0.28064868
-1.55521548 21.57249641 0.05627579 -0.14638466 0.86667198 0.02314014
-0.84275919 24.07302284 -0.08256829 -0.07932471 0.96713024 -0.03395139
-1.98179042 20.03575516 2.20485854 -0.18653601 0.80493361 0.90661949
-2.65486169 19.53000259 0.91218013 -0.24988885 0.78461510 0.37508088
-1.95851398 20.03791237 0.82175273 -0.18434513 0.80502027 0.33789790
-2.83963251 18.91514969 1.53622019 -0.26728040 0.75991344 0.63168097
-2.25629163 20.07471466 1.52715003 -0.21237345 0.80649883 0.62795138
-0.58656639 24.42606926 0.75643921 -0.05521056 0.98131388 0.31104150
-0.92449903 24.16733742 1.57005608 -0.08701847 0.97091937 0.64559400
-2.68808961 19.27618217 -0.42668697 -0.25301641 0.77441788 -0.17545013
-2.01910496 19.99258804 -0.55499858 -0.19004825 0.80319935 -0.22821079
-2.87836647 18.88932037 0.21272388 -0.27092624 0.75887579 0.08747029
-2.31036186 20.04470825 0.11894478 -0.21746281 0.80529332 0.04890911
-1.39370811 21.69314766 -0.67599201 -0.13118277 0.87151915 -0.27796230
-1.64073312 20.93230629 0.05060349 -0.15443400 0.84095246 0.02080773
-0.97491771 23.59563828 -0.08365145 -0.09176413 0.94795144 -0.03439678
-2.07577872 20.02224159 2.20439625 -0.19538267 0.80439073 0.90642941
-0.64022315 24.33051682 2.43195581 -0.06026100 0.97747505 1.00000000
-2.71293902 19.27800941 0.89930350 -0.25535539 0.77449131 0.36978611
-2.05291843 20.02846146 0.82175273 -0.19323094 0.80464059 0.33789790
-2.88880467 18.64564705 1.51354373 -0.27190873 0.74908620 0.62235659
-2.35914493 20.13513756 1.53306592 -0.22205451 0.80892628 0.63038397
-0.69720590 24.26320267 0.75058633 -0.06562451 0.97477072 0.30863485
-1.03249562 24.02318382 1.56019211 -0.09718364 0.96512800 0.64153802
-2.74495983 19.02978134 -0.42318514 -0.25836933 0.76451874 -0.17401020
-2.11850214 20.03256989 -0.55603629 -0.19940400 0.80480564 -0.22863750
-2.92170143 18.58718491 0.20736699 -0.27500513 0.74673748 0.08526758
-2.41212106 20.09515953 0.11973380 -0.22704089 0.80732018 0.04923354
-1.47081661 21.32732582 -0.66708320 -0.13844061 0.85682225 -0.27429906
-0.75320190 23.66876030 -0.87718970 -0.07089513 0.95088905 -0.36069310
-1.71019256 20.57757950 0.04748013 -0.16097187 0.82670134 0.01952344
-1.06768525 23.18319893 -0.08458775 -0.10049587 0.93138170 -0.03478178
-2.20756793 20.06410027 2.21087098 -0.20778732 0.80607235 0.90909177
-0.78032666 23.92445183 2.38952303 -0.07344825 0.96116143 0.98255199
-2.81000257 19.09858513 0.89057714 -0.26449150 0.76728296 0.36619791
-2.18471646 20.07078171 0.82441920 -0.20563643 0.80634081 0.33899432
-2.96500134 18.37540436 1.49121606 -0.27908075 0.73822927 0.61317563
-2.49336720 20.18322754 1.53832448 -0.23468818 0.81085831 0.63254625
-0.84479302 24.11652184 0.74539191 -0.07951614 0.96887785 0.30649894
-2.83837008 18.84014702 -0.42060325 -0.26716158 0.75690025 -0.17294855
-2.24874330 20.05860901 -0.55686647 -0.21166296 0.80585176 -0.22897886
-3.00137401 18.34353256 0.20318422 -0.28250432 0.73694879 0.08354766
-2.52589345 19.98039246 0.11846118 -0.23774971 0.80270940 0.04871025
-1.58032060 20.99669266 -0.65911478 -0.14874767 0.84353912 -0.27102253
-0.88575232 23.23007202 -0.86364746 -0.08337144 0.93326485 -0.35512465
-1.80792928 20.21786499 0.04433883 -0.17017134 0.81224984 0.01823176
-1.19173717 22.75658989 -0.08555157 -0.11217226 0.91424274 -0.03517810
-0.91527766 23.51561356 2.34688044 -0.08615050 0.94473642 0.96501774
-2.87592506 18.73120689 0.87174112 -0.27069643 0.75252360 0.35845271
-2.31508732 20.09436989 0.82622862 -0.21790759 0.80728847 0.33973834
-3.05816245 18.22478676 1.47952902 -0.28784955 0.73217821 0.60837001
-2.58343673 19.88249207 1.51466084 -0.24316597 0.79877627 0.62281591
-1.65128803 20.90609932 0.76424462 -0.15542749 0.83989954 0.31425104
-0.99080712 23.97493935 0.74041688 -0.09325971 0.96318978 0.30445325
-1.88265574 20.10629845 1.41357517 -0.17720497 0.80776769 0.58125037
-2.90638614 18.50392914 -0.41582531 -0.27356359 0.74339271 -0.17098391
-2.38149428 20.10167694 -0.55807018 -0.22415814 0.80758202 -0.22947381
-3.11049581 18.28883362 0.20252378 -0.29277542 0.73475128 0.08327609
-2.61323643 19.67465210 0.11474515 -0.24597088 0.79042637 0.04718225
-1.68326116 20.63565063 -0.65040398 -0.15843695 0.82903433 -0.26744071
-1.01299441 22.79466438 -0.85023010 -0.09534810 0.91577238 -0.34960756
-1.91874409 20.03889465 0.04283100 -0.18060178 0.80505973 0.01761175
-1.31208622 22.35730743 -0.08645115 -0.12350011 0.89820164 -0.03554799
-2.95417666 18.46826935 0.85854518 -0.27806187 0.74196011 0.35302663
-2.45253611 20.17264557 0.83070451 -0.23084496 0.81043315 0.34157878
-3.18500280 18.27585983 1.48580861 -0.29978839 0.73423004 0.61095214
-2.67891359 19.64859009 1.49658442 -0.25215274 0.78937930 0.61538309
-1.75340903 20.55688286 0.74963075 -0.16503961 0.82586986 0.30824193
-2.00213647 20.02661514 1.40836501 -0.18845110 0.80456644 0.57910800
-0.63055003 24.62491035 1.46997809 -0.05935052 0.98930228 0.60444278
-2.99855280 18.33928490 -0.41362923 -0.28223878 0.73677814 -0.17008090
-2.50062299 20.02876854 -0.55686647 -0.23537113 0.80465293 -0.22897886
-3.23304176 18.31224251 0.20333099 -0.30431005 0.73569173 0.08360802
-2.70340824 19.41616058 0.11163997 -0.25445828 0.78004152 0.04590543
-1.78420651 20.30203819 -0.64238608 -0.16793843 0.81563151 -0.26414382
-1.13669157 22.39652634 -0.83799839 -0.10699109 0.89977723 -0.34457797
-2.04092097 19.99063301 0.04250789 -0.19210169 0.80312085 0.01747889
-1.42797720 21.96540833 -0.08733237 -0.13440835 0.88245714 -0.03591034
-0.64642853 24.26692200 -0.21856450 -0.06084508 0.97492015 -0.08987191
-3.03451896 18.23661423 0.84705204 -0.28562409 0.73265338 0.34830076
-2.54627895 19.89721870 0.81822920 -0.23966850 0.79936790 0.33644903
-3.31010938 18.31233406 1.49086726 -0.31156403 0.73569542 0.61303222
-2.75225854 19.27811050 1.46716928 -0.25905633 0.77449536 0.60328782
-1.85544658 20.25298500 0.73699403 -0.17464390 0.81366080 0.30304581
-2.12984276 20.03148651 1.40974414 -0.20047145 0.80476213 0.57967508
-0.77657872 24.35516930 1.45264971 -0.07309547 0.97846544 0.59731746
-3.10630274 18.27671814 -0.41297632 -0.29238075 0.73426455 -0.16981243
-2.58794689 19.71721840 -0.55068183 -0.24359049 0.79213643 -0.22643578
-3.35998845 18.35646629 0.20454179 -0.31625891 0.73746842 0.08410588
-2.78929162 19.14940643 0.10843298 -0.26254207 0.76932466 0.04458674
-1.88140631 19.97196579 -0.63446712 -0.17708737 0.80237091 -0.26088759
-1.25408161 21.97379875 -0.82501781 -0.11804043 0.88279426 -0.33924046
-2.16822577 19.99332047 0.04265150 -0.20408425 0.80322880 0.01753794
-1.53955805 21.58093262 -0.08819523 -0.14491090 0.86701089 -0.03626514
-0.79240900 24.07049179 -0.21792608 -0.07458550 0.96702856 -0.08960939
-3.16068244 18.28408623 0.85067022 -0.29749924 0.73456055 0.34978852
-2.63771486 19.62934113 0.80613476 -0.24827491 0.78860599 0.33147591
-3.43469310 18.34208107 1.49540246 -0.32329047 0.73689049 0.61489707
-2.82806444 18.95481873 1.44169796 -0.26619157 0.76150715 0.59281421
-1.96200025 20.03214073 0.72796780 -0.18467326 0.80478841 0.29933432
-2.26151896 20.06922340 1.41372836 -0.21286547 0.80627817 0.58131331
-0.57866997 24.66318512 0.64581752 -0.05446731 0.99083996 0.26555479
-0.92196608 24.15437317 1.43988132 -0.08678006 0.97039849 0.59206724
-3.22876835 18.30015755 -0.41362923 -0.30390781 0.73520625 -0.17008090
-2.66847897 19.38358307 -0.54404056 -0.25117058 0.77873272 -0.22370495
-3.48761797 18.39981270 0.20575260 -0.32827204 0.73920983 0.08460376
-2.86864614 18.86059570 0.10494602 -0.27001131 0.75772172 0.04315293
-2.01291704 20.01942444 -0.63595194 -0.18946581 0.80427754 -0.26149815
-1.37019241 21.61433983 -0.81403422 -0.12896936 0.86835301 -0.33472410
-2.30623031 20.08658028 0.04362081 -0.21707392 0.80697548 0.01793652
-1.62831414 20.96062660 -0.08959967 -0.15326506 0.84209019 -0.03684264
-0.88883191 23.62482071 -0.21645640 -0.08366130 0.94912380 -0.08900507
-2.00776744 20.02227211 2.12442684 -0.18898110 0.80439192 0.87354666
-0.64703357 24.46846581 2.32578254 -0.06090203 0.98301715 0.95634246
-3.25700569 18.32600212 0.85375637 -0.30656564 0.73624450 0.35105753
-2.69492388 19.36141014 0.79384989 -0.25365970 0.77784193 0.32642448
-3.53432202 18.39415741 1.50150776 -0.33266804 0.73898268 0.61740750
-2.87999010 18.69696045 1.42132092 -0.27107906 0.75114775 0.58443534
-2.06421113 20.09819603 0.73123443 -0.19429387 0.80744219 0.30067751
-2.36146379 20.10388947 1.41725290 -0.22227277 0.80767089 0.58276260
-0.68375856 24.27654076 0.63362449 -0.06435877 0.97530657 0.26054111
-3.32501864 18.33982468 -0.41446018 -0.31296736 0.73679984 -0.17042258
-2.72059536 19.09361076 -0.53822953 -0.25607604 0.76708311 -0.22131550
-3.58081031 18.41653633 0.20637634 -0.33704376 0.73988175 0.08486024
-2.91315222 18.56232643 0.10128088 -0.27420044 0.74573880 0.04164585
-2.11040473 20.03953934 -0.63669431 -0.19864184 0.80508566 -0.26180342
-1.44617057 21.22270012 -0.80198973 -0.13612080 0.85261893 -0.32977152
-2.40397334 20.10130119 0.04385417 -0.22627398 0.80756694 0.01803247
-1.69800651 20.59590340 -0.09042122 -0.15982486 0.82743746 -0.03718045
-1.01801717 23.18920326 -0.21502662 -0.09582087 0.93162292 -0.08841716
-2.13735962 20.04483223 2.12845016 -0.20117897 0.80529827 0.87520099
-0.78774291 24.07609749 2.28671527 -0.07414630 0.96725380 0.94027829
-3.38154936 18.35623360 0.85652328 -0.31828833 0.73745906 0.35219523
-2.78594279 19.13253593 0.78366017 -0.26222685 0.76864690 0.32223454
-3.65646148 18.40480232 1.50447309 -0.34416443 0.73941034 0.61862683
-2.95631361 18.42063713 1.39979362 -0.27826300 0.74004650 0.57558352
-2.19198060 20.09873390 0.73183620 -0.20632017 0.80746377 0.30092496
-2.49143887 20.11833572 1.41955137 -0.23450668 0.80825126 0.58370769
-1.75253010 20.44517136 1.31119752 -0.16495690 0.82138187 0.53915352
-0.83169514 24.14191055 0.62949663 -0.07828330 0.96989781 0.25884378
-1.17971778 23.98730278 1.42971885 -0.11104093 0.96368647 0.58788848
-3.45057964 18.37359047 -0.41529113 -0.32478580 0.73815638 -0.17076425
-2.81565475 18.90800285 -0.53470135 -0.26502350 0.75962633 -0.21986474
-3.71031713 18.46227455 0.20766053 -0.34923360 0.74171925 0.08538828
-2.99769163 18.34625435 0.09873565 -0.28215772 0.73705816 0.04059928
-2.24366307 20.09144974 -0.63832760 -0.21118478 0.80717111 -0.26247498
-1.55545712 20.88623619 -0.79175508 -0.14640740 0.83910155 -0.32556310
-2.51787972 19.98858452 0.04297460 -0.23699543 0.80303854 0.01767080
-1.79782367 20.24812317 -0.09119687 -0.16922015 0.81346548 -0.03749939
-1.14217222 22.76090050 -0.21362345 -0.10750695 0.91441596 -0.08784018
-2.26911545 20.08234787 2.13426185 -0.21358049 0.80680549 0.87759072
-0.93559325 23.98517227 2.27810049 -0.08806271 0.96360087 0.93673599
-3.50885916 18.39738846 0.85992867 -0.33027136 0.73911244 0.35359553
-2.87240410 18.89143944 0.77289897 -0.27036503 0.75896090 0.31780964
-3.78813410 18.45951462 1.51145053 -0.35655811 0.74160838 0.62149590
-3.04623532 18.24635315 1.38681149 -0.28672689 0.73304462 0.57024533
-2.32492280 20.14212227 0.73432916 -0.21883336 0.80920690 0.30195004
-1.62279665 20.88248825 0.62877280 -0.15274572 0.83895099 0.25854614
-2.57913184 19.80768776 1.39671886 -0.24276078 0.79577106 0.57431918
-1.85400093 20.13772202 1.29020143 -0.17450783 0.80903012 0.53052008
-0.97746873 23.99440193 0.62498778 -0.09200424 0.96397167 0.25698978
-3.57324338 18.38883781 -0.41585499 -0.33633152 0.73876894 -0.17099611
-2.89263868 18.61919975 -0.52901477 -0.27226961 0.74802369 -0.21752647
-3.83563852 18.48362160 0.20850441 -0.36102948 0.74257690 0.08573528
-3.10491920 18.27972984 0.09812480 -0.29225051 0.73438555 0.04034810
-2.37434745 20.11467743 -0.63926798 -0.22348544 0.80810428 -0.26286167
-1.65882397 20.52733040 -0.78083390 -0.15613680 0.82468259 -0.32107240
-2.60455298 19.68096352 0.04033590 -0.24515355 0.79067993 0.01658579
-1.90477037 20.02137947 -0.09169256 -0.17928651 0.80435610 -0.03770322
-1.24666548 22.08238220 -0.21138901 -0.11734238 0.88715655 -0.08692140
-0.46547920 24.89118958 -0.33606464 -0.04381323 1.00000000 -0.13818698
-2.40118933 20.11702538 2.13984990 -0.22601193 0.80819863 0.87988847
-3.63604164 18.43374825 0.86312121 -0.34224242 0.74057323 0.35490826
-2.93824244 18.53753471 0.75670964 -0.27656206 0.74474281 0.31115270
-3.91400027 18.48211861 1.51563692 -0.36840525 0.74251646 0.62321728
-3.17097211 18.28578186 1.39174139 -0.29846776 0.73462868 0.57227248
-2.45825267 20.18264771 0.73673612 -0.23138303 0.81083500 0.30293977
-1.72601390 20.53526497 0.61640853 -0.16246106 0.82500136 0.25346205
-2.68640518 19.66663551 1.38706493 -0.25285789 0.79010427 0.57034957
-1.97333729 20.05220604 1.28498757 -0.18574037 0.80559450 0.52837622
-1.13222516 24.07164955 0.62765503 -0.10657069 0.96707511 0.25808653
-0.59496510 24.48909378 1.32133293 -0.05600109 0.98384583 0.54332113
-3.70296550 18.43659019 -0.41692334 -0.34854162 0.74068737 -0.17143542
-2.96991301 18.35387802 -0.52382630 -0.27954304 0.73736441 -0.21539302
-3.96221566 18.50802994 0.20942169 -0.37294355 0.74355745 0.08611246
-3.22868490 18.31107521 0.09878656 -0.30389994 0.73564482 0.04062021
-2.49595594 20.06166840 -0.63832760 -0.23493184 0.80597466 -0.26247498
-1.76048827 20.19982910 -0.77091128 -0.16570595 0.81152529 -0.31699231
-2.69521356 19.42851067 0.03819982 -0.25368696 0.78053766 0.01570745
-2.02773118 19.98115540 -0.09175681 -0.19086020 0.80274010 -0.03772964
-1.37369347 21.89048576 -0.21077719 -0.12929890 0.87944716 -0.08666983
-0.60963923 24.38193703 -0.33203608 -0.05738229 0.97954082 -0.13653047
-3.76181459 18.45945168 0.86578166 -0.35408080 0.74160582 0.35600221
-3.01299191 18.26438904 0.74442476 -0.28359786 0.73376924 0.30610126
-4.03773689 18.49219131 1.51877666 -0.38005197 0.74292117 0.62450832
-3.29246616 18.30277824 1.39486372 -0.30990338 0.73531151 0.57355636
-2.56222796 19.99043465 0.72908533 -0.24116971 0.80311286 0.29979381
-1.82867002 20.22938728 0.60558069 -0.17212357 0.81271273 0.24900974
-2.75362587 19.25856590 1.35672367 -0.25918502 0.77371013 0.55787349
-2.09640718 20.01163101 1.28301477 -0.19732432 0.80396444 0.52756500
-0.74252838 24.27334023 1.30872488 -0.06989048 0.97517800 0.53813678
-3.83220315 18.47756386 -0.41790268 -0.36070612 0.74233347 -0.17183810
-3.07726312 18.28752136 -0.52283013 -0.28964737 0.73469859 -0.21498340
-4.08492088 18.51205254 0.20997205 -0.38449317 0.74371910 0.08633876
-3.35010695 18.32584572 0.09924470 -0.31532881 0.73623824 0.04080860
-2.58589697 19.77204132 -0.63149750 -0.24339755 0.79433894 -0.25966653
-1.86252153 19.91964722 -0.76248640 -0.17530984 0.80026901 -0.31352806
-2.77991271 19.15591621 0.03588422 -0.26165926 0.76958621 0.01475529
-2.15960789 20.02768135 -0.09161913 -0.20327309 0.80460924 -0.03767302
-1.49109817 21.59412766 -0.20981957 -0.14034961 0.86754102 -0.08627606
-0.74875814 23.91585541 -0.32835782 -0.07047686 0.96081609 -0.13501801
-1.89794123 20.12658310 1.99649596 -0.17864372 0.80858260 0.82094252
-3.88888025 18.48820877 0.86865497 -0.36604086 0.74276114 0.35718369
-3.13540387 18.29039383 0.74661511 -0.29511988 0.73481399 0.30700192
-4.17361593 18.55390549 1.52662623 -0.39284158 0.74540049 0.62773603
-3.41901851 18.34444618 1.40012228 -0.32181510 0.73698550 0.57571864
-2.65207291 19.71059608 0.71765214 -0.24962635 0.79187042 0.29509258
-1.93669307 20.01854134 0.59826458 -0.18229122 0.80424207 0.24600142
-2.83095908 18.95101166 1.33419764 -0.26646402 0.76135421 0.54861099
-2.22843313 20.05557251 1.28710127 -0.20975126 0.80572975 0.52924532
-0.55985022 24.56744766 0.47620037 -0.05269590 0.98699373 0.19580963
-0.89258170 24.20036125 1.30468082 -0.08401425 0.97224605 0.53647393
-3.95915794 18.50395203 -0.41867426 -0.37265572 0.74339366 -0.17215538
-3.19860411 18.30525780 -0.52361882 -0.30106860 0.73541111 -0.21530770
-4.21273041 18.53670692 0.21092601 -0.39652324 0.74470955 0.08673102
-3.47812891 18.37322235 0.10013554 -0.32737887 0.73814160 0.04117490
-2.67476201 19.49991226 -0.62511289 -0.25176197 0.78340620 -0.25704122
-1.99137771 19.94534874 -0.76367211 -0.18743843 0.80130154 -0.31401563
-2.86099267 18.88105774 0.03355068 -0.26929092 0.75854379 0.01379576
-2.28922558 20.04750252 -0.09154110 -0.21547335 0.80540556 -0.03764094
-1.55274713 21.05035973 -0.20803069 -0.14615232 0.84569520 -0.08554049
-0.84120280 23.33643532 -0.32377192 -0.07917821 0.93753797 -0.13313232
-1.98325491 20.02042198 1.98620284 -0.18667386 0.80431759 0.81671005
-0.60422516 24.36180878 2.12725711 -0.05687269 0.97873223 0.87471044
-3.98863244 18.52823639 0.87184751 -0.37543002 0.74436927 0.35849646
-3.23086596 18.32854652 0.74918634 -0.30410525 0.73634672 0.30805919
-4.26772976 18.56315041 1.52924275 -0.40170005 0.74577194 0.62881190
-3.51845694 18.39666748 1.40587389 -0.33117476 0.73908353 0.57808363
-2.70853472 19.43866348 0.70639086 -0.25494081 0.78094554 0.29046205
-2.03200555 20.01913643 0.59863037 -0.19126251 0.80426598 0.24615183
-2.87677979 18.65764999 1.31243789 -0.27077690 0.74956846 0.53966355
-2.32587719 20.07061386 1.28893316 -0.21892318 0.80633408 0.52999860
-0.66756433 24.26273918 0.46865588 -0.06283449 0.97475207 0.19270740
-0.99913228 24.01236343 1.29373801 -0.09404332 0.96469331 0.53197432
-4.05791378 18.53782272 -0.41947553 -0.38195112 0.74475437 -0.17248484
-3.29431510 18.34313011 -0.52473950 -0.31007740 0.73693264 -0.21576852
-4.27595139 18.41343880 0.20898139 -0.40247393 0.73975730 0.08593141
-3.58248901 18.44891548 0.10133179 -0.33720177 0.74118257 0.04166679
-2.72670841 19.20801735 -0.61813432 -0.25665143 0.77167934 -0.25417170
-2.09049439 19.98545265 -0.76523226 -0.19676778 0.80291271 -0.31465715
-2.90234613 18.56510162 0.03080428 -0.27318332 0.74585032 0.01266647
-2.38765383 20.07025719 -0.09146307 -0.22473791 0.80631971 -0.03760885
-1.65848041 20.71326256 -0.20694005 -0.15610446 0.83215237 -0.08509203
-0.97389179 22.99498749 -0.32109684 -0.09166756 0.92382038 -0.13203235
-2.11416936 20.05702019 1.99145448 -0.19899619 0.80578792 0.81886953
-0.75643891 24.32966614 2.12466502 -0.07119981 0.97744089 0.87364459
-4.11931276 18.56713676 0.87535930 -0.38773030 0.74593210 0.35994047
-3.35488820 18.35702324 0.75156713 -0.31577885 0.73749077 0.30903816
-4.34005594 18.34988403 1.51249707 -0.40850776 0.73720396 0.62192619
-3.64282227 18.41917992 1.40965343 -0.34288064 0.73998791 0.57963777
-2.79230666 19.16030312 0.69504362 -0.26282585 0.76976246 0.28579617
-2.16241932 20.04969597 0.60023993 -0.20353772 0.80549371 0.24681367
-2.95670176 18.40888596 1.29450893 -0.27829954 0.73957437 0.53229129
-2.46058178 20.12690353 1.29400611 -0.23160225 0.80859548 0.53208452
-0.81611103 24.14016533 0.46570805 -0.07681645 0.96982771 0.19149527
-1.15233171 24.05546761 1.29671156 -0.10846322 0.96642500 0.53319699
-3.42004895 18.37908936 -0.52594322 -0.32191211 0.73837727 -0.21626347
-4.35049629 18.21509743 0.20575260 -0.40949047 0.73178893 0.08460376
-3.70772958 18.47311020 0.10194264 -0.34899002 0.74215460 0.04191797
-2.81128836 18.94925880 -0.61209613 -0.26461250 0.76128376 -0.25168884
-2.22083020 20.01563835 -0.76660520 -0.20903563 0.80412543 -0.31522167
-2.98820853 18.35900879 0.02909900 -0.28126511 0.73757058 0.01196527
-2.50902295 20.01714897 -0.09155028 -0.23616178 0.80418611 -0.03764471
-1.75951767 20.36970139 -0.20582949 -0.16561459 0.81834984 -0.08463537
-1.09783936 22.55891800 -0.31767333 -0.10333413 0.90630132 -0.13062462
-2.24605989 20.09671593 1.99712610 -0.21141039 0.80738270 0.82120162
-0.90572709 24.22691727 2.11559272 -0.08525156 0.97331297 0.86991411
-4.25197983 18.61096382 0.87919039 -0.40021759 0.74769282 0.36151576
-3.47902632 18.38269997 0.75385267 -0.32746333 0.73852235 0.30997795
-4.40419865 18.11322403 1.49365819 -0.41454518 0.72769618 0.61417985
-3.77197456 18.46234131 1.41524076 -0.35503709 0.74172193 0.58193523
-2.86028051 18.80068779 0.68017185 -0.26922390 0.75531495 0.27968100
-2.29599500 20.10323715 0.60272741 -0.21611053 0.80764467 0.24783650
-3.04750371 18.24245834 1.28301609 -0.28684628 0.73288816 0.52756554
-2.55441475 19.85575676 1.27582824 -0.24043427 0.79770219 0.52460998
-1.61374891 20.99186134 0.53093636 -0.15189411 0.84334505 0.21831661
-0.96141851 23.97273636 0.46166098 -0.09049352 0.96310127 0.18983115
-1.85631108 20.25323296 1.18959641 -0.17472528 0.81367075 0.48915216
-1.24090660 22.87550163 1.22677279 -0.11680033 0.91902000 0.50443876
-3.54486012 18.40633583 -0.52698094 -0.33365995 0.73947191 -0.21669018
-4.43469048 18.06509018 0.20344105 -0.41741523 0.72576243 0.08365327
-3.83664513 18.51212692 0.10275712 -0.36112422 0.74372208 0.04225287
-2.88995457 18.67242622 -0.60561252 -0.27201697 0.75016207 -0.24902283
-2.35116601 20.04100227 -0.76785338 -0.22130349 0.80514443 -0.31573492
-3.09141159 18.26889610 0.02845279 -0.29097912 0.73395032 0.01169955
-2.59353042 19.68567276 -0.09228004 -0.24411604 0.79086912 -0.03794478
-1.85929000 20.05756378 -0.20482531 -0.17500566 0.80580980 -0.08422247
-1.21299958 22.06030846 -0.31375623 -0.11417358 0.88626975 -0.12901396
-2.37968898 20.14542198 2.00384808 -0.22398822 0.80933946 0.82396567
-4.33072424 18.42255402 0.87035763 -0.40762940 0.74012351 0.35788381
-3.60858107 18.43303299 0.75737625 -0.33965769 0.74054450 0.31142682
-4.49755001 18.00403214 1.48633194 -0.42333189 0.72330946 0.61116731
-3.89853954 18.48899651 1.41951334 -0.36695004 0.74279279 0.58369207
-2.93802500 18.52978134 0.66916847 -0.27654159 0.74443132 0.27515650
-2.42937922 20.14794922 0.60492224 -0.22866531 0.80944097 0.24873899
-3.17098379 18.27402496 1.28700030 -0.29846883 0.73415637 0.52920383
-2.65580273 19.66530800 1.26342773 -0.24997742 0.79005092 0.51951098
-1.70922875 20.54905510 0.51715571 -0.16088115 0.82555538 0.21265012
-1.11493492 24.03013611 0.46325982 -0.10494325 0.96540731 0.19048858
-1.96602857 20.06441307 1.17800069 -0.18505244 0.80608493 0.48438409
-3.67053699 18.43469810 -0.52806014 -0.34548929 0.74061137 -0.21713394
-4.54663563 18.03105354 0.20333099 -0.42795205 0.72439504 0.08360802
-3.95787621 18.51112747 0.10306255 -0.37253508 0.74368191 0.04237846
-2.96813774 18.41312599 -0.59957433 -0.27937597 0.73974472 -0.24653998
-2.46657419 19.94051552 -0.76516986 -0.23216629 0.80110735 -0.31463149
-3.21275306 18.28652954 0.02879385 -0.30240038 0.73465872 0.01183979
-2.68212318 19.41337967 -0.09287211 -0.25245485 0.77992976 -0.03818824
-1.98587525 20.05145645 -0.20484526 -0.18692051 0.80556440 -0.08423067
-1.33724320 21.81469154 -0.31186137 -0.12586801 0.87640214 -0.12823480
-2.51158094 20.17349815 2.00846958 -0.23640256 0.81046742 0.82586598
-4.39878702 18.19896317 0.85960937 -0.41403583 0.73114073 0.35346422
-3.73299503 18.45308304 0.75947136 -0.35136816 0.74135000 0.31228831
-4.62897682 18.04680443 1.49278605 -0.43570244 0.72502780 0.61382121
-4.02390242 18.50699615 1.42312860 -0.37874982 0.74351591 0.58517867
-3.01346183 18.26456261 0.65842295 -0.28364208 0.73377621 0.27073804
-2.53519583 19.96769905 0.59884983 -0.23862530 0.80219948 0.24624208
-3.29889011 18.32634163 1.29267013 -0.31050801 0.73625815 0.53153521
-2.73048830 19.30051804 1.23862696 -0.25700721 0.77539557 0.50931311
-1.81344318 20.26317215 0.50839198 -0.17069033 0.81407005 0.20904656
-1.20367920 22.82264519 0.43323174 -0.11329630 0.91689652 0.17814128
-2.09749413 20.10326767 1.18138826 -0.19742663 0.80764592 0.48577702
-3.79951429 18.47591972 -0.52942985 -0.35762927 0.74226743 -0.21769716
-4.66839218 18.03503227 0.20395474 -0.43941242 0.72455484 0.08386450
-4.09123898 18.56403160 0.10408064 -0.38508785 0.74580735 0.04279709
-3.06480551 18.28173828 -0.59675324 -0.28847480 0.73446625 -0.24537997
-2.55804157 19.66292381 -0.75693220 -0.24077566 0.78995514 -0.31124422
-3.33588004 18.31122780 0.02920670 -0.31398970 0.73565096 0.01200955
-2.77023888 19.16055870 -0.09341827 -0.26074871 0.76977271 -0.03841282
-2.11986375 20.11415482 -0.20509797 -0.19953217 0.80808330 -0.08433458
-1.44195056 21.32094955 -0.30799201 -0.13572359 0.85656613 -0.12664375
-2.60396075 19.89302063 1.98032105 -0.24509780 0.79919928 0.81429154
-4.47775078 18.02951050 0.85184085 -0.42146829 0.72433305 0.35026988
-3.86349130 18.49967957 0.76289970 -0.36365110 0.74322200 0.31369802
-4.75602531 18.06937027 1.49749577 -0.44766086 0.72593439 0.61575782
-4.15614939 18.55333328 1.42920887 -0.39119756 0.74537754 0.58767879
-3.13733649 18.29843330 0.66074401 -0.29530180 0.73513693 0.27169245
-2.62049055 19.64822388 0.58765614 -0.24665366 0.78936458 0.24163932
-3.42022371 18.33856964 1.29527521 -0.32192856 0.73674941 0.53260636
-2.80794168 18.98492813 1.21734893 -0.26429752 0.76271677 0.50056374
-1.91875803 20.02455521 0.50115234 -0.18060310 0.80448365 0.20606968
-2.22553682 20.10555840 1.18243051 -0.20947865 0.80773795 0.48620558
-3.92874098 18.51428795 -0.53075808 -0.36979273 0.74380887 -0.21824332
-3.18651414 18.30150795 -0.59774309 -0.29993063 0.73526049 -0.24578699
-2.64343643 19.36516953 -0.74807048 -0.24881345 0.77799290 -0.30760035
-3.46466517 18.36260414 0.02987087 -0.32611161 0.73771501 0.01228265
-2.85202265 18.88564873 -0.09401493 -0.26844662 0.75872827 -0.03865816
-2.21860361 20.13972282 -0.20521767 -0.20882607 0.80911052 -0.08438380
-1.52089655 21.01269531 -0.30558762 -0.14315438 0.84418207 -0.12565508
-2.65201974 19.54149246 1.94419038 -0.24962135 0.78507668 0.79943490
-1.97900271 20.02348328 1.88722634 -0.18627362 0.80444062 0.77601177
-4.57645655 18.06240273 0.85482055 -0.43075895 0.72565448 0.35149509
-3.96101332 18.53011894 0.76528049 -0.37283036 0.74444491 0.31467697
-4.25593138 18.58795738 1.43381011 -0.40058953 0.74676853 0.58957082
-3.23155975 18.32869530 0.66272116 -0.30417055 0.73635274 0.27250543
-2.68046832 19.39804077 0.57887679 -0.25229907 0.77931350 0.23802932
-3.51942110 18.38882637 1.30048525 -0.33126551 0.73876846 0.53474873
-2.85639739 18.70125389 1.19804382 -0.26885840 0.75132024 0.49262565
-2.01047325 19.98943710 0.50032675 -0.18923579 0.80307281 0.20573020
-2.32348990 20.12260056 1.18425465 -0.21869849 0.80842263 0.48695567
-1.63355148 20.94489861 1.11353850 -0.15375803 0.84145832 0.45787776
-4.02776480 18.55029488 -0.53192031 -0.37911335 0.74525547 -0.21872121
-3.28229094 18.33941650 -0.59907937 -0.30894563 0.73678344 -0.24633646
-2.69856977 19.09514236 -0.73995757 -0.25400287 0.76714462 -0.30426440
-3.56873918 18.43637466 0.03069658 -0.33590758 0.74067873 0.01262218
-2.89266229 18.55971718 -0.09474010 -0.27227184 0.74563402 -0.03895634
-2.35047030 20.17107010 -0.20537062 -0.22123802 0.81036985 -0.08444669
-1.62902498 20.69565964 -0.30313542 -0.15333197 0.83144516 -0.12464677
-2.73502135 19.24281502 1.91415143 -0.25743389 0.77307737 0.78708315
-2.10729599 20.03439903 1.88963044 -0.19834922 0.80487913 0.77700031
-4.70499849 18.09126091 0.85801309 -0.44285798 0.72681385 0.35280785
-4.09019566 18.56340599 0.76813740 -0.38498965 0.74578220 0.31585172
-4.33350897 18.39395714 1.41967762 -0.40789151 0.73897463 0.58375961
-3.35677862 18.36305428 0.66512817 -0.31595677 0.73773307 0.27349517
-2.75998616 19.08603668 0.56797576 -0.25978369 0.76677883 0.23354691
-3.64384460 18.41133308 1.30400980 -0.34297687 0.73967266 0.53619796
-2.94176006 18.47997093 1.18352973 -0.27689317 0.74243021 0.48665759
-2.14225197 20.03404617 0.50216842 -0.20163946 0.80486494 0.20648748
-1.47969186 21.09105682 0.39046296 -0.13927600 0.84733021 0.16055512
-2.45693469 20.16505051 1.18803298 -0.23125897 0.81012803 0.48850927
-1.73427749 20.56416321 1.09141493 -0.16323887 0.82616234 0.44878075
-3.40735745 18.37150002 -0.60041571 -0.32071751 0.73807240 -0.24688594
-2.78165483 18.82662201 -0.73203194 -0.26182327 0.75635684 -0.30100545
-3.69989347 18.49005318 0.03139665 -0.34825248 0.74283528 0.01291004
-2.98089266 18.36544609 -0.09514858 -0.28057653 0.73782921 -0.03912430
-2.47519422 20.14002419 -0.20531742 -0.23297764 0.80912262 -0.08442482
-1.72602761 20.29241371 -0.29999855 -0.16246234 0.81524485 -0.12335691
-2.81785822 18.96748734 1.88663316 -0.26523089 0.76201612 0.77576786
-2.23869824 20.07019997 1.89463913 -0.21071747 0.80631745 0.77905983
-4.22347260 18.61139107 0.77175623 -0.39753434 0.74770999 0.31733975
-5.14291573 18.25097847 1.52174211 -0.48407692 0.73323047 0.62572771
-4.39573717 18.14546585 1.40094388 -0.41374874 0.72899151 0.57605648
-3.48405123 18.40441322 0.66787899 -0.32793632 0.73939466 0.27462628
-2.84250736 18.81927109 0.55875748 -0.26755100 0.75606155 0.22975643
-3.77150035 18.44667244 1.30860686 -0.35499245 0.74109244 0.53808826
-3.02996182 18.29182625 1.17141116 -0.28519514 0.73487151 0.48167452
-2.27353525 20.06785583 0.50369257 -0.21399650 0.80622327 0.20711419
-1.59712696 20.88197327 0.38546661 -0.15032957 0.83893031 0.15850066
-2.56286597 19.98889160 1.17747962 -0.24122976 0.80305088 0.48416984
-1.83492088 20.23470306 1.07238400 -0.17271192 0.81292629 0.44095537
-3.53977990 18.43806839 -0.60264289 -0.33318177 0.74074680 -0.24780175
-2.84967613 18.48075485 -0.72167248 -0.26822576 0.74246168 -0.29674572
-3.82250547 18.49777031 0.03168385 -0.35979331 0.74314529 0.01302814
-3.08928251 18.30493164 -0.09524497 -0.29077870 0.73539805 -0.03916394
-2.56421757 19.83650780 -0.20435315 -0.24135697 0.79692888 -0.08402832
-1.83189046 20.04215050 -0.29808778 -0.17242669 0.80519056 -0.12257122
-2.90037012 18.71154594 1.86121559 -0.27299732 0.75173372 0.76531637
-2.37321830 20.12687302 1.90185153 -0.22337916 0.80859429 0.78202552
-4.31500053 18.47551727 0.76642323 -0.40614942 0.74225128 0.31514686
-5.27301311 18.27188683 1.52662623 -0.49632233 0.73407048 0.62773603
-4.48281765 18.00914383 1.39174139 -0.42194518 0.72351480 0.57227248
-3.60502577 18.40960693 0.66908252 -0.33932304 0.73960334 0.27512115
-2.91561103 18.51273918 0.54807591 -0.27443188 0.74374664 0.22536425
-3.89974356 18.48113441 1.31320405 -0.36706334 0.74247694 0.53997856
-3.14886689 18.29602432 1.17310202 -0.29638708 0.73504019 0.48236978
-2.40580654 20.10477448 0.50534368 -0.22644654 0.80770648 0.20779312
-1.69454610 20.45903397 0.37512416 -0.15949915 0.82193875 0.15424794
-2.65782952 19.74694252 1.16262662 -0.25016820 0.79333061 0.47806239
-1.94179702 20.01211929 1.05977595 -0.18277164 0.80398405 0.43577105
-3.65947318 18.43507004 -0.60313785 -0.34444791 0.74062634 -0.24800527
-2.92668915 18.21770096 -0.71393406 -0.27547461 0.73189354 -0.29356375
-3.95248532 18.53792000 0.03227621 -0.37202767 0.74475831 0.01327171
-3.20800757 18.30683327 -0.09519447 -0.30195370 0.73547441 -0.03914317
-2.65250564 19.55447578 -0.20346203 -0.24966708 0.78559828 -0.08366190
-1.95200586 19.97052574 -0.29761007 -0.18373254 0.80231303 -0.12237479
-2.97348094 18.41604996 1.83159673 -0.27987888 0.73986220 0.75313735
-2.50853848 20.18264771 1.90906394 -0.23611617 0.81083500 0.78499120
-4.38455200 18.25374222 0.75690007 -0.41269594 0.73334152 0.31123102
-4.61455965 18.05402565 1.39798594 -0.43434542 0.72531790 0.57484019
-3.73297596 18.44729042 0.67174739 -0.35136634 0.74111724 0.27621692
-2.99686098 18.27903175 0.54010135 -0.28207952 0.73435748 0.22208518
-4.02942038 18.51860428 1.31810760 -0.37926918 0.74398232 0.54199487
-3.26829290 18.30141449 1.17493391 -0.30762807 0.73525673 0.48312306
-2.51897788 19.98614311 0.50204140 -0.23709878 0.80294043 0.20643525
-1.80076122 20.19504356 0.36877880 -0.16949664 0.81133300 0.15163878
-2.74396157 19.46310425 1.14503765 -0.25827539 0.78192747 0.47082996
-2.06810760 20.00548172 1.06013274 -0.19466062 0.80371737 0.43591776
-5.45539427 18.31827927 0.21283394 -0.51348895 0.73593426 0.08751555
-3.78693938 18.46850204 -0.60457313 -0.35644567 0.74196947 -0.24859545
-3.03815007 18.18120384 -0.71337241 -0.28596586 0.73042727 -0.29333282
-4.08527708 18.58692741 0.03295832 -0.38452670 0.74672717 0.01355219
-3.32972193 18.32371140 -0.09510727 -0.31341007 0.73615247 -0.03910732
-2.73678541 19.26816750 -0.20255762 -0.25759992 0.77409589 -0.08329001
-2.08195591 20.00163269 -0.29796040 -0.19596410 0.80356276 -0.12251884
-3.06360936 18.24398041 1.81521189 -0.28836223 0.73294932 0.74640006
-2.59502721 19.86068726 1.87801039 -0.24425693 0.79790026 0.77222222
-1.86822796 20.13670540 1.74177814 -0.17584695 0.80898929 0.71620470
-5.21291304 18.15729332 0.86854851 -0.49066544 0.72946668 0.35713992
-4.45196533 18.03377151 0.74747217 -0.41904122 0.72450423 0.30735433
-3.85948801 18.47431374 0.67398244 -0.36327431 0.74220294 0.27713597
-3.11131811 18.25787163 0.54002815 -0.29285282 0.73350739 0.22205508
-4.15621519 18.53960991 1.32178533 -0.39120373 0.74482620 0.54350716
-3.38718891 18.30210114 1.17648399 -0.31881914 0.73528433 0.48376042
-2.60642672 19.68459511 0.49289665 -0.24532990 0.79082578 0.20267500
-1.91143835 20.01214600 0.36448193 -0.17991413 0.80398512 0.14987193
-2.82399535 19.16120720 1.12627602 -0.26580855 0.76979876 0.46311533
-2.20023704 20.05163574 1.06370115 -0.20709731 0.80557162 0.43738505
-5.58207941 18.32188606 0.21356776 -0.52541322 0.73607916 0.08781729
-3.91455364 18.49909973 -0.60595900 -0.36845735 0.74319869 -0.24916530
-3.15911889 18.20115471 -0.71462053 -0.29735205 0.73122883 -0.29384601
-3.45103908 18.33584785 -0.09502925 -0.32482904 0.73664010 -0.03907524
-2.78951001 18.99785805 -0.20169310 -0.26256263 0.76323622 -0.08293453
-2.18069077 20.03335571 -0.29829478 -0.20525751 0.80483723 -0.12265633
-3.15762305 18.27638817 1.82025337 -0.29721126 0.73425132 0.74847305
-2.64849138 19.55446053 1.84815896 -0.24928924 0.78559768 0.75994760
-1.95008934 19.99288940 1.72918797 -0.18355215 0.80321151 0.71102768
-5.34395885 18.28775597 0.87716842 -0.50300014 0.73470801 0.36068437
-4.55147219 18.07072449 0.75032914 -0.42840731 0.72598881 0.30852911
-3.96204066 18.52820206 0.67716312 -0.37292707 0.74436790 0.27844384
-3.21137905 18.32373619 0.54302782 -0.30227104 0.73615348 0.22328852
-4.25964308 18.58977699 1.32730198 -0.40093890 0.74684167 0.54577553
-3.48894405 18.36827278 1.18240237 -0.32839686 0.73794276 0.48619401
-2.66767669 19.44437599 0.48559353 -0.25109506 0.78117502 0.19967201
-2.00453711 19.99098015 0.36418214 -0.18867704 0.80313480 0.14974867
-2.87041593 18.86164284 1.10738420 -0.27017790 0.75776380 0.45534718
-2.29965568 20.08468628 1.06631792 -0.21645509 0.80689943 0.43846107
-5.42209482 18.31917953 -0.42137486 -0.51035464 0.73597044 -0.17326583
-5.68914032 18.36220741 0.21485195 -0.53549033 0.73769909 0.08834533
-4.01529217 18.54296494 -0.60754275 -0.37793937 0.74496096 -0.24981652
-3.25986004 18.27070427 -0.71730399 -0.30683431 0.73402292 -0.29494944
-3.56040597 18.43919373 -0.09474928 -0.33512321 0.74079198 -0.03896011
-2.87129784 18.73683548 -0.20087513 -0.27026090 0.75274968 -0.08259819
-2.31378102 20.08284378 -0.29880431 -0.21778463 0.80682540 -0.12286585
-2.73076677 19.25376320 1.81930923 -0.25703341 0.77351719 0.74808484
-2.07709551 19.99410820 1.73048401 -0.19550660 0.80326045 0.71156061
-5.47139168 18.29590034 0.87950963 -0.51499474 0.73503518 0.36164704
-4.98248386 18.17927551 1.41573370 -0.46897629 0.73034978 0.58213794
-4.09393692 18.57317352 0.68025780 -0.38534179 0.74617463 0.27971634
-3.33426142 18.34646797 0.54463732 -0.31383735 0.73706675 0.22395034
-4.33361244 18.38218689 1.31305075 -0.40790126 0.73850173 0.53991556
-3.61575961 18.40472984 1.18662977 -0.34033337 0.73940742 0.48793229
-2.74600792 19.12453651 0.47587723 -0.25846800 0.76832551 0.19567676
-2.13283324 20.00383759 0.36483169 -0.20075293 0.80365133 0.15001576
-2.94448924 18.56535721 1.08901346 -0.27715003 0.74586058 0.44779328
-2.43412018 20.13922119 1.07048094 -0.22911155 0.80909038 0.44017285
-5.54755926 18.31918907 -0.42190903 -0.52216399 0.73597080 -0.17348549
-5.82560396 18.39279938 0.21613613 -0.54833496 0.73892808 0.08887338
-3.38832355 18.32457352 -0.71967542 -0.31892595 0.73618716 -0.29592454
-3.68397927 18.45569420 -0.09465749 -0.34675455 0.74145490 -0.03892237
-2.94705963 18.45777321 -0.19999732 -0.27739197 0.74153841 -0.08223724
-2.44183373 20.08379364 -0.29893172 -0.22983760 0.80686355 -0.12291823
-2.81407189 18.98430634 1.79366493 -0.26487452 0.76269180 0.73754013
-2.21089625 20.05588913 1.73751962 -0.20810060 0.80574250 0.71445364
-5.61437988 18.35280228 0.88461775 -0.52845347 0.73732120 0.36374745
-5.12452555 18.24742889 1.42427886 -0.48234594 0.73308784 0.58565164
-4.22433186 18.60747528 0.68292272 -0.39761522 0.74755269 0.28081214
-3.45645332 18.36248207 0.54602742 -0.32533866 0.73771012 0.22452193
-4.39570665 18.13565826 1.29573488 -0.41374588 0.72859746 0.53279543
-3.74396014 18.44422722 1.19113898 -0.35240024 0.74099422 0.48978645
-2.82938576 18.86378860 0.46806607 -0.26631594 0.75785005 0.19246487
-2.26648641 20.06157303 0.36663038 -0.21333303 0.80597085 0.15075536
-3.02247858 18.31417656 1.07363939 -0.28449079 0.73576945 0.44147158
-2.53860807 19.94922447 1.06001389 -0.23894648 0.80145723 0.43586889
-5.68926573 18.36990547 -0.42324448 -0.53550214 0.73800832 -0.17403461
-5.96576405 18.43190765 0.21760377 -0.56152755 0.74049926 0.08947686
-3.51385522 18.35790825 -0.72142285 -0.33074161 0.73752636 -0.29664308
-3.81432748 18.50271606 -0.09449226 -0.35902357 0.74334401 -0.03885443
-3.04219151 18.31461906 -0.19957836 -0.28634626 0.73578721 -0.08206496
-2.52692270 19.74466133 -0.29633623 -0.23784660 0.79323894 -0.12185100
-2.89165020 18.69884109 1.76641798 -0.27217656 0.75122327 0.72633636
-2.34212542 20.08710098 1.74177814 -0.22045255 0.80699641 0.71620470
-5.75889635 18.41053200 0.88983226 -0.54205608 0.73964047 0.36589164
-5.24291801 18.22828484 1.42542922 -0.49348965 0.73231876 0.58612466
-4.31239128 18.45801353 0.67750698 -0.40590382 0.74154806 0.27858523
-3.58125734 18.38945770 0.54785645 -0.33708584 0.73879385 0.22527401
-4.48536825 18.01095581 1.28807294 -0.42218527 0.72358757 0.52964491
-3.86710072 18.45549393 1.19367552 -0.36399084 0.74144685 0.49082944
-2.90150976 18.55141640 0.45860377 -0.27310461 0.74530053 0.18857406
-2.40282845 20.13430023 0.36882877 -0.22616622 0.80889267 0.15165932
-3.14054513 18.31252289 1.07481194 -0.29560381 0.73570299 0.44195372
-2.61875844 19.59247017 1.03955555 -0.24649063 0.78712469 0.42745659
-5.81123590 18.35476112 -0.42357093 -0.54698259 0.73739994 -0.17416884
-6.09971809 18.44909859 0.21866781 -0.57413596 0.74118990 0.08991438
-3.63646531 18.37273407 -0.72260857 -0.34228230 0.73812199 -0.29713064
-3.94085741 18.52730179 -0.09437752 -0.37093320 0.74433172 -0.03880725
-3.17055345 18.37199211 -0.19983771 -0.29842833 0.73809218 -0.08217160
-2.61577749 19.46473503 -0.29421845 -0.24621005 0.78199297 -0.12098018
-2.96957707 18.43673515 1.74157512 -0.27951142 0.74069321 0.71612120
-2.47696781 20.14315224 1.74844348 -0.23314458 0.80924827 0.71894544
-5.89337492 18.43293571 0.89313120 -0.55471390 0.74054056 0.36724812
-5.10942221 18.32985115 0.76908970 -0.48092434 0.73639917 0.31624329
-5.38707542 18.29635429 1.43413877 -0.50705844 0.73505342 0.58970594
-4.38045359 18.23243332 0.66873866 -0.41231018 0.73248541 0.27497977
-3.71006656 18.43322754 0.55034393 -0.34920999 0.74055231 0.22629684
-4.61630678 18.05195045 1.29358959 -0.43450987 0.72523457 0.53191328
-3.99849725 18.50300026 1.19888926 -0.37635854 0.74335539 0.49297330
-2.97984838 18.30004692 0.45111012 -0.28047821 0.73520178 0.18549272
-2.51493835 20.00373268 0.36593089 -0.23671857 0.80364710 0.15046774
-3.26996875 18.37297440 1.08015382 -0.30778581 0.73813164 0.44415027
-2.70717263 19.32647133 1.02456868 -0.25481263 0.77643824 0.42129412
-5.95238543 18.39776993 -0.42481735 -0.56026828 0.73912781 -0.17468137
-6.26235390 18.54866600 0.22134624 -0.58944404 0.74519002 0.09101573
-5.45259142 18.32760429 0.10550597 -0.51322514 0.73630887 0.04338317
-3.76378179 18.40829277 -0.72448075 -0.35426596 0.73955053 -0.29790047
-4.06912565 18.55688667 -0.09424900 -0.38300645 0.74552029 -0.03875441
-3.29088974 18.37926483 -0.19993082 -0.30975500 0.73838437 -0.08220989
-2.69900155 19.16863823 -0.29197326 -0.25404352 0.77009732 -0.12005698
-3.05690050 18.24896049 1.72434545 -0.28773075 0.73314941 0.70903653
-2.57433057 19.90004158 1.72715139 -0.24230886 0.79948133 0.71019030
-6.02898359 18.45627213 0.89653659 -0.56747806 0.74147809 0.36864838
-5.20755053 18.23781776 0.76613754 -0.49016067 0.73270172 0.31502938
-5.51224089 18.29650879 1.43709671 -0.51883966 0.73505962 0.59092224
-4.45162630 18.03000641 0.66100186 -0.41900933 0.72435296 0.27179846
-3.83754373 18.46631432 0.55246562 -0.36120880 0.74188155 0.22716926
-4.74285412 18.07272339 1.29757369 -0.44642112 0.72606909 0.53355151
-4.12460089 18.52231026 1.20213032 -0.38822806 0.74413121 0.49430600
-3.09040570 18.25534439 0.45028457 -0.29088444 0.73340589 0.18515328
-2.59977627 19.67629623 0.35808662 -0.24470393 0.79049242 0.14724223
-3.39153552 18.38542366 1.08236873 -0.31922826 0.73863178 0.44506103
-2.79981923 19.11151123 1.01267433 -0.26353297 0.76780224 0.41640326
-6.09052706 18.42833900 -0.42588571 -0.57327086 0.74035591 -0.17512067
-5.27557182 18.25344467 -0.53229392 -0.49656320 0.73332953 -0.21887483
-6.43301535 18.66581154 0.22439159 -0.60550755 0.74989635 0.09226796
-5.58678722 18.35613823 0.10634589 -0.52585632 0.73745525 0.04372855
-3.89127731 18.44101524 -0.72629052 -0.36626646 0.74086517 -0.29864463
-3.39201999 18.44221687 -0.20019682 -0.31927386 0.74091345 -0.08231927
-2.75754476 18.93599701 -0.29020578 -0.25955388 0.76075101 -0.11933020
-3.15374732 18.29709244 1.73075652 -0.29684645 0.73508310 0.71167266
-2.62944841 19.59751320 1.69993460 -0.24749683 0.78732729 0.69899899
-6.15122986 18.53376770 0.90249604 -0.57898450 0.74459147 0.37109888
-5.31621122 18.29175377 0.77004206 -0.50038838 0.73486859 0.31663489
-5.62691450 18.36374283 1.44514894 -0.52963328 0.73776078 0.59423321
-4.55271816 18.07275391 0.66383868 -0.42852458 0.72607034 0.27296495
-3.93610692 18.50277519 0.55451411 -0.37048605 0.74334633 0.22801159
-4.22858667 18.57660675 1.20748508 -0.39801571 0.74631256 0.49650782
-3.18571520 18.29374123 0.45199919 -0.29985544 0.73494846 0.18585831
-2.66527987 19.46372795 0.35304028 -0.25086945 0.78195250 0.14516723
-3.49232674 18.44373703 1.08731973 -0.32871523 0.74097449 0.44709682
-2.85929704 18.89475250 1.00042307 -0.26913133 0.75909400 0.41136566
-6.20283890 18.47523880 -0.42707276 -0.58384222 0.74224007 -0.17560877
-5.37614679 18.27827263 -0.53337312 -0.50602978 0.73432702 -0.21931858
-5.69502926 18.40031624 0.10728763 -0.53604460 0.73923010 0.04411578
-3.99031019 18.47915268 -0.72810036 -0.37558794 0.74239731 -0.29938880
-3.51911592 18.47946930 -0.20039633 -0.33123678 0.74241006 -0.08240131
-2.83198738 18.62364578 -0.28783321 -0.26656079 0.74820232 -0.11835463
-3.27534533 18.31412697 1.73456299 -0.30829188 0.73576742 0.71323788
-2.70932603 19.27095222 1.67086625 -0.25501531 0.77420777 0.68704629
-6.31385231 18.63089180 0.91015816 -0.59429133 0.74849343 0.37424946
-5.45430517 18.33652115 0.77394652 -0.51338649 0.73666716 0.31824037
-4.68075085 18.09987640 0.66633165 -0.44057566 0.72715998 0.27399004
-4.06591797 18.54016495 0.55685526 -0.38270453 0.74484849 0.22897425
-4.30944014 18.39617920 1.19635284 -0.40562603 0.73906386 0.49193034
-3.30917382 18.32056618 0.45352334 -0.31147596 0.73602617 0.18648502
-2.74189401 19.12592888 0.34494621 -0.25808078 0.76838148 0.14183901
-3.61354280 18.44884300 1.08914375 -0.34012470 0.74117965 0.44784686
-2.92604423 18.54505157 0.98044056 -0.27541390 0.74504483 0.40314901
-6.34676456 18.51721764 -0.42834887 -0.59738922 0.74392658 -0.17613350
-5.50926113 18.30542374 -0.53470135 -0.51855922 0.73541778 -0.21986474
-7.24333525 20.28449249 0.25734007 -0.68177891 0.81492662 0.10581610
-5.83397818 18.43855476 0.10828026 -0.54912317 0.74076629 0.04452394
-3.64331627 18.49819183 -0.20053598 -0.34292713 0.74316221 -0.08245873
-2.91412044 18.38421440 -0.28604984 -0.27429157 0.73858321 -0.11762132
-3.40384746 18.36556625 1.74197578 -0.32038713 0.73783404 0.71628594
-2.79153228 18.98752594 1.64587116 -0.26275298 0.76282114 0.67676854
-6.48579454 18.74934196 0.91909730 -0.61047542 0.75325215 0.37792516
-5.59317064 18.38027382 0.77785105 -0.52645719 0.73842490 0.31984589
-5.89176321 18.39982414 1.45451581 -0.55456221 0.73921031 0.59808481
-4.19810772 18.58445358 0.55948907 -0.39514688 0.74662781 0.23005725
-5.12371922 18.23373413 1.31718826 -0.48227006 0.73253769 0.54161686
-4.37563610 18.16309357 1.18141603 -0.41185674 0.72969967 0.48578843
-3.43309498 18.34656143 0.45504746 -0.32314005 0.73707050 0.18711174
-2.81995749 18.82552147 0.33780143 -0.26542848 0.75631267 0.13890113
-3.74172711 18.48640060 1.09318268 -0.35219005 0.74268854 0.44950762
-3.00522494 18.29773140 0.96664315 -0.28286678 0.73510873 0.39747563
-6.49146175 18.55811310 -0.42962497 -0.61100882 0.74556953 -0.17665821
-5.66227388 18.39470863 -0.53739935 -0.53296149 0.73900479 -0.22097415
-7.40631771 20.33625221 0.25924802 -0.69711965 0.81700605 0.10660063
-5.97669792 18.48529053 0.10940017 -0.56255668 0.74264389 0.04498444
-3.77310252 18.54155540 -0.20076208 -0.35514328 0.74490434 -0.08255170
-3.01631618 18.28462410 -0.28539696 -0.28391075 0.73458219 -0.11735286
-3.52822280 18.39071083 1.74678409 -0.33209395 0.73884422 0.71826309
-2.87028527 18.70383835 1.62087619 -0.27016559 0.75142407 0.66649079
-5.72510958 18.39819717 0.78051752 -0.53887594 0.73914498 0.32094231
-6.05420637 18.50646973 1.46700490 -0.56985217 0.74349481 0.60322022
-4.29541969 18.47397804 0.55634314 -0.40430635 0.74218947 0.22876367
-5.26364708 18.28930664 1.32423723 -0.49544078 0.73477030 0.54451531
-4.45434952 17.99189758 1.17098832 -0.41926563 0.72282195 0.48150066
-3.56053019 18.38741493 0.45707962 -0.33513489 0.73871177 0.18794733
-2.89313030 18.51699829 0.33045676 -0.27231589 0.74391776 0.13588107
-3.86888433 18.51525879 1.09670043 -0.36415872 0.74384791 0.45095408
-3.11679530 18.25880432 0.96545368 -0.29336834 0.73354489 0.39698651
-6.64029217 18.60733223 -0.43104947 -0.62501746 0.74754691 -0.17724395
-5.78431988 18.37975502 -0.53785592 -0.54444909 0.73840404 -0.22116189
-7.56325674 20.36802101 0.26078904 -0.71189153 0.81828237 0.10723428
-6.11773300 18.52335739 0.11041826 -0.57583159 0.74417323 0.04540307
-3.90151072 18.57423019 -0.20095493 -0.36722967 0.74621707 -0.08263099
-3.13483477 18.28699684 -0.28557214 -0.29506633 0.73467749 -0.11742489
-3.65733099 18.43648148 1.75379622 -0.34424627 0.74068302 0.72114640
-2.94714689 18.42975426 1.59680688 -0.27740020 0.74041277 0.65659368
-5.86232233 18.43041992 0.78394586 -0.55179107 0.74043947 0.32235202
-6.19870043 18.55316734 1.47439981 -0.58345264 0.74537086 0.60626096
-4.36189270 18.23858070 0.54851490 -0.41056314 0.73273236 0.22554477
-5.37958908 18.25969696 1.32454371 -0.50635380 0.73358071 0.54464138
-4.58492851 18.03318214 1.17606127 -0.43155637 0.72448051 0.48358661
-3.68861413 18.42739105 0.45911181 -0.34719080 0.74031782 0.18878296
-2.97433853 18.28133965 0.32496080 -0.27995962 0.73445022 0.13362117
-3.99824166 18.55105019 1.10073948 -0.37633449 0.74528581 0.45261490
-3.24737883 18.32930756 0.97092509 -0.30565953 0.73637730 0.39923632
-6.78999615 18.65540886 -0.43247393 -0.63910836 0.74947840 -0.17782968
-5.91982555 18.40588760 -0.53922570 -0.55720359 0.73945391 -0.22172512
-6.26394129 18.57364655 0.11161452 -0.58959347 0.74619359 0.04589496
-4.02835035 18.59625053 -0.20111454 -0.37916845 0.74710172 -0.08269662
-3.25663519 18.30632782 -0.28589061 -0.30653077 0.73545414 -0.11755584
-3.03041911 18.21439743 1.57829201 -0.28523818 0.73176080 0.64898056
-7.20595932 19.62265015 0.97581834 -0.67826092 0.78833717 0.40124840
-6.00385857 18.47304535 0.78794557 -0.56511319 0.74215198 0.32399666
-6.34081173 18.58934021 1.48097301 -0.59682888 0.74682409 0.60896379
-5.19141006 18.17628860 0.67527193 -0.48864147 0.73022979 0.27766621
-4.43270350 18.03220558 0.54178405 -0.41722819 0.72444129 0.22277710
-5.51904774 18.30760765 1.33113289 -0.51948035 0.73550552 0.54735076
-3.81530619 18.45669556 0.46082646 -0.35911569 0.74149513 0.18948801
