8.36908245 30.13268280 0.43595168 0.97758061 0.91996950 0.20264332
8.18585110 30.20783615 0.43639198 0.95617765 0.92226398 0.20284799
8.49452305 30.16593552 1.53185487 0.99223316 0.92098475 0.71205175
7.99283123 30.24707222 0.43617183 0.93363124 0.92346191 0.20274565
8.31009769 30.23797226 1.53291905 0.97069067 0.92318404 0.71254641
7.80262661 30.29669380 0.43617183 0.91141373 0.92497689 0.20274565
8.11220646 30.26064873 1.53132272 0.94757527 0.92387640 0.71180439
7.61405563 30.35288048 0.43631861 0.88938701 0.92669231 0.20281388
7.92292166 30.31488609 1.53153563 0.92546523 0.92553228 0.71190333
7.42792463 30.41955185 0.43668550 0.86764532 0.92872781 0.20298442
7.78146267 30.35769081 1.53185487 0.90894157 0.92683917 0.71205175
7.28356600 30.45032692 0.43661213 0.85078299 0.92966735 0.20295031
8.42159939 30.19196701 0.26107043 0.98371506 0.92177951 0.12135331
7.59346199 30.41761208 1.53249335 0.88698149 0.92866856 0.71234852
7.48057508 30.41292191 -0.60264021 0.87379533 0.92852539 -0.28012511
7.09435701 30.50522804 0.43679559 0.82868177 0.93134356 0.20303559
8.23331165 30.25007248 0.26114678 0.96172142 0.92355347 0.12138880
7.40172338 30.46278191 1.53238690 0.86458480 0.93004763 0.71229905
7.29398060 30.47877502 -0.60293698 0.85199952 0.93053591 -0.28026307
6.90430593 30.55700493 0.43694234 0.80648214 0.93292433 0.20310381
8.04154110 30.29540825 0.26107043 0.93932098 0.92493761 0.12135331
7.21292400 30.52034950 1.53302550 0.84253138 0.93180519 0.71259588
8.37882137 30.21646690 1.35676324 0.97871822 0.92252749 0.63066393
7.10640144 30.54153442 -0.60320407 0.83008862 0.93245202 -0.28038719
6.71388435 30.60759544 0.43708912 0.78423929 0.93446887 0.20317203
7.85404444 30.35695076 0.26122314 0.91741973 0.92681652 0.12142429
7.02101755 30.56506729 1.53302550 0.82011509 0.93317050 0.71259588
8.18461800 30.25308990 1.35600138 0.95603359 0.92364562 0.63030982
6.91744184 30.59923744 -0.60341179 0.80801654 0.93421370 -0.28048375
8.07251549 30.22441483 -0.78727567 0.94293904 0.92277014 -0.36594915
7.66462231 30.41151619 0.26129949 0.89529365 0.92848247 0.12145978
6.83620596 30.64171982 1.53483462 0.79852748 0.93551075 0.71343684
7.99641562 30.31164360 1.35638225 0.93404990 0.92543328 0.63048685
6.72718334 30.65186501 -0.60356021 0.78579271 0.93582046 -0.28055274
7.47482443 30.46490097 0.26137584 0.87312359 0.93011236 0.12149527
6.69088602 30.66969109 1.53462172 0.78155285 0.93636471 0.71333784
7.85449028 30.35285759 1.35657275 0.91747183 0.92669159 0.63057542
7.74118710 30.31715775 -0.78740019 0.90423703 0.92560166 -0.36600703
7.32977390 30.49395370 0.26129949 0.85618049 0.93099934 0.12145978
8.40993977 30.18232536 0.14337076 0.98235309 0.92148513 0.06664300
6.49722767 30.70721626 1.53440893 0.75893193 0.93751037 0.71323895
7.66607189 30.41129303 1.35704887 0.89546293 0.92847568 0.63079673
7.55199862 30.37101936 -0.78752470 0.88213819 0.92724609 -0.36606494
7.13894415 30.54330063 0.26135039 0.83388990 0.93250591 0.12148345
8.21489906 30.21526909 0.14319126 0.95957065 0.92249089 0.06655956
6.30975962 30.77482796 1.53589880 0.73703402 0.93957460 0.71393150
7.47866106 30.47437859 1.35781074 0.87357175 0.93040168 0.63115084
6.19776011 30.76940346 -0.60364920 0.72395152 0.93940896 -0.28059411
7.36243868 30.42370033 -0.78764921 0.85999596 0.92885447 -0.36612281
6.94556236 30.58170319 0.26127404 0.81130123 0.93367839 0.12144795
8.02949142 30.28368950 0.14335281 0.93791348 0.92457986 0.06663465
7.29029512 30.53436661 1.35847735 0.85156900 0.93223315 0.63146073
8.34478951 30.20199394 1.21005368 0.97474301 0.92208564 0.56246895
7.17251539 30.47519684 -0.78777373 0.83781129 0.93042666 -0.36618069
7.83855724 30.33160591 0.14333487 0.91561073 0.92604274 0.06662631
7.09739351 30.57567787 1.35828686 0.82903641 0.93349445 0.63137215
8.14811707 30.22874451 1.20893621 0.95176995 0.92290235 0.56194955
6.98491764 30.53720093 -0.78814733 0.81589830 0.93231970 -0.36635435
5.43316793 30.99671364 0.43954739 0.63464063 0.94634891 0.20431471
7.64782476 30.38025665 0.14333487 0.89333153 0.92752808 0.06662631
6.90690470 30.62746239 1.35866785 0.80678570 0.93507546 0.63154924
7.96410465 30.30253792 1.20996773 0.93027574 0.92515528 0.56242901
6.79595423 30.59414864 -0.78843784 0.79382575 0.93405837 -0.36648938
5.24029303 31.04207039 0.43976754 0.61211115 0.94773370 0.20441703
7.45868921 30.43548012 0.14340666 0.87123889 0.92921412 0.06665968
6.76811028 30.68502808 1.35990584 0.79057336 0.93683296 0.63212472
7.81972694 30.33392525 1.20970988 0.91341120 0.92611355 0.56230915
5.48327541 30.97580910 -0.60468793 0.64049363 0.94571066 -0.28107694
5.09653139 31.08220863 0.44006106 0.59531856 0.94895911 0.20455348
6.22751617 30.75840759 0.26155400 0.72742730 0.93907326 0.12157808
7.31145859 30.45473099 0.14326306 0.85404110 0.92980182 0.06659293
8.45761108 30.19772530 -0.06588025 0.98792154 0.92195529 -0.03062310
6.57559776 30.72890091 1.36000109 0.76808619 0.93817240 0.63216901
7.63237762 30.39602661 1.21031165 0.89152718 0.92800957 0.56258887
5.29524040 31.04907990 -0.60528147 0.61852950 0.94794768 -0.28135285
4.90268660 31.12349510 0.44024453 0.57267582 0.95021963 0.20463876
7.13356400 30.55850410 0.14380157 0.83326149 0.93297011 0.06684325
8.26453590 30.23869705 -0.06590778 0.96536869 0.92320621 -0.03063590
5.21048784 31.08115196 1.54121971 0.60862964 0.94892687 0.71640480
6.38809156 30.79699135 1.36133432 0.74618387 0.94025129 0.63278872
7.44171762 30.44532394 1.21039760 0.86925644 0.92951465 0.56262881
8.17247868 30.28790283 2.07762742 0.95461559 0.92470849 0.96574306
5.10166264 31.09160614 -0.60542983 0.59591794 0.94924605 -0.28142181
4.71090317 31.17939186 0.44072151 0.55027390 0.95192617 0.20486048
8.50486660 30.17744064 -1.11670625 0.99344134 0.92133600 -0.51907831
8.07386208 30.28809547 -0.06591237 0.94309634 0.92471433 -0.03063803
5.01952934 31.14088440 1.54270959 0.58632410 0.95075053 0.71709734
7.25212240 30.49925804 1.21074140 0.84711009 0.93116128 0.56278867
8.39463234 30.15795517 1.00796771 0.98056507 0.92074108 0.46853340
7.98354006 30.34444046 2.07805014 0.93254596 0.92643458 0.96593958
4.90682888 31.12699890 -0.60548919 0.57315969 0.95032662 -0.28144941
6.08066368 30.78303337 -0.78922653 0.71027368 0.93982512 -0.36685598
4.51861095 31.23410606 0.44119850 0.52781254 0.95359665 0.20508219
7.87835598 30.31887245 -0.06595827 0.92025954 0.92565399 -0.03065937
4.82741737 31.19549370 1.54398656 0.56388378 0.95241779 0.71769089
7.06528425 30.56563950 1.21168709 0.82528579 0.93318796 0.56322825
8.20497990 30.21010590 1.00796771 0.95841205 0.92233330 0.46853340
7.79123402 30.38820648 2.07762742 0.91008294 0.92777079 0.96574306
4.71413374 31.17698860 -0.60578597 0.55065125 0.95185280 -0.28158736
4.32554483 31.28565216 0.44163880 0.50526077 0.95517039 0.20528686
5.46514225 30.97608185 0.26247030 0.63837552 0.94571900 0.12200401
8.13069630 30.30316544 -1.11739278 0.94973505 0.92517447 -0.51939744
7.69163942 30.38328362 -0.06592155 0.89844948 0.92762053 -0.03064230
4.63481712 31.24891853 1.54526365 0.54138637 0.95404887 0.71828455
6.87265968 30.60747910 1.21160114 0.80278558 0.93446535 0.56318825
8.01346397 30.25526619 1.00774825 0.93604136 0.92371207 0.46843138
4.52471256 31.25151825 -0.60646850 0.52852523 0.95412827 -0.28190461
4.13148832 31.33203888 0.44200569 0.48259327 0.95658660 0.20545740
5.27309847 31.02557945 0.26267391 0.61594313 0.94723022 0.12209865
6.78055573 30.56588936 -0.91291654 0.79202706 0.93319559 -0.42435077
7.49482632 30.40771294 -0.06597663 0.87546003 0.92836636 -0.03066790
4.49259281 31.30599976 1.54717910 0.52477336 0.95579159 0.71917492
6.72920418 30.64342880 1.21177304 0.78602874 0.93556291 0.56326818
7.87533617 30.31010056 1.00840664 0.91990680 0.92538619 0.46873742
4.38208437 31.30616379 -0.60697299 0.51186502 0.95579660 -0.28213912
5.55711508 30.93466377 -0.79030573 0.64911872 0.94445449 -0.36735764
3.98881030 31.39083862 0.44273952 0.46592724 0.95838177 0.20579851
5.13403130 31.09348869 0.26323387 0.59969890 0.94930351 0.12235894
7.80398321 30.41783714 -1.11826646 0.91157216 0.92867547 -0.51980352
6.23588181 30.84402847 0.14459138 0.72840446 0.94168735 0.06721038
7.36086512 30.48156929 -0.06588484 0.85981220 0.93062121 -0.03062523
8.50056076 30.15422630 -0.24201952 0.99293840 0.92062724 -0.11249787
4.29850388 31.35339737 1.54824328 0.50210214 0.95723867 0.71966958
6.54109955 30.70660591 1.21271861 0.76405656 0.93749171 0.56370771
7.68277121 30.35123444 1.00811398 0.89741355 0.92664200 0.46860138
8.34860706 30.22070503 1.90866077 0.97518891 0.92265689 0.88720232
4.18872213 31.35885048 -0.60735881 0.48927867 0.95740515 -0.28231844
5.36845970 31.00246048 -0.79101133 0.62708217 0.94652438 -0.36768562
3.79483485 31.44307709 0.44325319 0.44326925 0.95997667 0.20603728
4.93825006 31.12315750 0.26320842 0.57682997 0.95020932 0.12234711
7.60493565 30.43524361 -1.11726797 0.88832170 0.92920691 -0.51933938
8.31886959 30.23597145 -0.24211928 0.97171533 0.92312300 -0.11254425
4.10605717 31.41543579 1.55015886 0.47962269 0.95913273 0.72055995
5.28799057 31.10412788 1.36600065 0.61768264 0.94962835 0.63495779
7.49719334 30.42025185 1.00891876 0.87573647 0.92874914 0.46897548
7.07809401 30.58470917 2.07917738 0.82678211 0.93377018 0.96646351
8.16218758 30.28605652 1.90957284 0.95341355 0.92465210 0.88762629
3.99286270 31.39446831 -0.60750723 0.46640062 0.95849258 -0.28238744
5.17455101 31.04149437 -0.79113585 0.60443193 0.94771612 -0.36774349
3.60058618 31.49610138 0.44380355 0.42057934 0.96159554 0.20629311
4.74773979 31.18717766 0.26364109 0.55457675 0.95216388 0.12254822
7.41308260 30.48048401 -1.11720550 0.86591166 0.93058807 -0.51931036
8.11890221 30.25093651 -0.24199292 0.94835740 0.92357987 -0.11248551
3.91030431 31.45448875 1.55090380 0.45675710 0.96032506 0.72090626
5.09310198 31.14068222 1.36619115 0.59491801 0.95074433 0.63504630
7.30310631 30.45509720 1.00847983 0.85306543 0.92981303 0.46877146
6.88885832 30.64220047 2.08016372 0.80467772 0.93552542 0.96692199
8.40370369 30.16800117 0.85697281 0.98162466 0.92104781 0.39834648
7.97527647 30.35025597 1.91048479 0.93158072 0.92661214 0.88805020
3.79886770 31.44673347 -0.60792267 0.44374034 0.96008831 -0.28258055
4.98322296 31.09708405 -0.79163396 0.58208317 0.94941330 -0.36797503
3.40966129 31.58371544 0.44501436 0.39827770 0.96427041 0.20685592
4.55603981 31.24607468 0.26402289 0.53218454 0.95396203 0.12272570
7.22649908 30.54785538 -1.11789203 0.84411711 0.93264496 -0.51962948
5.65914059 30.98756790 0.14487858 0.66103613 0.94606966 0.06734388
7.92665100 30.29361153 -0.24196632 0.92590082 0.92488277 -0.11247315
4.90107584 31.19574738 1.36733389 0.57248771 0.95242554 0.63557750
7.11706972 30.52373695 1.00935781 0.83133477 0.93190861 0.46917954
6.70045900 30.70436859 2.08157301 0.78267109 0.93742341 0.96757710
8.21084976 30.20863152 0.85659182 0.95909768 0.92228830 0.39816937
7.78047323 30.38429642 1.90944254 0.90882599 0.92765141 0.88756573
3.60392141 31.49382591 -0.60827881 0.42096892 0.96152604 -0.28274611
4.79109478 31.14951897 -0.79209054 0.55964094 0.95101416 -0.36818725
3.21536708 31.64629555 0.44578487 0.37558246 0.96618104 0.20721407
4.36267757 31.29586983 0.26430285 0.50959814 0.95548230 0.12285583
7.03352165 30.58876228 -1.11776721 0.82157564 0.93389392 -0.51957148
5.46847773 31.04615211 0.14509399 0.63876510 0.94785827 0.06744400
7.74601221 30.38158417 -0.24209933 0.90480065 0.92756861 -0.11253498
3.52046204 31.55275345 1.55367064 0.41122016 0.96332514 0.72219235
4.70915651 31.25358009 1.36866713 0.55006987 0.95419121 0.63619721
6.92470121 30.56590271 1.00928462 0.80886447 0.93319601 0.46914554
8.02139378 30.26155853 0.85665530 0.93696761 0.92390418 0.39819887
3.41323209 31.58345222 -0.60928780 0.39869478 0.96426243 -0.28321511
4.60114002 31.21856689 -0.79292071 0.53745264 0.95312220 -0.36857316
3.02268100 31.73156929 0.44699568 0.35307506 0.96878451 0.20777689
4.17019415 31.35437775 0.26471010 0.48711446 0.95726860 0.12304513
6.84468508 30.64795685 -1.11826646 0.79951793 0.93570113 -0.51980352
5.27663469 31.09961700 0.14527349 0.61635619 0.94949061 0.06752744
3.37658381 31.61466980 1.55611825 0.39441395 0.96521550 0.72333008
4.56501150 31.29716682 1.36971462 0.53323251 0.95552194 0.63668412
6.78448963 30.61575317 1.00994301 0.79248661 0.93471795 0.46945158
7.87920237 30.30095673 0.85671884 0.92035842 0.92510700 0.39822841
3.26722026 31.62703514 -0.60970330 0.38163936 0.96559304 -0.28340825
4.45567656 31.25177956 -0.79316974 0.52046126 0.95413625 -0.36868891
2.88331795 31.85898399 0.44908705 0.33679625 0.97267455 0.20874903
4.02392769 31.38558197 0.26486281 0.47002926 0.95822132 0.12311611
5.54414797 30.91369057 -0.91534173 0.64760405 0.94381416 -0.42547807
5.12840366 31.11426926 0.14518374 0.59904152 0.94993794 0.06748573
6.25905609 30.74715233 -0.06583894 0.73111147 0.93872964 -0.03060390
8.56101513 30.13695908 -0.38728964 1.00000000 0.92010009 -0.18002376
4.37298918 31.35886383 1.37133360 0.51080263 0.95740557 0.63743669
5.44593573 31.02715492 1.21727467 0.63613200 0.94727832 0.56582552
6.59157133 30.65582466 1.00986993 0.76995206 0.93594134 0.46941760
7.69355822 30.36924553 0.85735387 0.89867359 0.92719191 0.39852360
7.26170063 30.54526329 1.91152716 0.84822893 0.93256587 0.88853472
8.37262154 30.11200142 1.72395706 0.97799402 0.91933811 0.80134654
3.07112265 31.67480850 -0.61011875 0.35873348 0.96705157 -0.28360134
4.26654768 31.33264732 -0.79429048 0.49836937 0.95660520 -0.36920986
3.83296943 31.46185493 0.26552457 0.44772372 0.96054995 0.12342373
5.35726786 30.99126244 -0.91643053 0.62577486 0.94618249 -0.42598420
4.93436480 31.15575600 0.14527349 0.57637614 0.95120460 0.06752744
8.36774158 30.17666626 -0.38717818 0.97742397 0.92131233 -0.17997195
2.98908210 31.76198387 1.56186485 0.34915042 0.96971309 0.72600126
4.17878294 31.40750313 1.37238121 0.48811769 0.95889056 0.63792366
5.24955273 31.05287743 1.21693087 0.61319280 0.94806361 0.56566566
7.50163698 30.41310501 0.85722685 0.87625557 0.92853099 0.39846456
7.06874037 30.58639717 1.91126657 0.82568949 0.93382168 0.88841361
8.20002556 30.22566032 1.72776318 0.95783335 0.92280817 0.80311573
2.87473273 31.72335434 -0.61056387 0.33579344 0.96853369 -0.28380826
4.07450962 31.39650917 -0.79507911 0.47593766 0.95855492 -0.36957642
3.63705969 31.50120926 0.26572818 0.42483976 0.96175146 0.12351836
5.16570854 31.04403687 -0.91692549 0.60339904 0.94779372 -0.42621425
4.73791265 31.18218994 0.14523759 0.55342883 0.95201159 0.06751075
2.80263329 31.93134880 1.56995273 0.32737160 0.97488391 0.72976077
3.98514700 31.46286583 1.37380958 0.46549934 0.96058083 0.63858759
5.06200504 31.13258743 1.21899402 0.59128559 0.95049721 0.56662470
7.31226015 30.46741486 0.85748088 0.85413468 0.93018907 0.39858264
8.40044785 30.03720284 0.64152968 0.98124439 0.91705447 0.29820210
6.88034534 30.64773560 1.91243911 0.80368334 0.93569440 0.88895863
8.00892735 30.27272606 1.72752535 0.93551141 0.92424512 0.80300522
2.67752051 31.76669693 -0.61094970 0.31275737 0.96985698 -0.28398761
3.88282180 31.46713066 -0.79603380 0.45354688 0.96071100 -0.37002021
2.32247138 32.47415543 0.45950729 0.27128458 0.99145615 0.21359266
3.44626045 31.58904076 0.26656812 0.40255278 0.96443301 0.12390880
4.97181082 31.08377838 -0.91712344 0.58075017 0.94900703 -0.42630628
4.55279255 31.28655434 0.14591971 0.53180522 0.95519793 0.06782783
5.69329977 30.94029999 -0.06565076 0.66502625 0.94462657 -0.03051643
3.79074049 31.51504898 1.37514281 0.44279101 0.96217400 0.63920730
4.86721563 31.16970062 1.21925187 0.56853253 0.95163029 0.56674457
7.12476206 30.53027916 0.85805243 0.83223331 0.93210840 0.39884833
8.23582554 30.17810249 0.64382803 0.96201509 0.92135620 0.29927042
6.68891621 30.69621086 1.91283000 0.78132278 0.93717438 0.88914031
7.82355881 30.34177971 1.72871470 0.91385877 0.92635339 0.80355805
2.47987700 31.80881310 -0.61133552 0.28967091 0.97114283 -0.28416693
3.68783665 31.51473618 -0.79653186 0.43077096 0.96216446 -0.37025172
2.11980319 32.51005554 0.45991087 0.24761119 0.99255216 0.21378027
3.25018191 31.63394165 0.26687354 0.37964913 0.96580386 0.12405077
4.77882528 31.13021469 -0.91751939 0.55820781 0.95042479 -0.42649034
4.35228491 31.28680801 0.14566840 0.50838423 0.95520568 0.06771101
5.49773264 30.96955299 -0.06566453 0.64218235 0.94551969 -0.03052283
2.44759297 32.58743286 1.60326171 0.28589985 0.99491453 0.74524379
3.59447098 31.55412292 1.37590468 0.41986504 0.96336699 0.63956147
4.67598963 31.23128891 1.22062731 0.54619569 0.95351064 0.56738389
6.93499899 30.58419228 0.85836995 0.81006736 0.93375438 0.39899591
8.04553413 30.22732162 0.64377803 0.93978739 0.92285889 0.29924718
2.28152680 31.84570885 -0.61166197 0.26650190 0.97226924 -0.28431869
3.49417615 31.57703209 -0.79736203 0.40814975 0.96406639 -0.37063760
1.92177761 32.63053131 0.46189219 0.22448011 0.99623036 0.21470124
3.05657268 31.70748138 0.26756075 0.35703391 0.96804911 0.12437020
4.58979797 31.20512772 -0.91865778 0.53612775 0.95271194 -0.42701948
4.15954685 31.34327698 0.14593765 0.48587075 0.95692968 0.06783617
5.31014585 31.04487991 -0.06556815 0.62027061 0.94781947 -0.03047803
3.45118690 31.62035561 1.37828553 0.40312824 0.96538907 0.64066815
4.53247261 31.27868652 1.22174478 0.52943170 0.95495772 0.56790334
6.79122972 30.61848450 0.85843349 0.79327387 0.93480134 0.39902544
7.90148354 30.25909615 0.64362818 0.92296106 0.92382896 0.29917753
2.13487053 31.90798759 -0.61243355 0.24937119 0.97417068 -0.28467736
3.34808850 31.61899376 -0.79790163 0.39108545 0.96534753 -0.37088844
1.76093256 32.50743866 0.45947060 0.20569202 0.99247229 0.21357562
2.91888332 31.84898186 0.26918969 0.34095061 0.97236919 0.12512738
4.44213629 31.22245026 -0.91855878 0.51887959 0.95324081 -0.42697346
5.59156752 30.92350006 -1.11895287 0.65314305 0.94411367 -0.52012259
4.01306200 31.37244987 0.14602740 0.46876007 0.95782036 0.06787788
5.16642523 31.08533859 -0.06553143 0.60348278 0.94905466 -0.03046096
6.32148218 30.78719902 -0.24235204 0.73840332 0.93995231 -0.11265244
3.25778770 31.69308090 1.38076150 0.38053754 0.96760941 0.64181906
4.33940172 31.33228111 1.22286236 0.50687933 0.95659399 0.56842285
6.60206985 30.67618561 0.85894150 0.77117836 0.93656301 0.39926156
7.71763039 30.33333015 0.64427769 0.90148544 0.92609543 0.29947945
6.17197800 30.87961960 1.91765070 0.72093999 0.94277394 0.89138114
7.30047989 30.48213196 1.72930944 0.85275865 0.93063843 0.80383450
1.93662012 31.95870018 -0.61299741 0.22621384 0.97571898 -0.28493944
3.15174747 31.66328239 -0.79839975 0.36815113 0.96669966 -0.37111998
1.54390931 32.24820709 0.45451730 0.18034185 0.98455781 0.21127318
4.25123119 31.28937149 -0.91954863 0.49658027 0.95528394 -0.42743358
5.40439701 30.99937248 -1.12026346 0.63127995 0.94643009 -0.52073181
3.82258534 31.45263863 0.14653002 0.44651076 0.96026856 0.06811152
4.97449398 31.13891029 -0.06548095 0.58106357 0.95069027 -0.03043749
3.06554103 31.78450584 1.38418984 0.35808149 0.97040069 0.64341265
4.14557600 31.38269997 1.22389388 0.48423883 0.95813328 0.56890231
5.30920982 31.04364967 1.01491797 0.62016124 0.94778192 0.47176409
7.52399683 30.36958122 0.64397788 0.87886739 0.92720217 0.29934010
7.11199093 30.54100800 1.73014212 0.83074152 0.93243593 0.80422157
1.73845947 32.02016068 -0.61373931 0.20306697 0.97759539 -0.28528431
2.95423508 31.69838715 -0.79873180 0.34507999 0.96777141 -0.37127432
1.34117687 32.25527191 0.45448062 0.15666096 0.98477346 0.21125612
2.56034565 32.40943527 0.27590910 0.29907033 0.98948020 0.12825076
5.20818806 31.02483368 -1.12001383 0.60836107 0.94720745 -0.52061576
3.62602592 31.48597145 0.14661977 0.42355093 0.96128625 0.06815323
4.78939819 31.23873520 -0.06532031 0.55944282 0.95373797 -0.03036282
7.08121681 30.50625992 -0.38719410 0.82714689 0.93137503 -0.17997934
2.87660742 31.92251396 1.38990378 0.33601242 0.97461414 0.64606863
3.95103955 31.42993736 1.22483957 0.46151531 0.95957547 0.56934190
5.11633396 31.09020042 1.01543009 0.59763169 0.94920313 0.47200212
7.33679104 30.43180275 0.64437759 0.85700011 0.92910182 0.29952589
6.92039871 30.58703804 1.73026097 0.80836195 0.93384123 0.80427682
1.54035962 32.09637070 -0.61471862 0.17992721 0.97992212 -0.28573951
2.75745153 31.74421120 -0.79931289 0.32209399 0.96917045 -0.37154442
1.13599253 32.19111633 0.45315975 0.13269368 0.98281479 0.21064214
2.36046338 32.47674179 0.27657086 0.27572238 0.99153507 0.12855837
3.86743164 31.41970444 -0.92152840 0.45174918 0.95926309 -0.42835382
5.01730967 31.08259773 -1.12082505 0.58606482 0.94897097 -0.52099288
3.43500495 31.57175827 0.14719418 0.40123805 0.96390539 0.06842023
4.58777142 31.23259544 -0.06540292 0.53589106 0.95355052 -0.03040122
6.88631296 30.53649521 -0.38708264 0.80438042 0.93229812 -0.17992753
1.45843434 32.29480362 1.58453202 0.17035764 0.98598039 0.73653764
3.75772142 31.48985863 1.22638690 0.43893409 0.96140492 0.57006115
4.92339611 31.13752365 1.01601541 0.57509488 0.95064795 0.47227421
7.14681149 30.48313904 0.64452749 0.83480889 0.93066913 0.29959556
6.73237514 30.64941406 1.73145044 0.78639919 0.93574566 0.80482972
1.34038615 32.14737320 -0.61534184 0.15656860 0.98147929 -0.28602919
2.56085587 31.79678345 -0.80006003 0.29912993 0.97077554 -0.37189171
0.93478602 32.23559570 0.45385689 0.10919102 0.98417276 0.21096618
2.16251016 32.58271790 0.27774167 0.25259975 0.99477059 0.12910260
3.67178488 31.45927238 -0.92192429 0.42889598 0.96047109 -0.42853785
4.82345152 31.12338448 -1.12113714 0.56342053 0.95021623 -0.52113789
3.23980784 31.62455177 0.14748138 0.37843734 0.96551722 0.06855374
4.39842939 31.31031418 -0.06528818 0.51377428 0.95592332 -0.03034789
5.55881071 31.00918388 -0.24259809 0.64931679 0.94672966 -0.11276681
1.25266933 32.22948837 1.58059454 0.14632252 0.98398626 0.73470742
3.56246829 31.53667450 1.22741842 0.41612685 0.96283424 0.57054061
4.73187160 31.19550705 1.01703966 0.55272317 0.95241821 0.47275031
6.95469522 30.52549171 0.64447755 0.81236804 0.93196219 0.29957235
6.54133701 30.69891739 1.73192620 0.76408428 0.93725699 0.80505085
1.14066625 32.22111511 -0.61632121 0.13323960 0.98373067 -0.28648445
2.36355925 31.84614372 -0.80076563 0.27608401 0.97228253 -0.37221971
0.73341852 32.29481125 0.45484754 0.08566958 0.98598063 0.21142668
1.95374787 32.52978897 0.27690175 0.22821450 0.99315464 0.12871218
4.63134336 31.17680168 -1.12188601 0.54098064 0.95184714 -0.52148598
3.04408288 31.67613792 0.14776859 0.35557500 0.96709216 0.06868724
4.20695639 31.37697411 -0.06519639 0.49140859 0.95795852 -0.03030522
5.41262245 31.03503418 -0.24259809 0.63224071 0.94751889 -0.11276681
1.09937322 32.19311905 1.57835972 0.12841623 0.98287588 0.73366857
2.37051606 32.59305573 1.41980648 0.27689660 0.99508619 0.65996832
3.42257619 31.63456726 1.23094296 0.39978626 0.96582299 0.57217890
4.58831453 31.24118614 1.01791763 0.53595448 0.95381278 0.47315842
6.81382418 30.57158470 0.64482731 0.79591310 0.93336946 0.29973492
5.25803089 31.11105347 1.92168963 0.61418313 0.94983977 0.89325851
0.98941642 32.24612045 -0.61661798 0.11557233 0.98449409 -0.28662238
2.21514034 31.88086510 -0.80126375 0.25874740 0.97334260 -0.37245125
0.58202380 32.34389496 0.45569143 0.06798537 0.98747921 0.21181893
1.80166280 32.56059647 0.27718171 0.21044967 0.99409521 0.12884231
4.48923206 31.23191452 -1.12294698 0.52438080 0.95352972 -0.52197915
2.90923166 31.84947014 0.14920461 0.33982322 0.97238410 0.06935474
4.05930758 31.39843369 -0.06519180 0.47416195 0.95861369 -0.03030309
5.22213745 31.09604645 -0.24269119 0.60999042 0.94938159 -0.11281009
6.37316227 30.72532272 -0.38768771 0.74444002 0.93806314 -0.18020879
0.89870822 32.25928116 1.58155227 0.10497683 0.98489588 0.73515254
3.22696280 31.68725586 1.23231840 0.37693694 0.96743160 0.57281828
4.39723730 31.30699921 1.01930773 0.51363504 0.95582211 0.47380456
5.50610065 30.98715210 0.86192626 0.64315981 0.94605696 0.40064898
5.06627893 31.16711807 1.92325306 0.59178483 0.95155144 0.89398527
6.20933342 30.79833984 1.73371041 0.72530341 0.94029242 0.80588019
0.78769255 32.28968430 -0.61718184 0.09200925 0.98582411 -0.28688449
2.01911402 31.96199989 -0.80267501 0.23584984 0.97581971 -0.37310722
0.37677461 32.16495514 0.45235255 0.04401051 0.98201603 0.21026693
1.57542205 32.13584518 0.27163312 0.18402281 0.98112732 0.12626316
3.13808322 31.62347412 -0.92454749 0.36655504 0.96548432 -0.42975721
4.29454851 31.27138710 -1.12332141 0.50164008 0.95473486 -0.52215326
3.86464405 31.44515419 -0.06514131 0.45142359 0.96004009 -0.03027962
5.02887630 31.14206505 -0.24273774 0.58741587 0.95078659 -0.11283173
6.17879915 30.75887871 -0.38763994 0.72173673 0.93908769 -0.18018658
0.69708794 32.31620789 1.58431911 0.08142585 0.98663390 0.73643869
3.03270912 31.75862503 1.23455346 0.35424644 0.96961051 0.57385719
4.20124483 31.33995247 1.01952720 0.49074143 0.95682818 0.47390658
5.31700850 31.05463600 0.86300582 0.62107217 0.94811732 0.40115079
4.87403011 31.22199821 1.92481661 0.56932855 0.95322698 0.89471203
0.58566999 32.34398270 -0.61792374 0.06841128 0.98748189 -0.28722936
1.82054818 32.01398087 -0.80350518 0.21265565 0.97740668 -0.37349313
0.17345168 31.91273308 0.44769278 0.02026064 0.97431552 0.20810093
1.37936783 32.28097153 0.27336389 0.16112199 0.98555809 0.12706767
2.94208121 31.67243004 -0.92528987 0.34366032 0.96697897 -0.43010226
4.10267544 31.33342743 -1.12444472 0.47922769 0.95662898 -0.52267540
3.67025208 31.49662399 -0.06507705 0.42871693 0.96161151 -0.03024975
4.83859968 31.20862579 -0.24285744 0.56518996 0.95281869 -0.11288737
0.49502191 32.38784409 1.58793736 0.05782280 0.98882097 0.73812056
2.84526110 31.91438866 1.24048495 0.33235091 0.97436607 0.57661432
4.00959015 31.40736198 1.02106357 0.46835452 0.95888627 0.47462073
5.12404871 31.10123825 0.86345041 0.59853286 0.94954014 0.40135744
4.68099737 31.27371979 1.92624974 0.54678065 0.95480609 0.89537823
0.37775818 31.92909813 -0.61172128 0.04412540 0.97481519 -0.28434625
1.62151098 32.06672287 -0.80437684 0.18940639 0.97901696 -0.37389830
-0.02581062 31.06933594 0.43220919 -0.00301490 0.94856614 0.20090370
1.17310703 32.19707108 0.27219307 0.13702896 0.98299658 0.12652345
2.74558783 31.72017097 -0.92603225 0.32070822 0.96843648 -0.43044734
3.91217899 31.41015816 -1.12606728 0.45697606 0.95897162 -0.52342957
3.47734833 31.56478310 -0.06497149 0.40618411 0.96369243 -0.03020068
4.63685417 31.20082092 -0.24273109 0.54162437 0.95258045 -0.11282863
0.29009345 32.22056198 1.57889187 0.03388540 0.98371375 0.73391593
1.53447032 32.30510712 1.40371227 0.17923929 0.98629498 0.65248722
3.81435132 31.44979095 1.02172208 0.44554895 0.96018165 0.47492683
4.93320322 31.16243935 0.86440295 0.57624048 0.95140862 0.40180022
6.05501652 30.79200935 0.64632618 0.70727789 0.94009918 0.30043164
4.48778868 31.32622337 1.92781317 0.52421224 0.95640904 0.89610493
0.17334513 31.15893555 -0.60026610 0.02024820 0.95130163 -0.27902156
1.42269003 32.13620758 -0.80562204 0.16618240 0.98113835 -0.37447712
-0.21839793 30.73062897 0.42600843 -0.02551075 0.93822515 0.19802140
0.97238457 32.25577927 0.27285483 0.11358286 0.98478895 0.12683105
2.54892778 31.77067947 -0.92687362 0.29773661 0.96997857 -0.43083844
3.71687031 31.45198441 -1.12662888 0.43416235 0.96024859 -0.52369064
3.28061581 31.60192299 -0.06493478 0.38320407 0.96482635 -0.03018362
4.44688940 31.27290535 -0.24287739 0.51943481 0.95478123 -0.11289664
5.60761404 30.92300034 -0.38806987 0.65501744 0.94409841 -0.18038642
0.08709064 31.95812416 1.56484461 0.01017293 0.97570139 0.72738636
1.33254790 32.34006119 1.40495026 0.15565303 0.98736215 0.65306270
3.62217903 31.52078629 1.02347791 0.42310157 0.96234918 0.47574300
4.74328566 31.23234940 0.86567307 0.55405647 0.95354301 0.40239060
4.29625940 31.39335251 1.93041897 0.50183994 0.95845854 0.89731622
-0.02149004 30.47148514 -0.59005731 -0.00251022 0.93031335 -0.27427620
1.22259712 32.19246292 -0.80661821 0.14280984 0.98285586 -0.37494016
0.77146024 32.33322525 0.27377111 0.09011317 0.98715341 0.12725696
2.35203362 31.82395363 -0.92781401 0.27473772 0.97160506 -0.43127558
3.52029657 31.48464966 -1.12694097 0.41120082 0.96124589 -0.52383572
3.08687377 31.67167282 -0.06482004 0.36057332 0.96695584 -0.03013028
4.30949593 31.36683083 -0.24312344 0.50338608 0.95764881 -0.11301101
5.46601725 30.97271347 -0.38826096 0.63847768 0.94561619 -0.18047525
-0.06105139 31.02151299 1.51493430 -0.00713133 0.94710606 0.70418656
1.17561507 32.22420120 1.39914119 0.13732192 0.98382485 0.65036249
3.47976375 31.59312820 1.02552640 0.40646625 0.96455783 0.47669521
4.59779167 31.26622200 0.86605412 0.53706151 0.95457715 0.40256774
4.14957476 31.42314339 1.93107045 0.48470592 0.95936805 0.89761901
5.30236435 31.05649567 1.73894393 0.61936164 0.94817412 0.80831289
-0.16150515 29.88312149 -0.58133233 -0.01886519 0.91235024 -0.27022058
1.07230294 32.23983383 -0.80748993 0.12525418 0.98430216 -0.37534535
0.61975765 32.37049103 0.27420381 0.07239301 0.98829120 0.12745810
2.20422840 31.86660004 -0.92860591 0.25747278 0.97290707 -0.43164366
3.37659883 31.54461479 -1.12831390 0.39441571 0.96307665 -0.52447391
1.78960288 32.53485870 0.15460767 0.20904097 0.99330944 0.07186624
2.95134735 31.83322525 -0.06448039 0.34474269 0.97188812 -0.02997241
4.11258698 31.39527130 -0.24313010 0.48038542 0.95851713 -0.11301411
5.28341627 31.07741737 -0.38883418 0.61714834 0.94881284 -0.18074170
-0.25357920 30.75290680 1.50067425 -0.02962023 0.93890536 0.69755805
0.97453815 32.27687836 1.40133154 0.11383442 0.98543310 0.65138060
3.28264403 31.62828255 1.02603853 0.38344097 0.96563113 0.47693324
4.40623903 31.33012772 0.86719722 0.51468652 0.95652825 0.40309909
5.53550911 30.96681213 0.64822477 0.64659494 0.94543600 0.30131418
3.95552278 31.47632027 1.93289447 0.46203899 0.96099162 0.89846689
5.11232567 31.12071609 1.74084699 0.59716350 0.95013475 0.80919749
0.87054187 32.27591705 -0.80811250 0.10168676 0.98540378 -0.37563473
0.41357863 32.16778183 0.27158222 0.04830953 0.98210233 0.12623949
2.00731492 31.93369865 -0.92994225 0.23447160 0.97495562 -0.43226483
3.18014693 31.58310890 -1.12887561 0.37146845 0.96425194 -0.52473497
1.56891477 32.20786285 0.15157406 0.18326271 0.98332602 0.07045613
2.75249004 31.86508942 -0.06444827 0.32151446 0.97286093 -0.02995747
3.91819692 31.44430923 -0.24320990 0.45767900 0.96001428 -0.11305120
5.08189058 31.07250404 -0.38853166 0.59360844 0.94866282 -0.18060108
0.77333564 32.34827042 1.40447414 0.09033223 0.98761278 0.65284139
3.08775640 31.68806648 1.02750170 0.36067644 0.96745634 0.47761339
4.21194696 31.37700844 0.86783224 0.49199152 0.95795953 0.40339425
5.34185314 31.00689125 0.64837468 0.62397426 0.94665962 0.30138385
4.91918898 31.16799736 1.74179852 0.57460344 0.95157832 0.80963981
0.66917920 32.34872055 -0.80952376 0.07816587 0.98762649 -0.37629074
0.20974097 31.93177032 0.26855341 0.02449954 0.97489679 0.12483162
1.81076121 32.01954269 -0.93177348 0.21151245 0.97757649 -0.43311605
2.98542380 31.64226723 -1.13012373 0.34872311 0.96605808 -0.52531517
1.36868787 32.26903915 0.15204076 0.15987448 0.98519379 0.07067307
2.55785298 31.95152664 -0.06428763 0.29877916 0.97549993 -0.02988281
3.72382021 31.49611664 -0.24330300 0.43497413 0.96159601 -0.11309448
4.89216757 31.13937950 -0.38881826 0.57144713 0.95070457 -0.18073431
0.57076412 32.39044189 1.40628362 0.06667014 0.98890030 0.65368247
1.72137117 32.58498764 1.26584435 0.20107092 0.99483991 0.58840215
2.90265536 31.86009407 1.03313518 0.33905503 0.97270846 0.48023197
4.01597881 31.41276932 0.86814976 0.46910077 0.95905137 0.40354183
5.14725542 31.04181671 0.64842463 0.60124356 0.94772595 0.30140707
4.72505951 31.21013451 1.74251223 0.55192751 0.95286477 0.80997157
0.46263888 32.13435745 -0.80499947 0.05404019 0.98108190 -0.37418771
0.00838209 31.14852142 0.25857610 0.00097910 0.95098370 0.12019387
1.61182082 32.07621765 -0.93291181 0.18827450 0.97930682 -0.43364519
2.78902340 31.68827820 -1.13099742 0.32578185 0.96746278 -0.52572125
1.16349804 32.20904541 0.15143046 0.13590655 0.98336214 0.07038938
3.53071547 31.56262207 -0.24344930 0.41241786 0.96362644 -0.11316248
4.69761467 31.17741203 -0.38888195 0.54872167 0.95186573 -0.18076390
0.36537477 32.23757553 1.39885545 0.04267891 0.98423320 0.65022963
1.50175750 32.27180099 1.25191820 0.17541815 0.98527813 0.58192885
3.82332373 31.47707367 0.86941987 0.44659701 0.96101457 0.40413225
4.96064377 31.12684822 0.64977366 0.57944572 0.95032197 0.30203414
4.53433514 31.27674294 1.74477220 0.52964926 0.95489836 0.81102204
0.25400978 31.36882591 -0.78906047 0.02967052 0.95770973 -0.36677879
-0.18508796 30.72999954 0.25325656 -0.02161986 0.93820596 0.11772119
1.41120136 32.10768509 -0.93345624 0.16484043 0.98026758 -0.43389824
2.59331083 31.74701309 -1.13230789 0.30292094 0.96925604 -0.52633041
0.96191829 32.24370575 0.15168177 0.11236031 0.98442036 0.07050620
2.19457793 32.54583740 -0.06298875 0.25634554 0.99364460 -0.02927905
3.33421063 31.60208511 -0.24350916 0.38946441 0.96483129 -0.11319031
4.50966072 31.26173210 -0.38932779 0.52676708 0.95444006 -0.18097115
0.16144100 31.99751472 1.38733244 0.01885769 0.97690398 0.64487344
1.29895949 32.28059769 1.25191820 0.15172961 0.98554671 0.58192885
2.50947714 31.98769760 1.03657377 0.29312846 0.97660428 0.48183033
3.62910986 31.53225136 0.87043595 0.42391115 0.96269923 0.40460455
4.76679277 31.16926003 0.65007347 0.55680227 0.95161688 0.30217350
4.33993149 31.32043457 1.74572372 0.50694120 0.95623231 0.81146437
0.05528995 30.71194649 -0.77540445 0.00645834 0.93765479 -0.36043108
1.21224737 32.19184113 -0.93533701 0.14160089 0.98283690 -0.43477249
2.39712167 31.80653381 -1.13368082 0.28000438 0.97107321 -0.52696860
0.76017791 32.28710175 0.15202281 0.08879530 0.98574525 0.07066473
1.99164677 32.58493423 -0.06292909 0.23264143 0.99483830 -0.02925131
3.19083023 31.67316628 -0.24369536 0.37271634 0.96700144 -0.11327686
4.36451340 31.29848099 -0.38945520 0.50981259 0.95556206 -0.18103036
0.00995456 31.27474213 1.35285866 0.00116278 0.95483726 0.62884897
1.14529407 32.24242783 1.25002694 0.13378017 0.98438132 0.58104974
2.37486410 32.21642303 1.04454839 0.27740449 0.98358738 0.48553717
3.48483658 31.58874321 0.87170607 0.40705881 0.96442395 0.40519494
4.62250662 31.20917511 0.65052313 0.53994840 0.95283550 0.30238250
4.19681120 31.37417603 1.74774575 0.49022356 0.95787305 0.81240427
1.06182516 32.23716354 -0.93632686 0.12403028 0.98422062 -0.43523261
2.24962664 31.85137367 -1.13474178 0.26277569 0.97244221 -0.52746177
0.60893047 32.34031677 0.15247157 0.07112830 0.98736995 0.07087333
1.83659232 32.56800079 -0.06298875 0.21452974 0.99432129 -0.02927905
3.00277495 31.81007385 -0.24408771 0.35074988 0.97118127 -0.11345924
4.17440081 31.37484360 -0.38985327 0.48760581 0.95789343 -0.18121541
-0.18409680 30.81271744 1.33086026 -0.02150409 0.94073141 0.61862344
0.94383013 32.28893661 1.25174630 0.11024746 0.98580128 0.58184892
2.19790149 32.60559082 1.05830264 0.25673375 0.99546891 0.49193057
1.70147014 32.02619934 2.12708807 0.19874631 0.97777975 0.98873383
3.29101610 31.65575027 0.87316668 0.38441890 0.96646971 0.40587386
4.42857790 31.25343895 0.65092283 0.51729590 0.95418692 0.30256832
4.00289583 31.42566872 1.74929202 0.46757257 0.95944518 0.81312299
0.86039752 32.28717041 -0.93741572 0.10050181 0.98574734 -0.43573874
2.05256534 31.91275597 -1.13623953 0.23975724 0.97431624 -0.52815795
0.40355125 32.16152573 0.15083809 0.04713825 0.98191136 0.07011403
1.61875725 32.31923294 -0.06358541 0.18908474 0.98672622 -0.02955639
2.80720282 31.87812233 -0.24425396 0.32790536 0.97325885 -0.11353651
3.98173189 31.43616295 -0.39013988 0.46510044 0.95976555 -0.18134862
0.74200529 32.34217072 1.25380933 0.08667258 0.98742652 0.58280790
1.99471617 32.64668655 1.05932689 0.23299997 0.99672359 0.49240667
1.50238681 32.08209229 2.13032913 0.17549166 0.97948617 0.99024040
3.09379005 31.69371033 0.87373823 0.36138120 0.96762866 0.40613952
4.23831558 31.32621384 0.65207201 0.49507162 0.95640874 0.30310249
0.65838337 32.33591843 -0.93850458 0.07690483 0.98723567 -0.43624488
1.85435331 31.96493340 -1.13748765 0.21660437 0.97590923 -0.52873814
0.19991359 31.88744164 0.14836095 0.02335162 0.97354341 0.06896259
1.41157639 32.23685455 -0.06379654 0.16488422 0.98421121 -0.02965453
2.60927725 31.92503357 -0.24435373 0.30478597 0.97469109 -0.11358289
3.78749704 31.48835754 -0.39036280 0.44241214 0.96135908 -0.18145224
0.53935653 32.38215637 1.25535679 0.06300147 0.98864734 0.58352721
1.78645635 32.60269547 1.05727839 0.20867342 0.99538052 0.49145448
1.30217588 32.12478256 2.13272452 0.15210532 0.98078954 0.99135387
2.90938830 31.87577057 0.87894571 0.33984151 0.97318709 0.40856013
4.04345989 31.36808777 0.65247172 0.47231081 0.95768720 0.30328828
3.61385679 31.52703857 1.75250351 0.42212948 0.96254003 0.81461579
1.65546191 32.01388550 -1.13867342 0.19337215 0.97740382 -0.52928931
0.00005545 31.12209892 0.14148597 0.00000648 0.95017701 0.06576689
1.20747578 32.20511627 -0.06388833 0.14104353 0.98324221 -0.02969720
2.41102219 31.97270775 -0.24446012 0.28162807 0.97614664 -0.11363234
3.59367371 31.54729843 -0.39064944 0.41977191 0.96315861 -0.18158549
0.33409303 32.20108795 1.24744809 0.03902493 0.98311919 0.57985097
1.55960953 32.16611862 1.04089022 0.18217577 0.98205155 0.48383677
1.10454726 32.25395584 2.14132047 0.12902060 0.98473328 0.99534947
3.85117817 31.43256187 0.65347099 0.44985065 0.95965564 0.30375278
2.27692890 32.46638870 1.98657346 0.26596484 0.99121898 0.92341846
3.42045212 31.59278679 1.75512028 0.39953816 0.96454740 0.81583214
0.24480784 31.33797073 -0.91365892 0.02859566 0.95676768 -0.42469585
1.45612049 32.06359100 -1.13992155 0.17008737 0.97892135 -0.52986944
-0.19272922 30.72351074 0.13791387 -0.02251243 0.93800783 0.06410647
1.00745714 32.28602982 -0.06371851 0.11767963 0.98571253 -0.02961826
2.26298285 32.02162170 -0.24458648 0.26433581 0.97763997 -0.11369108
3.44999123 31.60960579 -0.39101568 0.40298855 0.96506089 -0.18175572
0.18108928 31.95253754 1.23670256 0.02115278 0.97553080 0.57485616
1.41342092 32.29490662 1.04535306 0.16509968 0.98598355 0.48591122
0.95392561 32.30466461 2.14456129 0.11142670 0.98628145 0.99685591
2.59836006 32.40400696 0.89482200 0.30351076 0.98931444 0.41593990
3.70630455 31.47815704 0.65417045 0.43292817 0.96104765 0.30407789
1.30748498 32.13001633 -1.14179373 0.15272546 0.98094934 -0.53073972
0.85665751 32.34040070 -0.06360377 0.10006495 0.98737252 -0.02956492
2.06441259 32.07712173 -0.24472614 0.24114110 0.97933441 -0.11375599
3.25255013 31.64259529 -0.39111120 0.37992576 0.96606809 -0.18180013
-0.01861321 31.10383034 1.20016789 -0.00217418 0.94961923 0.55787379
1.20560908 32.17533112 1.04067075 0.14082548 0.98233283 0.48373473
0.75202698 32.35589600 2.14780235 0.08784320 0.98784560 0.99836248
2.39719200 32.45358658 0.89590162 0.28001258 0.99082816 0.41644174
3.51067543 31.52069283 0.65467012 0.41007701 0.96234632 0.30431017
3.07772994 31.67815971 1.75809383 0.35950527 0.96715391 0.81721437
1.10754144 32.19353485 -1.14354110 0.12937035 0.98288858 -0.53155196
0.65460747 32.40113449 -0.06347526 0.07646377 0.98922676 -0.02950519
1.86500502 32.12739944 -0.24485248 0.21784858 0.98086947 -0.11381472
3.06545997 31.78383255 -0.39208251 0.35807201 0.97038013 -0.18225162
-0.21137762 30.74943733 1.18495226 -0.02469072 0.93879938 0.55080110
1.00513887 32.23620605 1.04264617 0.11740884 0.98419136 0.48465297
0.54959232 32.40984726 2.15132523 0.06419709 0.98949277 1.00000000
2.20217729 32.60163879 0.90015650 0.25723320 0.99534827 0.41841954
3.31949043 31.60774422 0.65631890 0.38774496 0.96500403 0.30507657
1.72884083 32.75400162 2.00312018 0.20194344 1.00000000 0.93110991
0.90627688 32.23582840 -1.14466441 0.10586091 0.98417985 -0.53207409
0.44891921 32.26062393 -0.06380571 0.05243761 0.98493689 -0.02965879
1.66494477 32.17443466 -0.24497218 0.19447982 0.98230547 -0.11387036
2.86768532 31.82437515 -0.39225766 0.33497024 0.97161794 -0.18233304
0.80354327 32.27984619 1.04403627 0.09386075 0.98552376 0.48529914
0.34021962 31.90595818 2.11553311 0.03974057 0.97410870 0.98336273
1.99596262 32.59288406 0.89945793 0.23314555 0.99508101 0.41809481
3.12557125 31.67572594 0.65751803 0.36509353 0.96707958 0.30563396
1.50344169 32.33757401 1.97523832 0.17561488 0.98728621 0.91814959
0.70483869 32.29084778 -1.14622462 0.08233120 0.98585963 -0.53279930
0.24341980 31.92481995 -0.06458137 0.02843352 0.97468460 -0.03001934
1.46436715 32.22022629 -0.24509189 0.17105064 0.98370349 -0.11392600
2.67086816 31.87962914 -0.39256021 0.31198031 0.97330487 -0.18247367
0.60182327 32.34220886 1.04615784 0.07029812 0.98742771 0.48628530
0.13636011 31.23315430 2.06790423 0.01592803 0.95356756 0.96122342
1.79178786 32.61676025 0.89983892 0.20929620 0.99580991 0.41827193
2.93481588 31.78432465 0.65976638 0.34281167 0.97039515 0.30667904
1.30157185 32.38028336 1.97745323 0.15203476 0.98859012 0.91917914
2.54299331 32.52864838 1.80579019 0.29704344 0.99311984 0.83938503
0.49889824 32.10675430 -1.14035833 0.05827560 0.98023915 -0.53007251
0.04188103 31.44771957 -0.06567830 0.00489206 0.96011841 -0.03052923
1.25912237 32.15684509 -0.24485248 0.14707629 0.98176843 -0.11381472
2.47237968 31.91970634 -0.39275131 0.28879514 0.97452843 -0.18256250
0.39671102 32.19946289 1.04081714 0.04633925 0.98306960 0.48380280
-0.05937978 30.83438873 2.03972149 -0.00693607 0.94139302 0.94812328
1.56467247 32.16613770 0.88516921 0.18276717 0.98205215 0.41145301
1.09298527 32.23423386 1.96742105 0.12767005 0.98413116 0.91451585
0.29010078 31.39563942 -1.11807919 0.03388626 0.95852834 -0.51971650
-0.15251629 30.70537186 -0.06738107 -0.01781521 0.93745404 -0.03132073
1.05846882 32.20809555 -0.24499878 0.12363824 0.98333317 -0.11388273
2.27420878 31.96852303 -0.39302200 0.26564708 0.97601885 -0.18268833
0.19293666 31.98346901 1.03284252 0.02253666 0.97647518 0.48009595
-0.25225702 30.71969223 2.03168941 -0.02946578 0.93789124 0.94438970
1.36836922 32.31513977 0.88961458 0.15983726 0.98660129 0.41351932
0.89215428 32.30430603 1.97159028 0.10421127 0.98627049 0.91645384
0.09046833 30.74116516 -1.09760988 0.01056748 0.93854684 -0.51020175
0.90827584 32.27070618 -0.24519163 0.10609441 0.98524469 -0.11397237
2.12701440 32.03076553 -0.39343598 0.24845353 0.97791916 -0.18288076
0.04102818 31.37643242 1.01060152 0.00479244 0.95794195 0.46975768
1.21178675 32.20536804 0.88593125 0.14154708 0.98324990 0.41180721
2.43809843 32.53007126 0.67730355 0.28479081 0.99316329 0.31483084
0.74098098 32.35603714 1.97471726 0.08655293 0.98784989 0.91790736
0.70698202 32.34576035 -0.24542439 0.08258156 0.98753613 -0.11408056
1.92765820 32.07543945 -0.39369076 0.22516701 0.97928309 -0.18299918
-0.15319192 30.70052910 0.98587298 -0.01789413 0.93730623 0.45826310
1.01082289 32.25830078 0.88739192 0.11807279 0.98486596 0.41248617
2.23006749 32.49288940 0.67600453 0.26049101 0.99202806 0.31422701
0.53837055 32.40395737 1.97758353 0.06288630 0.98931295 0.91923970
0.50116515 32.17758179 -0.24485248 0.05854039 0.98240155 -0.11381472
1.72825944 32.12685776 -0.39400923 0.20187552 0.98085290 -0.18314722
0.80929041 32.31197739 0.88891602 0.09453207 0.98650473 0.41319463
2.02812696 32.54217911 0.67690384 0.23690262 0.99353296 0.31464505
1.55589426 32.27697754 1.78711605 0.18174179 0.98543614 0.83070475
0.29608697 31.84611130 -0.24374191 0.03458550 0.97228152 -0.11329850
1.52848279 32.18103027 -0.39435953 0.17853990 0.98250681 -0.18331005
0.60665226 32.33840942 0.88961458 0.07086219 0.98731172 0.41351932
1.82655954 32.60617828 0.67820293 0.21335782 0.99548686 0.31524891
0.12979446 32.01500320 1.95191669 0.01516111 0.97743791 0.90730900
1.35501420 32.33199310 1.78985178 0.15827729 0.98711580 0.83197641
0.09436268 31.16334915 -0.24146757 0.01102237 0.95143640 -0.11224131
1.32449925 32.14803696 -0.39402515 0.15471287 0.98149949 -0.18315461
0.40181959 32.20366287 0.88523275 0.04693598 0.98319781 0.41148254
1.59793007 32.14575577 0.66641152 0.18665195 0.98142987 0.30976790
-0.06912213 31.23285484 1.90084338 -0.00807406 0.95355844 0.88356858
1.14620030 32.18424606 1.78057420 0.13388602 0.98260498 0.82766390
-0.05099127 30.52145195 -0.23933287 -0.00595622 0.93183887 -0.11124904
1.17380691 32.17590332 -0.39420030 0.13711071 0.98235029 -0.18323603
0.24846254 31.98131752 0.87812012 0.02902256 0.97640949 0.40817636
1.45025635 32.23681641 0.66851002 0.16940238 0.98421001 0.31074336
-0.21305114 30.80310631 1.87283134 -0.02488620 0.94043797 0.87054777
0.99565583 32.22520828 1.78271520 0.11630114 0.98385561 0.82865912
0.97352797 32.24461365 -0.39469394 0.11371642 0.98444808 -0.18346550
0.04693351 31.29859161 0.85640126 0.00548224 0.95556545 0.39808080
1.24359381 32.14140320 0.66591191 0.14526242 0.98129702 0.30953568
0.79381543 32.25677490 1.78426147 0.09272445 0.98481935 0.82937783
0.77194136 32.29207993 -0.39502832 0.09016937 0.98589724 -0.18362093
-0.14634308 30.67659187 0.83665115 -0.01709413 0.93657541 0.38890037
1.04393053 32.21852493 0.66766059 0.12194004 0.98365158 0.31034851
0.59275270 32.34695816 1.78937602 0.06923860 0.98757273 0.83175522
0.56983310 32.34028244 -0.39537862 0.06656139 0.98736888 -0.18378375
0.84259886 32.26641846 0.66870987 0.09842277 0.98511380 0.31083626
0.38788176 32.22227859 1.78176355 0.04530792 0.98376614 0.82821673
0.36286682 32.02925873 -0.39287868 0.04238596 0.97787315 -0.18262170
0.64115626 32.33504486 0.67030865 0.07489255 0.98720896 0.31157941
0.18460105 32.09630966 1.77415121 0.02156299 0.97992027 0.82467830
0.15755947 31.31694031 -0.38719410 0.01840430 0.95612562 -0.17997934
0.43624955 32.21648407 0.66726089 0.05095769 0.98358923 0.31016272
-0.01710169 31.76941681 1.75464451 -0.00199762 0.96994001 0.81561100
0.00935721 30.67335510 -0.38206682 0.00109300 0.93647659 -0.17759603
0.28249961 32.01425552 0.66216463 0.03299838 0.97741508 0.30779383
-0.16207039 30.74081802 1.69338846 -0.01893121 0.93853623 0.78713739
0.08023896 31.66750717 0.65347099 0.00937260 0.96682864 0.30375278
-0.11569630 30.68969727 0.62903881 -0.01351432 0.93697548 0.29239595
