-4.00445461 -2.83667111 1.50672674 -0.47338435 -0.55812383 0.62280858
-6.29048824 -3.69639564 1.78118443 -0.74362653 -0.72727734 0.73625624
-7.64368153 -3.96130061 2.01433730 -0.90359348 -0.77939820 0.83263046
-5.53317928 -3.62222123 0.29359984 -0.65410167 -0.71268326 0.12136010
-5.22876167 -3.21530867 1.82874131 -0.61811513 -0.63262194 0.75591397
-4.57860565 -4.33517504 1.06473553 -0.54125726 -0.85295916 0.44011062
-4.70051289 -4.03029919 1.01256537 -0.55566847 -0.79297388 0.41854599
-3.50627899 -3.47640753 1.08684325 -0.41449279 -0.68399400 0.44924888
-3.67039323 -3.29370117 1.05698359 -0.43389347 -0.64804596 0.43690634
-4.83500147 -3.65804553 0.94726878 -0.57156700 -0.71973181 0.39155549
-4.98041105 -3.38711190 0.88589841 -0.58875650 -0.66642481 0.36618793
-3.91425848 -2.78907418 0.95040250 -0.46272185 -0.54875898 0.39285082
-5.02686644 -4.38425255 0.67520392 -0.59424818 -0.86261529 0.27909693
-3.52108908 -3.38674808 1.90413213 -0.41624355 -0.66635323 0.78707695
-3.63152361 -3.15438056 1.83929276 -0.42929852 -0.62063420 0.76027542
-6.43279505 -3.53374124 1.33181882 -0.76044923 -0.69527459 0.55051005
-3.83720851 -2.90404749 1.79532647 -0.45361343 -0.57138038 0.74210191
-4.27780056 -2.99372554 0.41283372 -0.50569779 -0.58902478 0.17064567
-4.24684763 -2.88206458 1.87019968 -0.50203872 -0.56705517 0.77305090
-5.05251884 -3.89973402 0.79275745 -0.59728068 -0.76728475 0.32768792
-3.72523117 -2.95455647 2.05519915 -0.44037610 -0.58131814 0.84952080
-4.10804653 -2.96316361 0.57483715 -0.48563039 -0.58301163 0.23761012
-3.94245052 -2.80701423 2.04888177 -0.46605456 -0.55228877 0.84690952
-5.00581646 -3.30268407 0.67242014 -0.59175980 -0.64981335 0.27794626
-5.61802244 -3.44869900 0.70635748 -0.66413134 -0.67854226 0.29197431
-3.53438878 -3.39278817 1.35688996 -0.41781577 -0.66754162 0.56087327
-3.66195846 -3.18591475 1.30538261 -0.43289635 -0.62683862 0.53958261
-3.94137383 -3.54343319 0.32564583 -0.46592727 -0.69718146 0.13460638
-3.54813933 -3.57841253 1.67166543 -0.41944128 -0.70406377 0.69098634
-4.08582306 -3.44686818 0.30239257 -0.48300326 -0.67818201 0.12499459
-3.59395719 -3.27627492 1.57833588 -0.42485762 -0.64461726 0.65240836
-3.79212928 -2.87934661 1.24120688 -0.44828442 -0.56652039 0.51305544
-4.21165514 -2.87471652 1.28455901 -0.49787843 -0.56560940 0.53097510
-4.33854914 -3.36348152 0.28359589 -0.51287913 -0.66177541 0.11722495
-3.73267150 -2.96979284 1.50985312 -0.44125566 -0.58431596 0.62410092
-4.64890480 -3.36848187 0.26730856 -0.54956764 -0.66275924 0.11049254
-3.96634269 -2.84739447 1.49893332 -0.46887895 -0.56023371 0.61958718
-6.14398003 -3.66196537 1.74544275 -0.72630715 -0.72050303 0.72148234
-5.52856541 -3.66911101 0.29503304 -0.65355623 -0.72190899 0.12195251
-5.23438358 -3.26438665 1.83803844 -0.61877972 -0.64227819 0.75975698
-4.57821465 -4.38985348 1.07125914 -0.54121107 -0.86371732 0.44280717
-4.67659044 -4.06104183 1.01289868 -0.55284053 -0.79902261 0.41868377
-3.52548599 -3.53999496 1.10012996 -0.41676334 -0.69650501 0.45474097
-3.62641716 -3.29578018 1.05006945 -0.42869487 -0.64845496 0.43404835
-4.81817389 -3.69317770 0.94854689 -0.56957769 -0.72664416 0.39208379
-4.96392584 -3.42168736 0.88680416 -0.58680767 -0.67322761 0.36656234
-3.95561028 -2.85580230 0.96525395 -0.46761024 -0.56188798 0.39898971
-4.80631018 -4.24430513 0.64370531 -0.56817526 -0.83508021 0.26607692
-3.51034927 -3.41922450 1.91003764 -0.41497397 -0.67274302 0.78951800
-3.61724949 -3.18203497 1.84219861 -0.42761111 -0.62607527 0.76147658
-4.95525551 -3.10668659 1.10811269 -0.58578277 -0.61125022 0.45804065
-6.33650541 -3.53312230 1.31608391 -0.74906641 -0.69515276 0.54400599
-4.07728624 -3.08907127 0.43658802 -0.48199409 -0.60778439 0.18046455
-3.82184339 -2.93038726 1.79674911 -0.45179707 -0.57656282 0.74268997
-4.21660948 -2.99079323 0.40737209 -0.49846411 -0.58844787 0.16838808
-4.14811087 -2.85375738 1.83399427 -0.49036658 -0.56148565 0.75808531
-5.05590868 -3.95343423 0.79795957 -0.59768140 -0.77785045 0.32983822
-4.20863438 -3.38479352 2.33950949 -0.49752134 -0.66596866 0.96704108
-3.85302329 -2.78044534 2.01089215 -0.45548299 -0.54706126 0.83120638
-4.89625883 -3.17446303 0.44894585 -0.57880849 -0.62458545 0.18557268
-5.64942360 -3.40454292 0.47480768 -0.66784340 -0.66985440 0.19626273
-5.14275980 -3.44038367 0.69816667 -0.60794842 -0.67690617 0.28858864
-5.60974121 -3.49227548 0.70839256 -0.66315240 -0.68711603 0.29281554
-3.54048014 -3.44186258 1.36782050 -0.41853586 -0.67719716 0.56539142
-3.65638685 -3.22154498 1.31070554 -0.43223771 -0.63384897 0.54178286
-3.93811727 -3.58563805 0.32791349 -0.46554232 -0.70548540 0.13554372
-3.50974822 -3.58432937 1.66396511 -0.41490290 -0.70522791 0.68780339
-4.07016659 -3.47762823 0.30304989 -0.48115245 -0.68423414 0.12526630
-3.58730221 -3.31160927 1.58463454 -0.42407089 -0.65156943 0.65501195
-3.77701545 -2.90548515 1.24224222 -0.44649774 -0.57166320 0.51348341
-4.12644720 -2.85512209 1.26352036 -0.48780563 -0.56175417 0.52227873
-4.28761959 -3.36716270 0.28068435 -0.50685853 -0.66249973 0.11602145
-3.74198842 -3.01599169 1.52156317 -0.44235706 -0.59340572 0.62894130
-4.66311932 -3.42347503 0.27040866 -0.55124801 -0.67357934 0.11177398
-3.90039730 -2.83766341 1.48034883 -0.46108326 -0.55831909 0.61190522
-6.00313187 -3.62886953 1.71115017 -0.70965683 -0.71399134 0.70730746
-7.14483976 -3.81878996 1.89348686 -0.84462321 -0.75135881 0.78267670
-5.19924355 -3.28795695 1.83280885 -0.61462563 -0.64691573 0.75759530
-4.54913282 -4.41715527 1.07091582 -0.53777319 -0.86908901 0.44266525
-4.67622852 -4.11240196 1.01856518 -0.55279773 -0.80912787 0.42102602
-3.51270747 -3.57184887 1.10323012 -0.41525275 -0.70277238 0.45602244
-3.68784928 -3.39353728 1.07470119 -0.43595701 -0.66768903 0.44422996
-4.78087616 -3.71243310 0.94567114 -0.56516856 -0.73043275 0.39089510
-4.95532560 -3.46182346 0.88921964 -0.58579105 -0.68112451 0.36756077
-3.93441653 -2.87829900 0.96445119 -0.46510482 -0.56631428 0.39865789
-4.80463314 -4.29699802 0.64782441 -0.56797701 -0.84544772 0.26777956
-3.57050753 -3.52248144 1.95580578 -0.42208552 -0.69305915 0.80843633
-3.60277128 -3.20963430 1.84510446 -0.42589957 -0.63150549 0.76267773
-6.05536985 -3.42737460 1.26082850 -0.71583211 -0.67434663 0.52116603
-4.04050732 -3.10124803 0.43412924 -0.47764629 -0.61018020 0.17944822
-3.80924129 -2.95895410 1.79959428 -0.45030731 -0.58218342 0.74386603
-4.15238619 -2.98490214 0.40149033 -0.49087200 -0.58728874 0.16595685
-4.06840801 -2.83711886 1.80614400 -0.48094457 -0.55821192 0.74657333
-5.03251648 -3.98635697 0.79824859 -0.59491611 -0.78432810 0.32995769
-4.94202089 -3.65459561 0.72727102 -0.58421820 -0.71905303 0.30061898
-3.83101535 -2.80136633 2.00851798 -0.45288131 -0.55117750 0.83022505
-4.78662777 -3.14582849 0.43812719 -0.56584853 -0.61895150 0.18110077
-5.60579062 -3.42653847 0.47240072 -0.66268539 -0.67418206 0.19526781
-5.16523266 -3.50280714 0.70540786 -0.61060506 -0.68918818 0.29158178
-4.97758913 -3.14492488 0.61605024 -0.58842289 -0.61877376 0.25464565
-3.52015018 -3.46539521 1.36836696 -0.41613257 -0.68182725 0.56561732
-3.64762354 -3.25467515 1.31496394 -0.43120176 -0.64036745 0.54354304
-3.92718697 -3.62116027 0.32930896 -0.46425021 -0.71247452 0.13612053
-3.55140829 -3.67329788 1.69540787 -0.41982773 -0.72273278 0.70080036
-4.05125999 -3.50573015 0.30337855 -0.47891742 -0.68976331 0.12540215
-3.59148097 -3.35731292 1.59597194 -0.42456490 -0.66056174 0.65969831
-3.76020384 -2.93035340 1.24275982 -0.44451037 -0.57655615 0.51369733
-4.04006481 -2.83346701 1.24198079 -0.47759399 -0.55749345 0.51337534
-4.26793480 -3.39528346 0.28083760 -0.50453150 -0.66803259 0.11608480
-3.69799566 -3.01888204 1.51108575 -0.43715647 -0.59397441 0.62461042
-4.62867785 -3.44322562 0.26928136 -0.54717654 -0.67746532 0.11130800
-3.86400390 -2.84860563 1.47315478 -0.45678103 -0.56047201 0.60893154
-5.20559740 -3.18849802 1.48462570 -0.61537677 -0.62734687 0.61367309
-7.11899233 -3.86268306 1.89302385 -0.84156770 -0.75999486 0.78248531
-4.74816847 -3.23456216 0.23692420 -0.56130207 -0.63641018 0.09793311
-5.18973494 -3.32782793 1.83687639 -0.61350161 -0.65476048 0.75927663
-4.54229689 -4.46643972 1.07606602 -0.53696507 -0.87878591 0.44479409
-4.67392778 -4.16261053 1.02389836 -0.55252576 -0.81900656 0.42323050
-3.51590419 -3.62053752 1.11164510 -0.41563064 -0.71235198 0.45950079
-3.66071844 -3.41133976 1.07297266 -0.43274978 -0.67119169 0.44351545
-4.78221798 -3.76201248 0.95078361 -0.56532723 -0.74018764 0.39300835
-4.95450306 -3.50767088 0.89314479 -0.58569378 -0.69014513 0.36918324
-4.88611507 -4.42606544 0.66575438 -0.57760936 -0.87084210 0.27519095
-3.56140137 -3.55803633 1.96318769 -0.42100906 -0.70005471 0.81148767
-3.59086609 -3.23966217 1.84946322 -0.42449221 -0.63741362 0.76447946
-4.13390589 -2.66083121 0.92601049 -0.48868737 -0.52352679 0.38276833
-5.83389235 -3.35136414 1.21801472 -0.68965030 -0.65939128 0.50346887
-4.02719831 -3.13147902 0.43502334 -0.47607297 -0.61612821 0.17981780
-3.79789495 -2.98864031 1.80315089 -0.44896603 -0.58802426 0.74533612
-4.11258984 -2.99579310 0.39875951 -0.48616749 -0.58943158 0.16482806
-4.01979065 -2.84110928 1.79221880 -0.47519729 -0.55899709 0.74081731
-5.03354359 -4.03903627 0.80316168 -0.59503752 -0.79469293 0.33198854
-4.98410273 -3.73404717 0.73871750 -0.58919287 -0.73468536 0.30535039
-3.81185794 -2.82429457 2.00772643 -0.45061663 -0.55568874 0.82989788
-4.68085718 -3.11816239 0.42770922 -0.55334491 -0.61350811 0.17679448
-5.60958767 -3.47735286 0.47517797 -0.66313422 -0.68417996 0.19641580
-5.01275110 -3.44495273 0.68395245 -0.59257954 -0.67780513 0.28271315
-4.81764269 -3.07874465 2.35420799 -0.56951493 -0.60575259 0.97311670
-4.87737608 -3.12504935 0.60383970 -0.57657629 -0.61486316 0.24959838
-3.50373459 -3.49289989 1.37055314 -0.41419202 -0.68723887 0.56652099
-3.61705184 -3.26852345 1.31123793 -0.42758775 -0.64309216 0.54200292
-3.90435719 -3.64576387 0.32930896 -0.46155140 -0.71731538 0.13612053
-3.53998184 -3.70791698 1.70118308 -0.41847697 -0.72954416 0.70318753
-4.02764893 -3.52980757 0.30321422 -0.47612625 -0.69450063 0.12533422
-3.57861900 -3.38760805 1.59975111 -0.42304444 -0.66652238 0.66126043
-3.96836567 -2.82087779 1.22494948 -0.46911812 -0.55501646 0.50633538
-4.25735378 -3.43083167 0.28191027 -0.50328070 -0.67502677 0.11652819
-3.69064379 -3.05180717 1.51601636 -0.43628737 -0.60045254 0.62664849
-4.57021141 -3.44475174 0.26604033 -0.54026496 -0.67776561 0.10996832
-3.83682847 -2.86601543 1.46955788 -0.45356852 -0.56389743 0.60744476
-5.08510399 -3.15833783 1.45516300 -0.60113269 -0.62141275 0.60149461
-7.09970188 -3.91013956 1.89441299 -0.83928728 -0.76933211 0.78305954
-4.80311251 -3.31676078 0.24291748 -0.56779724 -0.65258300 0.10041044
-5.17192507 -3.36246681 1.83803844 -0.61139619 -0.66157579 0.75975698
-4.52388620 -4.50465441 1.07846940 -0.53478867 -0.88630474 0.44578755
-4.64768124 -4.19189548 1.02389836 -0.54942304 -0.82476848 0.42323050
-3.49174213 -3.64114380 1.11120212 -0.41277432 -0.71640635 0.45931768
-3.63493514 -3.43026972 1.07167625 -0.42970181 -0.67491621 0.44297957
-4.84626055 -3.86241293 0.96899676 -0.57289797 -0.75994176 0.40053681
-4.04994488 -2.91010475 0.72768569 -0.47876194 -0.57257217 0.30079037
-4.67114353 -3.50319195 1.16193569 -0.55219662 -0.68926388 0.48028851
-3.52075672 -3.56176162 1.95285296 -0.41620427 -0.70078766 0.80721581
-5.00454712 -4.31644344 0.63052332 -0.59160972 -0.84927362 0.26062810
-3.57734466 -3.26841569 1.85309553 -0.42289379 -0.64307094 0.76598084
-4.15481186 -2.71158195 0.93482810 -0.49115875 -0.53351218 0.38641313
-5.72763348 -3.33870411 1.19971836 -0.67708898 -0.65690041 0.49590605
-3.78632569 -3.01830053 1.80670738 -0.44759837 -0.59386003 0.74680620
-4.10331535 -3.02862239 0.40001991 -0.48507112 -0.59589088 0.16534905
-3.97128534 -2.84460139 1.77829373 -0.46946326 -0.55968416 0.73506135
-5.01419306 -4.07559538 0.80431771 -0.59275001 -0.80188602 0.33246639
-5.10128403 -3.87139583 0.76356477 -0.60304540 -0.76170915 0.31562108
-3.77635384 -2.83503270 1.99822903 -0.44641954 -0.55780149 0.82597208
-4.59207773 -3.10048938 0.41929471 -0.54284990 -0.61003089 0.17331633
-5.57918215 -3.50725698 0.47425222 -0.65953988 -0.69006371 0.19603314
-4.99911976 -3.48207164 0.68529344 -0.59096813 -0.68510842 0.28326744
-4.74876451 -3.07666993 2.32951927 -0.56137252 -0.60534436 0.96291161
-4.85431004 -3.15348339 0.60333091 -0.57384950 -0.62045765 0.24938807
-3.50598860 -3.53954816 1.38039052 -0.41445845 -0.69641709 0.57058728
-3.61785841 -3.31061888 1.31922233 -0.42768309 -0.65137452 0.54530329
-3.90012479 -3.68809080 0.33157662 -0.46105105 -0.72564334 0.13705787
-3.45968080 -3.66921425 1.67294872 -0.40898421 -0.72192931 0.69151682
-4.02782774 -3.57480597 0.30567920 -0.47614738 -0.70335418 0.12635313
-3.58615375 -3.43749261 1.61297822 -0.42393515 -0.67633736 0.66672784
-3.91274428 -2.81875253 1.21292734 -0.46254286 -0.55459833 0.50136602
-4.22647238 -3.44991302 0.28099084 -0.49963006 -0.67878109 0.11614814
-3.67866325 -3.08107519 1.51909792 -0.43487111 -0.60621113 0.62792224
-4.55801678 -3.48063016 0.26688582 -0.53882337 -0.68482476 0.11031780
-3.81569242 -2.88777614 1.46835887 -0.45106992 -0.56817895 0.60694915
-4.89801264 -3.08415580 1.40589750 -0.57901579 -0.60681725 0.58113062
-7.24506664 -4.04917622 1.94071579 -0.85647148 -0.79668802 0.80219889
-4.75281811 -3.32617331 0.24057229 -0.56185174 -0.65443492 0.09944105
-4.52250910 -2.97787189 1.60909510 -0.53462589 -0.58590555 0.66512275
-4.51623774 -4.55404091 1.08361959 -0.53388453 -0.89602166 0.44791639
-4.64461756 -4.24221802 1.02923155 -0.54906082 -0.83466959 0.42543498
-3.46612477 -3.66016793 1.11031640 -0.40974599 -0.72014940 0.45895156
-3.62748289 -3.46647477 1.07599759 -0.42882085 -0.68203968 0.44476581
-4.82342863 -3.89403152 0.96931630 -0.57019889 -0.76616281 0.40066889
-3.99791670 -2.91119194 0.72134507 -0.47261146 -0.57278603 0.29816946
-3.72951651 -3.13274503 1.00743628 -0.44088268 -0.61637729 0.41642585
-3.90762138 -2.97318411 0.97167623 -0.46193725 -0.58498323 0.40164438
-4.79648495 -4.44162750 0.65897006 -0.56701374 -0.87390399 0.27238664
-3.48580217 -3.55964613 1.94251823 -0.41207215 -0.70037144 0.80294389
-3.56740308 -3.29026747 1.85600138 -0.42171854 -0.64737034 0.76718199
-4.11910772 -2.71590948 0.92946082 -0.48693800 -0.53436363 0.38419455
-5.69316864 -3.35473490 1.19569314 -0.67301470 -0.66005450 0.49424222
-3.76480412 -3.03021884 1.80315089 -0.44505420 -0.59620500 0.74533612
-4.10978985 -3.06329489 0.40275070 -0.48583648 -0.60271281 0.16647783
-3.93498230 -2.84689474 1.76784980 -0.46517172 -0.56013536 0.73074436
-5.01171637 -4.11304188 0.80749679 -0.59245723 -0.80925375 0.33378047
-5.12237692 -3.92538309 0.77054435 -0.60553890 -0.77233130 0.31850609
-3.76735759 -2.85610676 2.00060344 -0.44535604 -0.56194788 0.82695353
-4.51018286 -3.07587481 0.41108054 -0.53316873 -0.60518789 0.16992098
-4.89965534 -3.07574558 2.04815030 -0.57920998 -0.60516250 0.84660715
-4.99235821 -3.51246572 0.68690258 -0.59016883 -0.69108856 0.28393260
-4.69724846 -3.07462621 2.31100273 -0.55528259 -0.60494226 0.95525771
-5.09538269 -3.34305620 0.64250648 -0.60234779 -0.65775669 0.26558137
-3.49195361 -3.55878782 1.38148355 -0.41279933 -0.70020258 0.57103908
-3.61216807 -3.33674669 1.32294834 -0.42701042 -0.65651530 0.54684341
-3.88844562 -3.71195340 0.33227435 -0.45967039 -0.73033834 0.13734628
-3.45393848 -3.69798255 1.67872393 -0.40830538 -0.72758955 0.69390398
-4.02136374 -3.60301852 0.30682951 -0.47538325 -0.70890510 0.12682861
-3.56717587 -3.45172501 1.61171854 -0.42169169 -0.67913759 0.66620719
-3.88528371 -2.82696652 1.20841908 -0.45929661 -0.55621445 0.49950251
-4.21783876 -3.47616124 0.28175703 -0.49860942 -0.68394554 0.11646485
-3.65976024 -3.09467196 1.51724899 -0.43263650 -0.60888630 0.62715799
-4.55423737 -3.51177168 0.26801312 -0.53837663 -0.69095200 0.11078378
-3.79595828 -2.90111637 1.46596086 -0.44873706 -0.57080364 0.60595793
-4.79029942 -3.04748869 1.37836683 -0.56628257 -0.59960288 0.56975079
-7.13430738 -4.03180742 1.91571224 -0.84337813 -0.79327065 0.79186362
-4.83137941 -3.41568017 0.24812904 -0.57113880 -0.67204571 0.10256465
-4.40988445 -2.93306231 1.57306838 -0.52131200 -0.57708913 0.65023106
-4.52363014 -4.60488033 1.09082997 -0.53475839 -0.90602452 0.45089680
-4.62021255 -4.26006174 1.02823162 -0.54617584 -0.83818036 0.42502165
-3.45415282 -3.68217230 1.11208797 -0.40833074 -0.72447884 0.45968384
-3.61957264 -3.49163055 1.07859039 -0.42788574 -0.68698913 0.44583756
-4.78823662 -3.90294147 0.96580148 -0.56603867 -0.76791584 0.39921603
-3.72660303 -3.16045451 1.01078260 -0.44053829 -0.62182921 0.41780907
-3.89045000 -2.98919058 0.97087342 -0.45990735 -0.58813250 0.40131253
-4.71217060 -4.41853905 0.64952046 -0.55704659 -0.86936128 0.26848063
-3.48009443 -3.59891677 1.95211482 -0.41139740 -0.70809805 0.80691069
-4.97620630 -4.38823080 0.63352954 -0.58825940 -0.86339802 0.26187074
-3.56169772 -3.32654524 1.86399245 -0.42104408 -0.65450811 0.77048510
-4.09870720 -2.73954177 0.92869413 -0.48452637 -0.53901333 0.38387764
-5.67366886 -3.39144325 1.19605899 -0.67070955 -0.66727698 0.49439344
-3.75579715 -3.06212449 1.80813003 -0.44398946 -0.60248250 0.74739426
-4.06817436 -3.07236433 0.39980984 -0.48091695 -0.60449719 0.16526222
-3.92915082 -2.88037992 1.77341986 -0.46448234 -0.56672370 0.73304677
-4.99032831 -4.14825964 0.80836380 -0.58992887 -0.81618297 0.33413884
-5.09133911 -3.95265222 0.76942760 -0.60186976 -0.77769661 0.31804448
-3.75810671 -2.88639641 2.00535202 -0.44426247 -0.56790745 0.82891637
-4.42709208 -3.05978632 0.40326706 -0.52334619 -0.60202247 0.16669127
-4.80262756 -3.05668664 2.01493907 -0.56773990 -0.60141259 0.83287919
-4.90114641 -3.15952063 0.40371069 -0.57938623 -0.62164551 0.16687465
-4.97341013 -3.54607606 0.68743896 -0.58792889 -0.69770145 0.28415433
-4.61188459 -3.05996966 2.27782750 -0.54519135 -0.60205853 0.94154471
-5.12725067 -3.40998459 0.65064681 -0.60611504 -0.67092508 0.26894620
-3.48018932 -3.59175491 1.38585579 -0.41140863 -0.70668894 0.57284635
-3.59395814 -3.36199903 1.32401288 -0.42485774 -0.66148376 0.54728347
-3.87789130 -3.74882340 0.33384427 -0.45842272 -0.73759264 0.13799521
-3.48689628 -3.78110528 1.70695829 -0.41220146 -0.74394423 0.70557475
-3.98531556 -3.61620975 0.30535054 -0.47112185 -0.71150053 0.12621728
-3.55086303 -3.47936177 1.61423790 -0.41976327 -0.68457526 0.66724855
-3.85181141 -2.83989859 1.20340991 -0.45533970 -0.55875885 0.49743196
-4.21880579 -3.52184772 0.28405559 -0.49872375 -0.69293445 0.11741497
-3.65032268 -3.12631202 1.52156317 -0.43152085 -0.61511159 0.62894130
-4.51947069 -3.53053665 0.26688582 -0.53426671 -0.69464403 0.11031780
-3.77614164 -2.92374802 1.46536136 -0.44639444 -0.57525653 0.60571015
-4.71410656 -3.04050159 1.36146200 -0.55727547 -0.59822816 0.56276309
-7.04460526 -4.03993320 1.89811718 -0.83277404 -0.79486942 0.78459066
-5.24515820 -3.76013255 0.28317675 -0.62005341 -0.73981774 0.11705169
-4.31381845 -2.90799308 1.54459572 -0.50995564 -0.57215667 0.63846183
-4.51238441 -4.65165281 1.09529340 -0.53342897 -0.91522712 0.45274177
-4.60925770 -4.30376053 1.03189814 -0.54488081 -0.84677827 0.42653722
-3.46261978 -3.73826957 1.12271726 -0.40933165 -0.73551613 0.46407750
-3.59756279 -3.51430392 1.07859039 -0.42528385 -0.69145024 0.44583756
-4.78032112 -3.94683146 0.96931630 -0.56510299 -0.77655137 0.40066889
-4.87366819 -3.62577391 0.89374864 -0.57613796 -0.71338230 0.36943284
-3.70371509 -3.18124604 1.00994599 -0.43783259 -0.62592006 0.41746324
-3.90416503 -3.03871417 0.97930264 -0.46152866 -0.59787643 0.40479675
-4.69579792 -4.45903158 0.65145886 -0.55511111 -0.87732834 0.26928186
-3.47658634 -3.64095449 1.96318769 -0.41098270 -0.71636909 0.81148767
-3.54208541 -3.35013318 1.86471891 -0.41872564 -0.65914911 0.77078539
-4.08141327 -2.76524043 0.92869413 -0.48248196 -0.54406965 0.38387764
-5.66403913 -3.43412447 1.19862056 -0.66957122 -0.67567468 0.49545228
-5.33512402 -4.36322927 0.63641953 -0.63068867 -0.85847890 0.26306534
-3.74940968 -3.09642887 1.81453168 -0.44323435 -0.60923201 0.75004041
-4.04562140 -3.09546018 0.39938971 -0.47825086 -0.60904139 0.16508856
-3.85964346 -2.86721349 1.74974716 -0.45626557 -0.56413317 0.72326159
-4.86602306 -4.09637547 0.78957838 -0.57523417 -0.80597460 0.32637385
-5.07888794 -3.99431849 0.77166104 -0.60039788 -0.78589457 0.31896767
-3.73262453 -2.90434361 2.00139475 -0.44125012 -0.57143861 0.82728064
-4.34600925 -3.04392457 0.39565393 -0.51376104 -0.59890163 0.16354437
-4.74231529 -3.06012797 1.99731696 -0.56061012 -0.60208970 0.82559508
-4.76591635 -3.11547971 0.39093545 -0.56340009 -0.61298031 0.16159397
-4.10325146 -2.96040368 0.54556501 -0.48506355 -0.58246863 0.22551042
-4.52536583 -3.04332829 2.24388075 -0.53496355 -0.59878427 0.92751271
-5.14693737 -3.46971965 0.65700650 -0.60844231 -0.68267810 0.27157500
-3.47079706 -3.62750506 1.39132094 -0.41029832 -0.71372288 0.57510537
-3.58119345 -3.39243436 1.32720661 -0.42334875 -0.66747200 0.54860359
-3.86560798 -3.78430772 0.33523974 -0.45697066 -0.74457431 0.13857204
-3.46561003 -3.80575061 1.70824170 -0.40968513 -0.74879324 0.70610523
-3.97282505 -3.65058041 0.30650085 -0.46964526 -0.71826303 0.12669276
-3.53434324 -3.50692964 1.61675739 -0.41781038 -0.68999928 0.66829002
-3.82299900 -2.85597849 1.19990337 -0.45193368 -0.56192261 0.49598253
-4.18900442 -3.54181981 0.28328940 -0.49520078 -0.69686407 0.11709826
-3.62487960 -3.14417481 1.51909792 -0.42851311 -0.61862618 0.62792224
-4.51916170 -3.57611799 0.26885861 -0.53423017 -0.70361233 0.11113326
-3.74865890 -2.94038939 1.46176434 -0.44314560 -0.57853073 0.60422331
-4.57499361 -2.99102449 1.32572043 -0.54083031 -0.58849335 0.54798925
-5.74418354 -3.34657240 1.54760504 -0.67904544 -0.65844852 0.63970572
-4.88151312 -3.54444814 0.25568581 -0.57706535 -0.69738120 0.10568825
-4.21036577 -2.87640524 1.51321769 -0.49772602 -0.56594169 0.62549162
-4.45997381 -4.65565252 1.08945656 -0.52723330 -0.91601408 0.45032912
-4.59649801 -4.34613848 1.03523147 -0.54337239 -0.85511625 0.42791507
-3.43382096 -3.75417423 1.12094569 -0.40592721 -0.73864543 0.46334520
-3.57959247 -3.54094172 1.07988679 -0.42315951 -0.69669127 0.44637343
-4.80073881 -4.01493406 0.97890216 -0.56751662 -0.78995073 0.40463123
-4.86661863 -3.66817164 0.89676797 -0.57530457 -0.72172415 0.37068090
-3.72187948 -3.23798776 1.02082169 -0.43997988 -0.63708413 0.42195874
-3.87264681 -3.05353045 0.97609150 -0.45780277 -0.60079157 0.40346944
-4.68052864 -4.50087261 0.65363950 -0.55330604 -0.88556069 0.27018324
-3.46760798 -3.67765951 1.97130787 -0.40992132 -0.72359091 0.81484419
-3.53853011 -3.38900518 1.87416291 -0.41830534 -0.66679728 0.77468908
-4.33825445 -2.98086667 0.99386752 -0.51284432 -0.58649480 0.41081718
-5.33661318 -4.42083931 0.64066654 -0.63086474 -0.86981386 0.26482084
-3.72702289 -3.11751533 1.81310916 -0.44058791 -0.61338085 0.74945241
-4.03870678 -3.13051605 0.40107021 -0.47743344 -0.61593878 0.16578320
-3.91368413 -2.94522238 1.78316748 -0.46265396 -0.57948166 0.73707592
-4.87172699 -4.15393305 0.79564750 -0.57590848 -0.81729925 0.32888255
-5.06456041 -4.03475475 0.77361536 -0.59870416 -0.79385054 0.31977549
-3.73022366 -2.94017792 2.01010084 -0.44096628 -0.57848912 0.83087933
-4.26692152 -3.02832437 0.38824114 -0.50441170 -0.59583223 0.16048028
-4.66015863 -3.04843187 1.97020578 -0.55089802 -0.59978843 0.81438863
-4.66804409 -3.09393835 0.38223347 -0.55183017 -0.60874200 0.15799700
-4.06223631 -2.96966100 0.54181033 -0.48021498 -0.58429003 0.22395842
-4.47117710 -3.04766679 2.22613573 -0.52855766 -0.59963793 0.92017776
-5.08235455 -3.47303081 0.65039241 -0.60080767 -0.68332958 0.26884103
-3.45846105 -3.66047096 1.39569318 -0.40884003 -0.72020900 0.57691264
-3.57656837 -3.43081450 1.33359420 -0.42280200 -0.67502344 0.55124390
-3.84598327 -3.81274509 0.33576304 -0.45465073 -0.75016946 0.13878834
-3.45802236 -3.84582663 1.71658361 -0.40878817 -0.75667834 0.70955336
-3.97030973 -3.69440269 0.30880147 -0.46934792 -0.72688520 0.12764372
-3.51896143 -3.53576708 1.61990666 -0.41599205 -0.69567317 0.66959172
-3.79568601 -2.87297082 1.19689786 -0.44870487 -0.56526595 0.49474019
-4.16817760 -3.56937265 0.28344265 -0.49273875 -0.70228517 0.11716160
-3.62356615 -3.18329120 1.52711010 -0.42835784 -0.62632245 0.63123411
-4.52470207 -3.62680316 0.27139506 -0.53488511 -0.71358478 0.11218171
-3.73610568 -2.96860719 1.46416235 -0.44166163 -0.58408266 0.60521454
-4.46735477 -2.96040869 1.29915571 -0.52810585 -0.58246958 0.53700870
-4.82547188 -3.55009866 0.25294971 -0.57044041 -0.69849294 0.10455728
-4.12631178 -2.85678315 1.48881257 -0.48778963 -0.56208098 0.61540371
-4.75984383 -3.27120352 0.20599882 -0.56268227 -0.64361948 0.08515004
-5.10038805 -3.15638781 1.72287190 -0.60293949 -0.62102908 0.71215266
-4.45897341 -4.71373081 1.09666681 -0.52711505 -0.92744118 0.45330948
-4.59053135 -4.39532185 1.04023135 -0.54266709 -0.86479324 0.42998177
-3.39584923 -3.75969672 1.11607397 -0.40143842 -0.73973203 0.46133146
-3.55311799 -3.55923367 1.07859039 -0.42002985 -0.70029026 0.44583756
-4.76039410 -4.03220892 0.97570688 -0.56274730 -0.79334962 0.40331045
-4.84505033 -3.69987154 0.89706993 -0.57275492 -0.72796124 0.37080571
-3.67953014 -3.24182439 1.01454723 -0.43497357 -0.63783902 0.41936520
-3.89331913 -3.10943031 0.98652768 -0.46024653 -0.61179006 0.40778324
-4.68193388 -4.55937099 0.65872777 -0.55347216 -0.89707041 0.27228647
-3.44821572 -3.70347071 1.97352242 -0.40762886 -0.72866935 0.81575954
-3.52388167 -3.41762996 1.87779522 -0.41657367 -0.67242932 0.77619052
-4.27285242 -2.97535419 0.98274970 -0.50511283 -0.58541018 0.40622160
-5.00863791 -3.12609982 1.06469035 -0.59209329 -0.61506987 0.44009194
-5.31480598 -4.45941067 0.64156061 -0.62828678 -0.87740290 0.26519039
-3.72583652 -3.15665650 1.82235610 -0.44044766 -0.62108195 0.75327462
-4.01111174 -3.14971948 0.40001991 -0.47417131 -0.61971706 0.16534905
-3.91155410 -2.98219085 1.79082632 -0.46240216 -0.58675534 0.74024177
-4.83955622 -4.17926788 0.79449147 -0.57210541 -0.82228392 0.32840469
-5.05456066 -4.07888556 0.77640718 -0.59752202 -0.80253339 0.32092950
-3.71455693 -2.96583724 2.01168370 -0.43911424 -0.58353770 0.83153361
-4.18820381 -3.01185226 0.38082835 -0.49510616 -0.59259129 0.15741618
-4.61431885 -3.05987597 1.95868361 -0.54547912 -0.60204011 0.80962592
-4.56234837 -3.06576943 0.37260577 -0.53933543 -0.60319966 0.15401736
-4.40954304 -3.04617310 2.20453310 -0.52127165 -0.59934402 0.91124827
-4.95582294 -3.43295240 0.63411170 -0.58584982 -0.67544407 0.26211137
-3.44062042 -3.68777680 1.39787924 -0.40673101 -0.72558153 0.57781625
-3.54799986 -3.44653106 1.33093274 -0.41942480 -0.67811567 0.55014378
-3.83455825 -3.84958625 0.33733293 -0.45330015 -0.75741804 0.13943726
-3.41876531 -3.85042048 1.70888340 -0.40414742 -0.75758219 0.70637047
-3.94410729 -3.71655297 0.30847281 -0.46625042 -0.73124331 0.12750787
-3.50870109 -3.56994295 1.62557542 -0.41477913 -0.70239735 0.67193496
-3.78680873 -2.90379310 1.19990337 -0.44765547 -0.57133031 0.49598253
-4.14867163 -3.59811568 0.28374910 -0.49043289 -0.70794046 0.11728828
-3.60915828 -3.21107841 1.52957535 -0.42665461 -0.63178962 0.63225311
-4.46610117 -3.62636328 0.26815403 -0.52795762 -0.71349823 0.11084202
-3.72483706 -2.99797320 1.46715987 -0.44032952 -0.58986056 0.60645354
-6.16642904 -3.69520640 1.67632675 -0.72896093 -0.72704333 0.69291312
-4.82222319 -3.59472585 0.25451320 -0.57005638 -0.70727348 0.10520355
-4.03798628 -2.83290339 1.46266425 -0.47734827 -0.55738252 0.60459530
-4.70142508 -3.27493358 0.20326312 -0.55577630 -0.64435333 0.08401923
-5.12444115 -3.21576905 1.73805857 -0.60578293 -0.63271254 0.71843010
-4.43999195 -4.75320673 1.09941363 -0.52487117 -0.93520820 0.45444489
-4.58128643 -4.44186497 1.04456449 -0.54157418 -0.87395072 0.43177289
-3.44711375 -3.86568236 1.14176154 -0.40749860 -0.76058501 0.47194949
-3.53619075 -3.58702850 1.08031893 -0.41802880 -0.70575899 0.44655204
-4.70059729 -4.03236055 0.96835768 -0.55567849 -0.79337949 0.40027264
-4.84365654 -3.74710441 0.90129697 -0.57259011 -0.73725444 0.37255296
-3.66345024 -3.26880383 1.01580215 -0.43307272 -0.64314729 0.41988391
-3.88134646 -3.13996172 0.98853469 -0.45883119 -0.61779720 0.40861285
-3.91617537 -3.85735679 0.53200644 -0.46294847 -0.75894696 0.21990596
-3.44617176 -3.74841070 1.98607171 -0.40738726 -0.73751146 0.82094681
-3.51301742 -3.45010495 1.88360691 -0.41528937 -0.67881888 0.77859277
-4.80584383 -3.39476991 1.11501348 -0.56812012 -0.66793150 0.46089312
-3.77801704 -3.24238467 1.85863268 -0.44661614 -0.63794923 0.76826966
-4.00217247 -3.18348336 0.40149033 -0.47311455 -0.62636024 0.16595685
-3.88827372 -3.00328898 1.78873754 -0.45965010 -0.59090644 0.73937833
-4.81468725 -4.21090078 0.79478049 -0.56916553 -0.82850778 0.32852414
-5.05035400 -4.12804317 0.78031576 -0.59702474 -0.81220531 0.32254511
-3.70588017 -2.99715996 2.01722383 -0.43808854 -0.58970052 0.83382362
-4.14514303 -3.02043390 0.37782317 -0.49001575 -0.59427977 0.15617399
-4.34731913 -2.92098856 1.85091674 -0.51391590 -0.57471359 0.76508027
-4.48524475 -3.05535102 0.36612555 -0.53022069 -0.60114980 0.15133876
-4.93013668 -3.70582056 0.69548476 -0.58281332 -0.72913170 0.28748006
-4.39785385 -3.07913876 2.20839071 -0.51988983 -0.60583013 0.91284287
-4.96182203 -3.48330688 0.63843626 -0.58655900 -0.68535143 0.26389894
-3.43555164 -3.72920442 1.40553057 -0.40613180 -0.73373252 0.58097893
-3.54835343 -3.49029613 1.33944941 -0.41946661 -0.68672663 0.55366415
-3.82282186 -3.88643360 0.33890286 -0.45191273 -0.76466787 0.14008619
-3.42558336 -3.90755725 1.72492564 -0.40495342 -0.76882404 0.71300155
-3.94093871 -3.76044965 0.31077346 -0.46587583 -0.73988014 0.12845886
-3.50345969 -3.60955620 1.63376367 -0.41415951 -0.71019137 0.67531955
-3.76081848 -2.92162204 1.19739878 -0.44458303 -0.57483822 0.49494725
-4.14390230 -3.63996983 0.28558797 -0.48986909 -0.71617538 0.11804838
-3.59876847 -3.24264884 1.53388965 -0.42542639 -0.63800120 0.63403642
-4.44013739 -3.65182900 0.26787221 -0.52488834 -0.71850872 0.11072553
-3.71186280 -3.02611494 1.46955788 -0.43879578 -0.59539753 0.60744476
-4.01218510 -2.72962546 1.17309415 -0.47429821 -0.53706229 0.48490089
-6.16640663 -3.74796033 1.68280923 -0.72895831 -0.73742282 0.69559264
-4.79001093 -3.61770439 0.25373146 -0.56624842 -0.71179456 0.10488042
-3.95323730 -2.81025934 1.43767798 -0.46732971 -0.55292726 0.59426713
-4.70364618 -3.32044721 0.20492834 -0.55603886 -0.65330827 0.08470755
-5.10575724 -3.24892807 1.73862112 -0.60357422 -0.63923669 0.71866262
-4.42601538 -4.79843903 1.10353374 -0.52321893 -0.94410777 0.45614794
-4.55328703 -4.47056198 1.04456449 -0.53826427 -0.87959695 0.43177289
-3.41634130 -3.87992048 1.13954711 -0.40386087 -0.76338643 0.47103414
-3.52452540 -3.62032580 1.08377600 -0.41664979 -0.71231037 0.44798103
-4.67368269 -4.06051588 0.96803814 -0.55249679 -0.79891908 0.40014055
-4.95731258 -3.88432837 0.92786705 -0.58602589 -0.76425368 0.38353574
-3.87826705 -3.17787910 0.99294996 -0.45846716 -0.62525755 0.41043791
-3.84284759 -3.83263493 0.52352607 -0.45428005 -0.75408280 0.21640058
-3.44121051 -3.79070783 1.99714458 -0.40680075 -0.74583352 0.82552379
-4.80541801 -4.51390362 0.62867332 -0.56806976 -0.88812453 0.25986341
-3.50321054 -3.48388624 1.89014494 -0.41413006 -0.68546546 0.78129530
-4.24627161 -3.03684878 0.98543334 -0.50197059 -0.59750944 0.40733090
-4.12481117 -2.65116239 0.87843227 -0.48761222 -0.52162445 0.36310178
-3.72804880 -3.24018645 1.84369528 -0.44070917 -0.63751674 0.76209521
-3.99141359 -3.21601701 0.40275070 -0.47184271 -0.63276136 0.16647783
-3.87228966 -3.02995872 1.79013002 -0.45776054 -0.59615380 0.73995394
-4.76154375 -4.21736526 0.78957838 -0.56288320 -0.82977968 0.32637385
-5.02737617 -4.16220999 0.78087407 -0.59430844 -0.81892776 0.32277590
-3.68127203 -3.01575398 2.01405811 -0.43517950 -0.59335893 0.83251506
-4.11969852 -3.04166555 0.37702179 -0.48700783 -0.59845716 0.15584274
-4.24512100 -2.89072299 1.81431675 -0.50183457 -0.56875873 0.74995154
-4.40023994 -3.03845978 0.35871962 -0.52017188 -0.59782642 0.14827749
-5.06246233 -3.85611558 0.72203583 -0.59845614 -0.75870270 0.29845500
-3.99721551 -2.83404899 2.01242495 -0.47252858 -0.55760795 0.83183998
-4.14428616 -2.95243454 0.51353246 -0.48991445 -0.58090067 0.21226969
-4.88491631 -3.09833026 2.32290268 -0.57746762 -0.60960609 0.96017659
-3.41591954 -3.75500178 1.40717018 -0.40381101 -0.73880827 0.58165669
-3.52909613 -3.51523185 1.34051394 -0.41719010 -0.69163281 0.55410421
-3.81353879 -3.92615390 0.34082162 -0.45081535 -0.77248299 0.14087932
-3.39726162 -3.92469239 1.72300053 -0.40160537 -0.77219540 0.71220583
-3.92298746 -3.79065585 0.31143078 -0.46375376 -0.74582332 0.12873055
-3.47675419 -3.62740231 1.63187408 -0.41100255 -0.71370268 0.67453849
-3.76986742 -2.96663117 1.20641541 -0.44565275 -0.58369392 0.49867430
-4.11946535 -3.66460371 0.28543475 -0.48698029 -0.72102219 0.11798504
-3.57272291 -3.26004291 1.53142440 -0.42234743 -0.64142358 0.63301742
-4.42632914 -3.68728399 0.26871771 -0.52325600 -0.72548455 0.11107501
-3.69129944 -3.04816890 1.46895838 -0.43636489 -0.59973669 0.60719699
-4.01566601 -2.76919055 1.17937303 -0.47470969 -0.54484683 0.48749626
-5.08421087 -3.13822317 1.38739741 -0.60102713 -0.61745512 0.57348359
-4.77034760 -3.65016580 0.25399205 -0.56392395 -0.71818143 0.10498814
-3.90763664 -2.81479096 1.42721868 -0.46193907 -0.55381888 0.58994377
-4.99150181 -3.22090840 1.70599771 -0.59006757 -0.63372374 0.70517766
-4.40635681 -4.83784008 1.10628057 -0.52089500 -0.95186007 0.45728335
-4.54053974 -4.51432800 1.04823112 -0.53675735 -0.88820803 0.43328848
-3.40463448 -3.91607809 1.14397597 -0.40247694 -0.77050054 0.47286484
-3.51529884 -3.65642190 1.08809733 -0.41555908 -0.71941239 0.44976726
-4.67615795 -4.11467314 0.97410923 -0.55278939 -0.80957472 0.40265006
-4.94522905 -3.92519236 0.93028247 -0.58459747 -0.77229381 0.38453418
-3.78293157 -3.80828834 0.51625717 -0.44719711 -0.74929255 0.21339597
-3.42083430 -3.80410790 1.99566817 -0.40439200 -0.74847007 0.82491356
-4.77831030 -4.53104830 0.62774837 -0.56486523 -0.89149785 0.25948107
-3.50392056 -3.51744795 1.89958894 -0.41421399 -0.69206882 0.78519899
-3.97486472 -2.86962318 0.92332691 -0.46988639 -0.56460726 0.38165909
-4.16683578 -2.70568419 0.89050794 -0.49258015 -0.53235179 0.36809328
-4.98556852 -4.33083153 0.60400838 -0.58936620 -0.85210454 0.24966811
-3.80513549 -3.33946729 1.89064145 -0.44982195 -0.65705055 0.78150052
-3.97002292 -3.22979426 0.40191045 -0.46931401 -0.63547206 0.16613051
-3.88896251 -3.07245374 1.80475152 -0.45973152 -0.60451484 0.74599773
-4.75044346 -4.24769926 0.79131240 -0.56157100 -0.83574802 0.32709062
-4.98180819 -4.16434336 0.77612799 -0.58892167 -0.81934750 0.32081410
-3.67696214 -3.04122019 2.01959825 -0.43467000 -0.59836954 0.83480507
-4.11963463 -3.07180762 0.37882492 -0.48700029 -0.60438770 0.15658806
-4.18352413 -2.87744689 1.79330564 -0.49455294 -0.56614661 0.74126655
-4.31217766 -3.00817466 0.35038796 -0.50976163 -0.59186769 0.14483358
-5.17027283 -3.17704535 2.08510756 -0.61120087 -0.62509352 0.86188352
-5.06460667 -3.89570284 0.72552234 -0.59870964 -0.76649165 0.29989615
-3.73702025 -2.67456651 1.88512433 -0.44176975 -0.52622926 0.77922004
-4.07865191 -2.93506122 0.50539213 -0.48215553 -0.57748240 0.20890488
-4.83588266 -3.09945226 2.30628705 -0.57167113 -0.60982686 0.95330852
-3.41870117 -3.79400682 1.41591454 -0.40413985 -0.74648261 0.58527118
-3.52887225 -3.54815984 1.34690154 -0.41716364 -0.69811147 0.55674452
-3.80462742 -3.95416689 0.34204268 -0.44976190 -0.77799463 0.14138405
-3.39591193 -3.96085811 1.73198426 -0.40144581 -0.77931112 0.71591926
-3.92799354 -3.83128357 0.31406006 -0.46434554 -0.75381696 0.12981737
-3.47668552 -3.66157246 1.64006221 -0.41099441 -0.72042572 0.67792308
-3.73759317 -2.96998572 1.20040441 -0.44183746 -0.58435392 0.49618962
-4.11545897 -3.69601631 0.28681388 -0.48650667 -0.72720271 0.11855511
-3.59495854 -3.31180668 1.54806507 -0.42497599 -0.65160823 0.63989586
-4.42727995 -3.72344637 0.27040866 -0.52336842 -0.73259962 0.11177398
-3.68571854 -3.07282329 1.47255528 -0.43570513 -0.60458750 0.60868376
-3.98828101 -2.77803969 1.17502606 -0.47147238 -0.54658794 0.48569945
-4.98664999 -3.11094093 1.36424601 -0.58949399 -0.61208731 0.56391388
-4.77672052 -3.69098854 0.25594637 -0.56467730 -0.72621346 0.10579596
-3.84958911 -2.80033541 1.41036749 -0.45507699 -0.55097467 0.58297831
-4.52992868 -2.95556593 1.55019295 -0.53550297 -0.58151680 0.64077544
-4.45322132 -4.93630123 1.12447786 -0.52643508 -0.97123259 0.46480525
-4.53178310 -4.54820776 1.05123103 -0.53572220 -0.89487398 0.43452850
-3.39121008 -3.93800974 1.14574754 -0.40088999 -0.77481562 0.47359711
-3.51831532 -3.69407678 1.09457946 -0.41591567 -0.72682106 0.45244667
-4.66701841 -4.14587545 0.97634590 -0.55170894 -0.81571388 0.40357459
-4.91585016 -3.93983245 0.92816895 -0.58112448 -0.77517426 0.38366055
-3.83404946 -3.21281600 0.99054164 -0.45324001 -0.63213152 0.40944242
-4.42088366 -4.51193619 0.63207507 -0.52261227 -0.88773745 0.26126954
-3.41038013 -3.84086943 2.00378847 -0.40315616 -0.75570297 0.82827008
-4.75405836 -4.56509638 0.62844211 -0.56199831 -0.89819688 0.25976783
-3.50405812 -3.56188560 1.91193879 -0.41423026 -0.70081204 0.79030383
-3.89515829 -2.84908628 0.90837532 -0.46046394 -0.56056654 0.37547880
-4.11187887 -2.70709991 0.88209158 -0.48608345 -0.53263032 0.36461437
-4.98951006 -4.38973570 0.60870242 -0.58983213 -0.86369413 0.25160840
-3.71725512 -3.30343485 1.85649872 -0.43943322 -0.64996105 0.76738757
-3.95427108 -3.25845098 0.40254065 -0.46745193 -0.64111036 0.16639102
-3.88133025 -3.10615182 1.81032157 -0.45882925 -0.61114502 0.74830014
-4.72073555 -4.27479744 0.79073441 -0.55805910 -0.84107965 0.32685170
-4.95857525 -4.19811249 0.77668637 -0.58617520 -0.82599169 0.32104492
-3.66484618 -3.07013035 2.02355552 -0.43323773 -0.60405767 0.83644086
-4.09075451 -3.09039664 0.37762284 -0.48358625 -0.60804516 0.15609118
-4.07762289 -2.84198904 1.75467217 -0.48203388 -0.55917019 0.72529733
-4.24590731 -3.00205350 0.34501866 -0.50192755 -0.59066337 0.14261417
-4.98642683 -3.10816431 2.01780939 -0.58946764 -0.61154097 0.83406568
-5.04470778 -3.93111730 0.72632688 -0.59635729 -0.77345955 0.30022871
-3.83032131 -2.77864718 1.94221675 -0.45279926 -0.54670745 0.80281931
-4.06816769 -2.96644163 0.50666404 -0.48091614 -0.58365661 0.20943062
-4.71825886 -3.06655002 2.25870562 -0.55776632 -0.60335326 0.93364060
-3.40498018 -3.82695127 1.42028666 -0.40251783 -0.75296456 0.58707839
-3.50786543 -3.57163215 1.34743381 -0.41468033 -0.70272970 0.55696452
-3.78380871 -3.98234200 0.34256598 -0.44730082 -0.78353816 0.14160036
-3.37826777 -3.99082017 1.73583436 -0.39936003 -0.78520626 0.71751070
-3.89957380 -3.85170174 0.31356707 -0.46098593 -0.75783426 0.12961359
-3.44578695 -3.67506766 1.63628304 -0.40734175 -0.72308099 0.67636096
-3.73247981 -3.00427985 1.20491266 -0.44123301 -0.59110141 0.49805313
-4.09950686 -3.72853708 0.28758007 -0.48462090 -0.73360127 0.11887182
-3.56299257 -3.32389951 1.54313445 -0.42119715 -0.65398753 0.63785779
-4.41598415 -3.76149654 0.27153596 -0.52203310 -0.74008614 0.11223995
-3.66633892 -3.09592056 1.47255528 -0.43341419 -0.60913199 0.60868376
-3.90593266 -2.75688195 1.15522325 -0.46173763 -0.54242510 0.47751391
-4.74873304 -3.71722221 0.25555551 -0.56136882 -0.73137504 0.10563440
-3.82577586 -2.81989932 1.40804315 -0.45226192 -0.55482394 0.58201754
-4.48398829 -2.96607208 1.54063094 -0.53007215 -0.58358389 0.63682294
-4.40252686 -4.94205570 1.11932766 -0.52044225 -0.97236478 0.46267641
-4.51699209 -4.59060478 1.05456424 -0.53397369 -0.90321577 0.43590629
-3.38274813 -3.97861981 1.15150511 -0.39988968 -0.78280580 0.47597700
-3.49503541 -3.71610975 1.09457946 -0.41316363 -0.73115611 0.45244667
-4.64526749 -4.17909288 0.97730452 -0.54913765 -0.82224953 0.40397084
-4.89253759 -3.97188282 0.92847091 -0.57836854 -0.78148025 0.38378537
-3.62952399 -3.39580941 1.02876937 -0.42906213 -0.66813606 0.42524394
-3.78230906 -3.21034575 0.98211241 -0.44712353 -0.63164550 0.40595818
-4.53416300 -4.68703461 0.65703166 -0.53600353 -0.92218864 0.27158538
-3.40447783 -3.88325906 2.01486135 -0.40245843 -0.76404327 0.83284706
-4.72956657 -4.59901810 0.62913585 -0.55910307 -0.90487111 0.26005459
-3.47117829 -3.57318187 1.90612710 -0.41034338 -0.70303464 0.78790158
-4.11282778 -2.74481440 0.88611680 -0.48619562 -0.54005075 0.36627820
-3.68812013 -3.31918907 1.85223091 -0.43598905 -0.65306073 0.76562345
-3.93831563 -3.28703713 0.40317085 -0.46556577 -0.64673477 0.16665150
-3.79451847 -3.07644176 1.77829373 -0.44856685 -0.60529947 0.73506135
-4.71268845 -4.32182264 0.79449147 -0.55710781 -0.85033202 0.32840469
-4.93210030 -4.22918510 0.77668637 -0.58304548 -0.83210528 0.32104492
-3.64970040 -3.09664369 2.02592969 -0.43144727 -0.60927427 0.83742219
-4.08701038 -3.12819552 0.37962627 -0.48314363 -0.61548221 0.15691930
-3.99685502 -2.82278633 1.72688329 -0.47248596 -0.55539197 0.71381074
-4.18637848 -2.99983358 0.34038994 -0.49489036 -0.59022659 0.14070088
-4.88202953 -3.08626151 1.98284078 -0.57712638 -0.60723156 0.81961131
-5.03077078 -3.97136712 0.72820425 -0.59470975 -0.78137881 0.30100474
-3.82316136 -2.81035328 1.94761741 -0.45195287 -0.55294573 0.80505168
-4.68184757 -3.08498836 2.25039792 -0.55346197 -0.60698104 0.93020660
-3.39098001 -3.85987258 1.42465889 -0.40086278 -0.75944191 0.58888566
-3.49209428 -3.60049415 1.35009527 -0.41281596 -0.70840842 0.55806464
-3.77772260 -4.02644968 0.34500805 -0.44658133 -0.79221648 0.14260979
-3.37851763 -4.04258919 1.74930990 -0.39938956 -0.79539198 0.72308087
-3.87388134 -3.87472296 0.31340274 -0.45794868 -0.76236379 0.12954567
-3.42262793 -3.69664550 1.63628304 -0.40460402 -0.72732645 0.67636096
-3.59740877 -3.24749064 1.26398480 -0.42526564 -0.63895386 0.52247071
-3.71202397 -3.02645516 1.20441175 -0.43881482 -0.59546447 0.49784607
-4.07307529 -3.75150847 0.28727359 -0.48149630 -0.73812091 0.11874513
-3.53514957 -3.33965874 1.54005289 -0.41790572 -0.65708822 0.63658404
-4.41650534 -3.80993462 0.27379060 -0.52209467 -0.74961644 0.11317191
-3.66136718 -3.13123536 1.47855031 -0.43282646 -0.61608028 0.61116183
-3.93574595 -2.81544328 1.16971314 -0.46526200 -0.55394721 0.48350334
-4.72066116 -3.02917147 1.30034816 -0.55805027 -0.59599888 0.53750157
-4.71436644 -3.73826885 0.25464347 -0.55730617 -0.73551601 0.10525740
-3.88745952 -2.90376830 1.43825901 -0.45955384 -0.57132542 0.59450734
-4.36298513 -2.92616343 1.50463271 -0.51576781 -0.57573175 0.62194306
-4.34674978 -4.94143486 1.11280417 -0.51384860 -0.97224265 0.45997989
-4.50874043 -4.64004469 1.05956411 -0.53299820 -0.91294318 0.43797299
-3.36392403 -4.00728893 1.15371954 -0.39766437 -0.78844655 0.47689235
-3.49563980 -3.76365590 1.10235786 -0.41323510 -0.74051100 0.45566189
-4.62619352 -4.21486902 0.97890216 -0.54688287 -0.82928854 0.40463123
-4.81389570 -3.95876718 0.91790324 -0.56907195 -0.77889973 0.37941718
-3.63074350 -3.44016218 1.03546202 -0.42920631 -0.67686260 0.42801034
-4.51692581 -4.72838926 0.65921235 -0.53396583 -0.93032527 0.27248678
-3.37274551 -3.89611244 2.01043200 -0.39870721 -0.76657224 0.83101618
-4.69347811 -4.62169647 0.62797958 -0.55483687 -0.90933311 0.25957665
-3.44736338 -3.59358191 1.90540063 -0.40752813 -0.70704842 0.78760129
-4.76811695 -3.58644891 1.13111520 -0.56366026 -0.70564497 0.46754879
-4.11999702 -2.78702688 0.89160573 -0.48704311 -0.54835618 0.36854705
-5.20617819 -4.69924021 0.65005457 -0.61544544 -0.92459011 0.26870140
-3.52818012 -3.21455312 1.78038907 -0.41708183 -0.63247329 0.73592746
-3.93892121 -3.32960916 0.40611172 -0.46563736 -0.65511096 0.16786711
-3.77656770 -3.10140634 1.77898991 -0.44644481 -0.61021131 0.73534912
-4.68688679 -4.35269928 0.79478049 -0.55405766 -0.85640711 0.32852414
-3.64135671 -3.12904334 2.03226137 -0.43046093 -0.61564898 0.84003943
-4.05473280 -3.14400840 0.37802354 -0.47932795 -0.61859339 0.15625681
-3.93479872 -2.81590033 1.70722771 -0.46515000 -0.55403715 0.70568609
-4.16098356 -3.02142310 0.33964935 -0.49188831 -0.59447438 0.14039476
-4.77173519 -3.05911851 1.94523311 -0.56408799 -0.60189104 0.80406612
-4.99645472 -3.99544168 0.72659510 -0.59065306 -0.78611559 0.30033958
-3.78477669 -2.81879997 1.93681610 -0.44741523 -0.55460763 0.80058694
-4.88433933 -3.65110326 0.64301521 -0.57739943 -0.71836591 0.26579165
-4.60525560 -3.07649112 2.22245336 -0.54440773 -0.60530919 0.91865569
-3.38297462 -3.90005970 1.43176365 -0.39991644 -0.76734889 0.59182245
-3.48279405 -3.63623309 1.35541821 -0.41171652 -0.71544015 0.56026489
-3.76988220 -4.06917048 0.34727570 -0.44565451 -0.80062193 0.14354713
-3.38184905 -4.09891510 1.76471043 -0.39978337 -0.80647427 0.72944671
-3.87757254 -3.92725086 0.31668937 -0.45838505 -0.77269882 0.13090420
-3.70938087 -4.05445957 1.78807938 -0.43850237 -0.79772753 0.73910630
-3.60391951 -3.29490924 1.27382076 -0.42603531 -0.64828360 0.52653641
-3.71091342 -3.06443763 1.21042275 -0.43868354 -0.60293764 0.50033075
-4.05233002 -3.77975726 0.28758007 -0.47904390 -0.74367899 0.11887182
-3.55106831 -3.39747190 1.55669355 -0.41978753 -0.66846317 0.64346248
-4.36384726 -3.81276894 0.27111322 -0.51586974 -0.75017411 0.11206520
-3.65609622 -3.16660953 1.48454535 -0.43220335 -0.62304026 0.61363989
-3.89604640 -2.82407713 1.16295123 -0.46056893 -0.55564594 0.48070827
-4.69078541 -3.76781607 0.25464347 -0.55451858 -0.74132949 0.10525740
-3.88130713 -2.93742633 1.44290769 -0.45882654 -0.57794774 0.59642887
-4.24107265 -2.88378119 1.46807206 -0.50135601 -0.56739289 0.60683060
-4.28600550 -4.93434381 1.10490716 -0.50666773 -0.97084749 0.45671564
-4.48771620 -4.67679358 1.06156409 -0.53051287 -0.92017365 0.43879971
-3.35725975 -4.05094290 1.16036296 -0.39687657 -0.79703557 0.47963843
-3.47192335 -3.78554535 1.10235786 -0.41043147 -0.74481779 0.45566189
-4.62131977 -4.26400566 0.98369509 -0.54630673 -0.83895636 0.40661240
-4.85290337 -4.04187155 0.93058443 -0.57368326 -0.79525077 0.38465899
-3.63717079 -3.49010253 1.04382801 -0.42996609 -0.68668848 0.43146846
-3.76243091 -3.27554774 0.98773187 -0.44477364 -0.64447421 0.40828100
-4.51428318 -4.78564310 0.66405827 -0.53365344 -0.94159013 0.27448985
-3.37584805 -3.94983459 2.02741051 -0.39907399 -0.77714223 0.83803433
-3.79372883 -3.78829551 0.48529968 -0.44847351 -0.74535888 0.20059963
-3.44016051 -3.63134146 1.91411817 -0.40667665 -0.71447772 0.79120469
-4.09770060 -3.11918521 0.97163188 -0.48440737 -0.61370939 0.40162605
-5.20288420 -4.75607204 0.65407807 -0.61505604 -0.93577194 0.27036452
-3.60233164 -3.32452297 1.82946908 -0.42584759 -0.65411019 0.75621480
-3.96794939 -3.39678097 0.41304380 -0.46906891 -0.66832721 0.17073250
-3.78159547 -3.14535427 1.79082632 -0.44703919 -0.61885822 0.74024177
-4.65082169 -4.37389946 0.79304647 -0.54979426 -0.86057830 0.32780740
-3.63274956 -3.16146016 2.03859305 -0.42944345 -0.62202710 0.84265661
-4.03645849 -3.17065811 0.37822387 -0.47716767 -0.62383682 0.15633962
-3.93069577 -2.85056710 1.71332777 -0.46466500 -0.56085795 0.70820755
-4.13387394 -3.04163837 0.33872360 -0.48868358 -0.59845179 0.14001210
-4.84603548 -3.14941216 1.98416042 -0.57287133 -0.61965662 0.82015681
-4.99122190 -4.04303694 0.73008162 -0.59003448 -0.79548007 0.30178073
-3.75818229 -2.83581805 1.93218696 -0.44427142 -0.55795598 0.79867345
-4.49821329 -3.04649973 2.17940354 -0.53175378 -0.59940827 0.90086097
-3.36463165 -3.92856908 1.43449628 -0.39774802 -0.77295816 0.59295201
-3.47717333 -3.67618251 1.36233795 -0.41105208 -0.72330034 0.56312519
-3.74825883 -4.09720182 0.34779900 -0.44309831 -0.80613720 0.14376344
-3.35245609 -4.11566305 1.76278532 -0.39630872 -0.80976951 0.72865093
-3.85282040 -3.95153666 0.31668937 -0.45545900 -0.77747709 0.13090420
-3.42829156 -3.79691958 1.66210735 -0.40527356 -0.74705571 0.68703550
-3.57749772 -3.31221485 1.27175009 -0.42291188 -0.65168858 0.52568054
-3.69903827 -3.09387302 1.21292734 -0.43727973 -0.60872912 0.50136602
-4.05017090 -3.82576323 0.28987864 -0.47878867 -0.75273079 0.11982193
-3.53101254 -3.42104626 1.55730987 -0.41741666 -0.67310148 0.64371723
