-6.41564751 17.62400055 0.20626627 -0.88685131 0.98944384 0.08144037
-4.74272919 13.53009033 1.61095476 -0.65559953 0.75960422 0.63605529
-6.22013140 17.62572098 0.85790670 -0.85982460 0.98954046 0.33872840
-5.49676704 17.66165543 0.74375814 -0.75983214 0.99155784 0.29365897
-4.66862822 12.68046093 1.04466414 -0.64535636 0.71190441 0.41246608
-5.77373934 17.64609909 1.39239872 -0.79811871 0.99068451 0.54976255
-5.07875586 17.64944649 1.27305555 -0.70204937 0.99087244 0.50264215
-5.02873850 12.44018650 2.30421782 -0.69513535 0.69841498 0.90977722
-6.53672266 17.61145210 0.20681663 -0.90358782 0.98873937 0.08165767
-4.72026587 13.20108223 1.57218730 -0.65249437 0.74113309 0.62074870
-6.34771585 17.63325119 0.86056715 -0.87746096 0.98996317 0.33977881
-5.61969995 17.66485786 0.74566281 -0.77682543 0.99173766 0.29441100
-4.75242662 12.66206264 1.04571080 -0.65694004 0.71087152 0.41287932
-4.72717714 14.13350582 1.09035873 -0.65344977 0.79348105 0.43050772
-5.19294310 17.62866211 1.27397501 -0.71783376 0.98970556 0.50300515
-4.97283316 12.08422565 2.24310207 -0.68740743 0.67843068 0.88564682
-6.65860271 17.59994507 0.20740369 -0.92043561 0.98809332 0.08188946
-4.81882286 13.21403885 1.57776010 -0.66611814 0.74186045 0.62294900
-4.75322104 14.55355835 1.64338887 -0.65704983 0.81706357 0.64886129
-4.91774273 17.37930298 1.89263117 -0.67979211 0.97570610 0.74726999
-6.46459532 17.60988617 0.86152494 -0.89361751 0.98865145 0.34015697
-5.74165869 17.66341019 0.74737698 -0.79368412 0.99165636 0.29508778
-4.73697805 13.87140274 1.07014608 -0.65480453 0.77876610 0.42252713
-5.08289766 17.79790497 0.65833700 -0.70262188 0.99920714 0.25993204
-4.82246542 16.00579071 1.14632750 -0.66662169 0.89859456 0.45260593
-4.97454739 11.87657738 2.20979738 -0.68764436 0.66677290 0.87249708
-6.78636646 17.60252190 0.20828427 -0.93809676 0.98823798 0.08223715
-4.73579550 12.80039597 1.52687776 -0.65464109 0.71863782 0.60285908
-4.75382662 14.32538891 1.61818290 -0.65713358 0.80425370 0.63890922
-4.84604788 16.82518005 1.83049107 -0.66988158 0.94459659 0.72273511
-6.56009197 17.61290169 0.86344045 -0.90681821 0.98882073 0.34091330
-5.83045149 17.65323448 0.74823403 -0.80595815 0.99108511 0.29542619
-6.84300804 17.61767578 1.51633465 -0.94592643 0.98908877 0.59869635
-4.69692469 13.54369736 1.04352450 -0.64926785 0.76036811 0.41201609
-5.14431667 17.69702911 0.65489846 -0.71111202 0.99354380 0.25857440
-4.76350927 15.54643726 1.11123598 -0.65847206 0.87280560 0.43875071
-4.99955463 11.78050327 2.19606352 -0.69110119 0.66137916 0.86707455
-6.88238287 17.60385513 0.20894471 -0.95136935 0.98831284 0.08249790
-4.83160162 12.81123066 1.53220820 -0.66788459 0.71924609 0.60496372
-4.72055387 13.93005753 1.57332075 -0.65253419 0.78205907 0.62119621
-5.14126492 17.43470955 1.90559554 -0.71069014 0.97881669 0.75238872
-6.68697596 17.61426163 0.86588806 -0.92435771 0.98889709 0.34187967
-5.95461750 17.65602112 0.75023389 -0.82312196 0.99124151 0.29621580
-5.04693270 12.77065277 1.06385195 -0.69765037 0.71696794 0.42004201
-5.67529726 16.05004883 1.26520669 -0.78451079 0.90107930 0.49954316
-5.26398706 17.69307709 0.65618789 -0.72765434 0.99332196 0.25908351
-4.75874376 15.19092846 1.08503222 -0.65781331 0.85284668 0.42840466
-4.80537128 17.61819458 1.15168321 -0.66425872 0.98911792 0.45472053
-7.00101423 17.58069229 0.20934831 -0.96776807 0.98701245 0.08265726
-4.92201090 12.80654907 1.53560042 -0.68038213 0.71898323 0.60630304
-4.81704044 13.92641926 1.57655823 -0.66587180 0.78185481 0.62247449
-4.80066395 15.91652203 1.73102236 -0.66360801 0.89358288 0.68346173
-6.81124592 17.60727501 0.86791003 -0.94153589 0.98850483 0.34267801
-6.07580709 17.64849281 0.75175762 -0.83987433 0.99081892 0.29681742
-5.01301193 13.89065647 1.07918429 -0.69296139 0.77984703 0.42609569
-5.38322639 17.68640518 0.65739143 -0.74413711 0.99294734 0.25955868
-5.65872002 17.66278458 1.28700030 -0.78221929 0.99162126 0.50814795
-4.84590054 17.33587456 1.13322353 -0.66986120 0.97326791 0.44743207
-7.13394213 17.59192467 0.21044904 -0.98614299 0.98764306 0.08309186
-5.00673866 12.78645515 1.53705418 -0.69209427 0.71785516 0.60687703
-4.75560522 13.47229958 1.52429628 -0.65737945 0.75635970 0.60183984
-5.00242567 12.70915127 0.58973217 -0.69149804 0.71351516 0.23284470
-6.19779682 17.64202309 0.75337654 -0.85673726 0.99045569 0.29745662
-4.63985538 11.32806396 0.93337506 -0.64137906 0.63597840 0.36852565
-4.68047047 12.71350479 0.97861379 -0.64699334 0.71375960 0.38638732
-5.49782181 17.66367531 0.65790719 -0.75997794 0.99167126 0.25976232
-5.78888083 17.68561172 1.29175067 -0.80021173 0.99290282 0.51002353
-4.87924576 17.04031944 1.11377740 -0.67447060 0.95667493 0.43975413
-4.94598627 12.40274620 1.49077547 -0.68369627 0.69631302 0.58860475
-4.77915716 13.27197742 1.50325274 -0.66063505 0.74511325 0.59353119
-4.85041094 17.62953949 1.79252505 -0.67048466 0.98975480 0.70774496
-7.06851101 17.61107445 0.87312454 -0.97709829 0.98871815 0.34473687
-6.31860113 17.63095284 0.75480503 -0.87343633 0.98983419 0.29802063
-4.71170950 11.30052471 0.93354952 -0.65131164 0.63443226 0.36859453
-4.77420998 12.72118950 0.98190039 -0.65995121 0.71419102 0.38768497
-5.61903095 17.66114235 0.65936857 -0.77673298 0.99152905 0.26033932
-5.90179062 17.65456200 1.29221034 -0.81581956 0.99115962 0.51020503
-5.16733885 17.62982178 1.15943348 -0.71429443 0.98977065 0.45778060
-4.88586378 12.03318596 1.44619286 -0.67538542 0.67556524 0.57100219
-4.75877476 12.95808315 1.46810305 -0.65781754 0.72749066 0.57965297
-4.76505375 14.78888702 1.60875416 -0.65868551 0.83027536 0.63518643
-4.84820509 17.19658089 1.74841201 -0.67017972 0.96544772 0.69032770
-4.87809944 14.42409897 2.08432746 -0.67431211 0.80979550 0.82295763
-4.98523140 12.21471977 0.56493664 -0.68912125 0.68575686 0.22305465
-6.44429636 17.63220024 0.75690007 -0.89081150 0.98990422 0.29884782
-4.92872620 11.61342907 0.96616876 -0.68131042 0.65199929 0.38147363
-4.89518309 12.79898167 0.99143159 -0.67667365 0.71855843 0.39144820
-5.73918486 17.65398216 0.66065800 -0.79334217 0.99112707 0.26084843
-5.03646898 17.70264244 0.53578484 -0.69620395 0.99385893 0.21154460
-6.02746201 17.66052246 1.29573488 -0.83319145 0.99149424 0.51159662
-4.97074842 12.44342804 2.23086596 -0.68711925 0.69859695 0.88081563
-5.37385368 12.58061314 0.11314461 -0.74284148 0.70629877 0.04467303
-4.70095444 12.61515045 1.42832839 -0.64982492 0.70823777 0.56394869
-4.75707960 14.53026867 1.58081353 -0.65758324 0.81575602 0.62415463
-4.81933355 16.78915596 1.70618939 -0.66618878 0.94257414 0.67365694
-4.87244892 14.18767643 2.05138087 -0.67353106 0.79652226 0.80994934
-4.75639391 12.81023312 0.51339322 -0.65748847 0.71919006 0.20270370
-4.96764898 12.80738163 0.99422520 -0.68669081 0.71903002 0.39255118
-5.83677530 17.67036438 0.66263521 -0.80683231 0.99204677 0.26162910
-5.10820341 17.63838387 0.53424841 -0.70611995 0.99025136 0.21093798
-6.11716843 17.65075684 1.29726720 -0.84559178 0.99094599 0.51220167
-5.37247372 17.61011696 1.16225171 -0.74265075 0.98866439 0.45889333
-5.03670502 12.43815613 2.23419929 -0.69623655 0.69830102 0.88213176
-4.87005424 11.62739658 1.39967179 -0.67320001 0.65278345 0.55263418
-4.87075567 12.82507324 1.45815933 -0.67329699 0.72002321 0.57572687
-5.08872461 15.21603489 1.66575301 -0.70342737 0.85425621 0.65769136
-4.81134272 16.37103844 1.66354668 -0.66508418 0.91910022 0.65682024
-4.93981218 14.09517956 2.04184365 -0.68284285 0.79132932 0.80618370
-5.11690187 12.15364838 0.56461740 -0.70732242 0.68232822 0.22292860
-4.85157967 12.81935406 0.51539308 -0.67064625 0.71970212 0.20349330
-4.93751097 11.28856945 0.94035244 -0.68252474 0.63376111 0.37128055
-5.01956272 12.70357704 0.98781633 -0.69386697 0.71320224 0.39002079
-5.95729589 17.66173172 0.66392463 -0.82349223 0.99156213 0.26213822
-5.24495935 17.69411659 0.53761387 -0.72502410 0.99338031 0.21226676
-4.69682789 13.29707527 0.94543213 -0.64925450 0.74652231 0.37328616
-4.95899010 12.02680874 2.16486764 -0.68549383 0.67520720 0.85475743
-4.88440990 11.45969105 1.38149953 -0.67518443 0.64336818 0.54545921
-4.95195532 12.79607010 1.45839059 -0.68452144 0.71839494 0.57581818
-4.75816774 13.94105148 1.51800287 -0.65773368 0.78267628 0.59935498
-4.78802347 15.91940117 1.61712277 -0.66186070 0.89374453 0.63849062
-4.79486847 13.41382408 1.94098032 -0.66280687 0.75307679 0.76635975
-5.34313822 12.46982574 0.58483690 -0.73859560 0.70007896 0.23091190
-4.94706678 12.82778263 0.51739293 -0.68384564 0.72017533 0.20428291
-4.92949247 11.08087921 0.92343229 -0.68141633 0.62210095 0.36459994
-6.07728577 17.65039253 0.66512817 -0.84007871 0.99092555 0.26261339
-5.36296558 17.68377113 0.53849179 -0.74133641 0.99279946 0.21261339
-4.70291519 13.05354309 0.92796296 -0.65009594 0.73284996 0.36638880
-4.73507595 14.83931732 0.96201330 -0.65454161 0.83310658 0.37983292
-4.96983099 11.84075069 2.13653517 -0.68699241 0.66476154 0.84357089
-4.89447451 11.28680897 1.36260045 -0.67657572 0.63366222 0.53799725
-5.00757790 12.70182991 1.45052814 -0.69221026 0.71310413 0.57271385
-4.75246286 13.64449406 1.48626232 -0.65694505 0.76602703 0.58682281
-4.82213163 15.67410755 1.59338570 -0.66657555 0.87997329 0.62911850
-5.00646257 12.74249268 0.51463121 -0.69205606 0.71538699 0.20319249
-4.62837887 11.29040527 0.86769050 -0.63979262 0.63386416 0.34259135
-6.19736767 17.63824272 0.66633165 -0.85667795 0.99024343 0.26308858
-5.48576832 17.68791771 0.53995502 -0.75831175 0.99303228 0.21319112
-4.74617577 12.91897202 0.91938162 -0.65607595 0.72529489 0.36300060
-5.77796888 17.73533058 1.17930222 -0.79870337 0.99569410 0.46562538
-4.86202908 17.02508736 1.01774538 -0.67209065 0.95581979 0.40183771
-4.90899563 11.12877941 1.34563959 -0.67858297 0.62479019 0.53130060
-4.88890839 12.17390919 1.38832247 -0.67580628 0.68346566 0.54815310
-4.90959072 13.81464672 1.51017952 -0.67866522 0.77557969 0.59626609
-4.77072477 15.16519451 1.54044998 -0.65946943 0.85140193 0.60821784
-5.22883177 14.06445789 2.05195880 -0.72279477 0.78960454 0.81017751
-4.84754753 17.64860153 1.70411050 -0.67008883 0.99082500 0.67283612
-5.02013731 11.32524490 0.52205002 -0.69394636 0.63582009 0.20612167
-5.11748362 12.78873062 0.51863092 -0.70740283 0.71798289 0.20477170
-5.22461557 11.35627842 0.95605153 -0.72221196 0.63756239 0.37747905
-4.70610762 11.27766895 0.86916947 -0.65053725 0.63314909 0.34317529
-6.32294655 17.64031982 0.66822284 -0.87403703 0.99036002 0.26383528
-5.60401917 17.67597198 0.54083294 -0.77465785 0.99236161 0.21353775
-4.79846478 12.81237316 0.91309881 -0.66330403 0.71931022 0.36051998
-5.87108135 17.64376068 1.17521572 -0.81157452 0.99055320 0.46401191
-4.94538069 11.02350712 1.33570540 -0.68361259 0.61887997 0.52737826
-4.90388107 11.99207401 1.36936021 -0.67787600 0.67325711 0.54066622
-4.73045540 13.05331039 1.42278123 -0.65390289 0.73283690 0.56175852
-4.76162529 14.80910778 1.50431919 -0.65821159 0.83141059 0.59395224
-5.05036497 13.33031368 1.94242537 -0.69812483 0.74838835 0.76693028
-4.88398075 14.48281097 2.01542044 -0.67512512 0.81309170 0.79575098
-4.85604811 17.25587654 1.66624522 -0.67126393 0.96877670 0.65788573
-5.21951771 12.81000805 0.52139264 -0.72150725 0.71917742 0.20586212
-5.19591808 11.11042976 0.93546832 -0.71824503 0.62375998 0.36935213
-4.95848179 11.67748642 0.90762287 -0.68542355 0.65559560 0.35835788
-6.44741917 17.63776207 0.66994214 -0.89124322 0.99021643 0.26451412
-5.72540569 17.67274666 0.54207671 -0.79143745 0.99218053 0.21402884
-4.88672495 12.80245304 0.91478443 -0.67550445 0.71875328 0.36118549
-5.99141932 17.63486862 1.17732942 -0.82820916 0.99005401 0.46484646
-5.02457714 17.73509598 0.44768083 -0.69456011 0.99568093 0.17675839
-5.30358219 17.72144508 1.06947017 -0.73312771 0.99491459 0.42226025
-4.98820686 10.98021317 1.33304012 -0.68953258 0.61644942 0.52632594
-4.87547493 11.76315403 1.34346044 -0.67394930 0.66040516 0.53044021
-4.68723488 12.74749470 1.38880539 -0.64792842 0.71566784 0.54834378
-5.14452457 15.74921894 1.61124110 -0.71114075 0.88419014 0.63616836
-5.04116488 13.11989021 1.91323566 -0.69685310 0.73657483 0.75540525
-4.85374165 14.17097187 1.97242641 -0.67094511 0.79558444 0.77877563
-4.80690098 16.77957344 1.61876333 -0.66447020 0.94203615 0.63913840
-4.98805857 12.07579136 0.48482376 -0.68951207 0.67795718 0.19142358
-5.25848293 11.10741329 0.93756151 -0.72689348 0.62359065 0.37017861
-6.54788542 17.65400124 0.67209125 -0.90513092 0.99112815 0.26536265
-5.81609678 17.66835976 0.54295462 -0.80397391 0.99193424 0.21437547
-4.96000814 12.81273651 0.91754276 -0.68563455 0.71933061 0.36227456
-6.08353567 17.63285255 1.17930222 -0.84094262 0.98994082 0.46562538
-5.10142279 17.68818092 0.44691879 -0.70518267 0.99304706 0.17645751
-5.38236666 17.68098831 1.06842780 -0.74401826 0.99264324 0.42184871
-5.05041456 10.93424702 1.33110178 -0.69813168 0.61386877 0.52556062
-4.84159660 11.47586250 1.31108570 -0.66926622 0.64427608 0.51765764
-4.78264523 12.75871181 1.39372289 -0.66111726 0.71629757 0.55028540
-4.95113564 14.83701801 1.51335192 -0.68440813 0.83297753 0.59751868
-5.12277555 13.08611488 1.91294670 -0.70813435 0.73467857 0.75529116
-4.90297699 14.02610207 1.95539629 -0.67775100 0.78745121 0.77205157
-5.16187572 17.59657097 1.70771670 -0.71353924 0.98790389 0.67425996
-5.33423615 11.08671188 0.93878251 -0.73736507 0.62242842 0.37066069
-5.09931993 11.65149689 0.91025221 -0.70489198 0.65413648 0.35939604
-6.66080475 17.61811638 0.67234915 -0.92074001 0.98911351 0.26546445
-5.93397760 17.65231514 0.54375941 -0.82026887 0.99103349 0.21469322
-5.01397943 12.71457577 0.91202617 -0.69309515 0.71381968 0.36009645
-5.22439003 17.69602585 0.44825238 -0.72218078 0.99348748 0.17698406
-5.50942516 17.69825172 1.07194555 -0.76158190 0.99361247 0.42323762
-5.12748432 10.92025566 1.33352470 -0.70878524 0.61308324 0.52651727
-4.88628006 11.38127899 1.30299211 -0.67544293 0.63896596 0.51446199
-4.89903069 12.82304192 1.40512264 -0.67720550 0.71990919 0.55478632
-4.98291922 14.62480068 1.49318588 -0.68880165 0.82106322 0.58955646
-4.86871243 12.21406651 1.78087068 -0.67301452 0.68572021 0.70314342
-4.77033567 13.37355614 1.86242831 -0.65941566 0.75081605 0.73534495
-4.79514456 15.98049927 1.54122961 -0.66284508 0.89717466 0.60852563
-4.99769258 11.67949677 0.46758687 -0.69084376 0.65570843 0.18461792
-5.41696119 11.07980442 0.94139904 -0.74880034 0.62204063 0.37169376
-4.97373152 11.17095280 0.86982679 -0.68753159 0.62715787 0.34343481
-6.79154062 17.62810326 0.67475611 -0.93881196 0.98967421 0.26641482
-6.06223249 17.66574287 0.54573476 -0.83799785 0.99178731 0.21547315
-5.13927078 12.79563141 0.92137372 -0.71041453 0.71837032 0.36378714
-6.32815981 17.62075615 1.18423426 -0.87475765 0.98926169 0.46757272
-5.33779430 17.67050362 0.44850641 -0.73785692 0.99205464 0.17708436
-5.62658978 17.68229866 1.07324851 -0.77777785 0.99271679 0.42375207
-5.12184954 12.97384167 2.22346711 -0.70800632 0.72837538 0.87789434
-4.89273500 11.20096588 1.28402972 -0.67633522 0.62884283 0.50697505
-4.98456907 12.80496502 1.40668738 -0.68902969 0.71889430 0.55540419
-4.70766068 13.53319263 1.37471056 -0.65075195 0.75977838 0.54277873
-4.86466551 11.98532009 1.74965799 -0.67245513 0.67287797 0.69081968
-5.11458492 14.06207275 1.97019291 -0.70700210 0.78947067 0.77789378
-4.78935623 15.60585880 1.50496709 -0.66204494 0.87614167 0.59420806
-4.99550056 11.47373486 0.45853987 -0.69054079 0.64415663 0.18104587
-5.49980879 11.07229328 0.94401556 -0.76025259 0.62161893 0.37272686
-4.99296093 12.73623562 0.45056209 -0.69018972 0.71503574 0.17789601
-6.17640209 17.63673973 0.54610056 -0.85377979 0.99015903 0.21561758
-4.63397884 11.33719444 0.80292046 -0.64056671 0.63649100 0.31701809
-6.46063852 17.64061928 1.18874347 -0.89307052 0.99037683 0.46935308
-5.45878172 17.66907310 0.44958600 -0.75458133 0.99197429 0.17751060
-5.75120115 17.68833542 1.07611489 -0.79500318 0.99305570 0.42488381
-5.03711557 17.68582344 0.95748448 -0.69629335 0.99291468 0.37804481
-5.73668337 10.69392776 2.08069897 -0.79299635 0.60037678 0.82152504
-5.00590706 12.45260239 2.13815308 -0.69197929 0.69911206 0.84420967
-4.91881704 11.07007885 1.27131104 -0.67994064 0.62149459 0.50195336
-5.04213095 12.71615410 1.39975810 -0.69698662 0.71390831 0.55266827
-4.80452585 13.53710270 1.37849164 -0.66414183 0.75999790 0.54427159
-4.86249161 11.76808071 1.72017932 -0.67215461 0.66068172 0.67918056
-4.77609682 12.87411880 1.79654121 -0.66021204 0.72277671 0.70933062
-4.76110935 15.17499733 1.46269417 -0.65814030 0.85195231 0.57751739
-4.81985283 17.62236404 1.56014752 -0.66626054 0.98935199 0.61599505
-4.98286295 11.25018883 0.44854057 -0.68879384 0.63160634 0.17709784
-5.58547735 11.06951046 0.94715542 -0.77209479 0.62146270 0.37396657
-5.38197851 11.69283295 0.92290568 -0.74396461 0.65645719 0.36439201
-6.30452442 17.64653969 0.54800278 -0.87149048 0.99070925 0.21636863
-4.69281483 11.27841759 0.80046868 -0.64869976 0.63319111 0.31605005
-4.76221514 12.73831940 0.82236779 -0.65829313 0.71515274 0.32469651
-5.58056593 17.66872597 0.45072910 -0.77141583 0.99195480 0.17796195
-5.86790562 17.66889191 1.07728744 -0.81113553 0.99196416 0.42534676
-5.14090061 17.62890053 0.95593822 -0.71063977 0.98971897 0.37743431
-5.81982994 10.68706131 2.08653593 -0.80448991 0.59999132 0.82382965
-5.00222826 12.22186470 2.10332441 -0.69147074 0.68615800 0.83045822
-4.88210773 14.06082916 2.23916078 -0.67486620 0.78940088 0.88409066
-4.97441959 11.00815582 1.26737988 -0.68762672 0.61801815 0.50040120
-4.73775482 13.08564472 1.33122754 -0.65491194 0.73465222 0.52561027
-4.86471367 11.56775665 1.69330180 -0.67246175 0.64943516 0.66856849
-4.81502819 12.73264980 1.77979028 -0.66559362 0.71483439 0.70271683
-5.15711498 16.07858658 1.56146455 -0.71288115 0.90268147 0.61651504
-4.84269333 17.27716064 1.52978313 -0.66941786 0.96997160 0.60400623
-4.83659697 14.38202286 1.91415238 -0.66857511 0.80743325 0.75576723
-6.27541542 12.67065334 0.61537898 -0.86746669 0.71135384 0.24297085
-6.23287249 12.15739059 1.05774677 -0.86158586 0.68253827 0.41763151
-5.52774429 11.81416321 0.93703812 -0.76411420 0.66326886 0.36997196
-5.19491100 12.77608109 0.45537609 -0.71810579 0.71727270 0.17979671
-6.42482662 17.63287926 0.54902703 -0.88812017 0.98994231 0.21677303
-4.90957165 11.59184647 0.82912421 -0.67866260 0.65078759 0.32736418
-6.70727301 17.62519455 1.19381642 -0.92716342 0.98951089 0.47135606
-5.70256090 17.66754341 0.45187220 -0.78827953 0.99188840 0.17841327
-5.01774120 17.71897697 0.32231271 -0.69361514 0.99477601 0.12725914
-5.98973656 17.66379356 1.07950234 -0.82797658 0.99167788 0.42622128
-5.27659273 17.68045616 0.96117175 -0.72939688 0.99261338 0.37950066
-5.90693998 10.68646336 2.09374619 -0.81653136 0.59995776 0.82667649
-5.02481127 12.06088257 2.08063769 -0.69459248 0.67712015 0.82150084
-4.97364616 14.03919888 2.24067044 -0.68751979 0.78818649 0.88468677
-5.36750555 12.59476662 -0.01496904 -0.74196398 0.70709342 -0.00591024
-5.02376842 10.97916889 1.26668620 -0.69444829 0.61639076 0.50012732
-4.87488127 11.91361809 1.30900681 -0.67386729 0.66885245 0.51683682
-4.67844486 12.73255062 1.29404652 -0.64671338 0.71482885 0.51093000
-4.85765314 11.40097427 1.67047024 -0.67148578 0.64007169 0.65955389
-4.90959263 12.80047512 1.79347014 -0.67866552 0.71864223 0.70811808
-4.84659147 14.87397861 1.43644893 -0.66995668 0.83505255 0.56715494
-4.84077406 16.96106529 1.50145543 -0.66915256 0.95222545 0.59282154
-4.86701679 14.25033855 1.89859724 -0.67278016 0.80004025 0.74962556
-6.22916412 12.43040466 0.60282165 -0.86107326 0.69786578 0.23801284
-5.12030458 11.22564316 0.45015949 -0.70779276 0.63022828 0.17773704
-6.27629423 12.10137463 1.05513024 -0.86758816 0.67939347 0.41659841
-5.62927771 11.88533020 0.94591194 -0.77814943 0.66726434 0.37347561
-4.99680281 12.12741184 0.42632025 -0.69072080 0.68085521 0.16832456
-6.52028656 17.63616562 0.55034393 -0.90131581 0.99012685 0.21729299
-4.95388126 11.54477501 0.82713217 -0.68478763 0.64814496 0.32657763
-6.79455328 17.60456276 1.19466186 -0.93922842 0.98835260 0.47168985
-5.79262924 17.66136169 0.45257074 -0.80072993 0.99154139 0.17868908
-5.08077097 17.62403107 0.32046407 -0.70232791 0.98944557 0.12652923
-6.08138227 17.65989304 1.08119607 -0.84064496 0.99145889 0.42689002
-5.36389589 17.66877174 0.96200430 -0.74146503 0.99195737 0.37982938
-5.96880293 10.67912865 2.09786630 -0.82508284 0.59954596 0.82830322
-4.95288610 11.73351860 2.02727652 -0.68465006 0.65874135 0.80043215
-4.99243116 13.88344860 2.21923304 -0.69011647 0.77944237 0.87622261
-5.09766197 10.95820332 1.26807368 -0.70466280 0.61521369 0.50067514
-4.76877642 12.73085785 1.29719746 -0.65920013 0.71473378 0.51217413
-4.85491896 11.19967079 1.64330363 -0.67110783 0.62877017 0.64882767
-5.01649141 12.83766365 1.80379999 -0.69344240 0.72073007 0.71219665
-4.80873728 14.45067501 1.39477706 -0.66472399 0.81128752 0.55070162
-5.16422462 17.67604065 1.57366335 -0.71386391 0.99236548 0.62133151
-4.88507652 14.01558018 1.86936426 -0.67527658 0.78686047 0.73808348
-5.72202587 11.24564457 0.53428811 -0.79097021 0.63135117 0.21095365
-5.24098349 11.30207348 0.45587340 -0.72447449 0.63451922 0.17999308
-6.35406685 12.06522369 1.05547917 -0.87833887 0.67736387 0.41673619
-5.95115900 12.36556244 0.99307489 -0.82264388 0.69422543 0.39209703
-4.99688816 11.91531372 0.41789579 -0.69073260 0.66894764 0.16499832
-4.82823896 12.79569817 0.36268523 -0.66741979 0.71837407 0.14319947
-5.17767191 11.85858536 0.85609418 -0.71572280 0.66576284 0.33801275
-4.99469995 12.68757153 0.82490420 -0.69043010 0.71230364 0.32569796
-5.91686058 17.66440773 0.45390436 -0.81790274 0.99171239 0.17921564
-5.21846581 17.68383598 0.32286233 -0.72136182 0.99280310 0.12747614
-6.20549631 17.65897751 1.08380187 -0.85780156 0.99140751 0.42791885
-5.48778200 17.67668152 0.96462107 -0.75859010 0.99240148 0.38086256
-6.07575560 10.71161461 2.11194372 -0.83986717 0.60136980 0.83386141
-4.92562151 11.46831608 1.98605716 -0.68088120 0.64385241 0.78415745
-5.14873314 14.04123497 2.25003028 -0.71172249 0.78830081 0.88838232
-5.58418322 10.85491943 1.35097015 -0.77191591 0.60941517 0.53340524
-4.86925888 11.48752689 1.26452529 -0.67309004 0.64493090 0.49927413
-4.88117504 12.78616619 1.30686033 -0.67473727 0.71783894 0.51598930
-4.90515471 11.12370968 1.63607848 -0.67805207 0.62450552 0.64597493
-4.85261822 12.18912125 1.71027374 -0.67078978 0.68431973 0.67526954
-4.95920706 14.59532261 1.41340911 -0.68552381 0.81940830 0.55805808
-4.77559948 15.96559906 1.41091788 -0.66014332 0.89633816 0.55707449
-4.75905895 13.38547421 1.78327429 -0.65785688 0.75148517 0.70409244
-5.77693558 11.17933369 0.53247899 -0.79856056 0.62762839 0.21023935
-5.32122993 11.28881264 0.45692095 -0.73556715 0.63377476 0.18040667
-6.46272182 12.08650780 1.06158435 -0.89335853 0.67855883 0.41914669
-4.99529552 11.70553684 0.40955728 -0.69051242 0.65717041 0.16170602
-4.90210962 12.74831009 0.36202678 -0.67763114 0.71571362 0.14293949
-4.89549732 11.02631378 0.78882259 -0.67671710 0.61903757 0.31145182
-6.03422022 17.64579010 0.45453942 -0.83412564 0.99066716 0.17946638
-5.33695841 17.67558861 0.32351184 -0.73774135 0.99234009 0.12773259
-6.32510948 17.64405251 1.08549559 -0.87433600 0.99056959 0.42858759
-5.60355330 17.65708160 0.96557266 -0.77459347 0.99130106 0.38123828
-6.22376251 10.81312466 2.14009809 -0.86032659 0.60706872 0.84497762
-4.99996185 11.44256496 1.98701584 -0.69115746 0.64240664 0.78453600
-4.71951866 12.61897278 2.02358079 -0.65239108 0.70845234 0.79897296
-5.66518641 10.84423161 1.35436225 -0.78311318 0.60881513 0.53474456
-4.98009109 12.80346775 1.31232190 -0.68841070 0.71881026 0.51814574
-4.95706654 11.05297470 1.62972033 -0.68522793 0.62053436 0.64346457
-4.85498714 11.97474289 1.68235540 -0.67111725 0.67228413 0.66424650
-5.14375305 14.83072472 1.44185817 -0.71103412 0.83262420 0.56929070
-5.39986277 17.65546989 1.57810688 -0.74643677 0.99121058 0.62308592
-4.97330666 13.71285820 1.83476734 -0.68747288 0.76986510 0.72442353
-6.48096848 12.34612560 0.60495001 -0.89588082 0.69313425 0.23885319
-5.41269875 11.29842949 0.45920649 -0.74821115 0.63431466 0.18130907
-6.56140947 12.08765411 1.06577075 -0.90700036 0.67862314 0.42079961
-6.13260269 12.34339428 0.99800485 -0.84772533 0.69298089 0.39404353
-5.00804043 11.53472137 0.40302402 -0.69227421 0.64758050 0.15912649
-5.01334238 12.79732513 0.36517271 -0.69300711 0.71846539 0.14418161
-5.35757875 11.86159611 0.86191726 -0.74059176 0.66593188 0.34031188
-4.61354923 11.29498100 0.72358721 -0.63774270 0.63412106 0.28569487
-6.15686560 17.64148712 0.45568252 -0.85107923 0.99042559 0.17991771
-5.45672894 17.67037201 0.32426131 -0.75429755 0.99204725 0.12802850
-6.45096540 17.64518356 1.08836198 -0.89173341 0.99063313 0.42971933
-5.72788715 17.66331863 0.96818942 -0.79178047 0.99165124 0.38227147
-5.03438568 13.21015835 2.12503004 -0.69591600 0.74164259 0.83902830
-5.74814177 10.83645916 1.35823905 -0.79458028 0.60837877 0.53627527
-4.87937117 11.12171364 1.22719657 -0.67448789 0.62439346 0.48453557
-5.03051281 12.69606686 1.30370939 -0.69538063 0.71278059 0.51474524
-4.85259867 11.75532818 1.65359962 -0.67078710 0.65996575 0.65289283
-5.27214909 14.89749241 1.45247650 -0.72878259 0.83637267 0.57348311
-4.75373650 15.19134331 1.34148729 -0.65712112 0.85286999 0.52966112
-4.77922249 12.92701435 1.72588110 -0.66064411 0.72574639 0.68143183
-4.88086748 14.84008598 1.86432493 -0.67469478 0.83314973 0.73609376
-6.52073574 12.23471737 0.60069323 -0.90137792 0.68687958 0.23717247
-5.50624037 11.31093502 0.46168250 -0.76114166 0.63501674 0.18228668
-6.64397669 12.05839443 1.06699181 -0.91841382 0.67698050 0.42128173
-6.22794580 12.34023380 1.00129139 -0.86090481 0.69280344 0.39534116
-5.01154661 11.34777355 0.39571708 -0.69275886 0.63708490 0.15624148
-5.10176849 12.78600502 0.36597750 -0.70523047 0.71782988 0.14449936
-5.42281485 11.80778027 0.86023164 -0.74960953 0.66291052 0.33964634
-4.68671465 11.27130127 0.72400999 -0.64785653 0.63279164 0.28586179
-6.27902174 17.63445663 0.45676211 -0.86796516 0.99003088 0.18034396
-5.57664394 17.66434669 0.32501075 -0.77087373 0.99170893 0.12832440
-4.76162243 12.79081631 0.75286812 -0.65821123 0.71810001 0.29725587
-5.84188414 17.63646126 0.96878409 -0.80753857 0.99014342 0.38250625
-5.04242182 12.98464203 2.09332728 -0.69702685 0.72898173 0.82651109
-5.83122206 10.82807064 1.36211574 -0.80606467 0.60790783 0.53780586
-4.94102478 11.07270050 1.22496140 -0.68301046 0.62164181 0.48365307
-4.90878582 11.68258476 1.64717841 -0.67855400 0.65588182 0.65035754
-4.79064894 13.27758980 1.28258359 -0.66222364 0.74542832 0.50640410
-5.69319868 17.81202698 1.60013962 -0.78698540 1.00000000 0.63178515
-4.78597307 12.70025253 1.69745266 -0.66157728 0.71301556 0.67020738
-4.74373770 14.12055588 1.77121949 -0.65573895 0.79275399 0.69933283
-6.65179920 12.29354763 0.60675913 -0.91949517 0.69018239 0.23956747
-6.76153517 12.09112453 1.07449245 -0.93466425 0.67881799 0.42424321
-6.20562983 12.10559654 0.98321503 -0.85782003 0.67963046 0.38820404
-5.04001951 11.22134972 0.39124697 -0.69669473 0.62998724 0.15447654
-5.18575191 12.76296043 0.36634332 -0.71683973 0.71653610 0.14464380
-5.53329515 11.85111427 0.86682087 -0.76488149 0.66534340 0.34224799
-4.87361193 11.51741695 0.74514705 -0.67369181 0.64660901 0.29420736
-6.40543890 17.63785362 0.45822272 -0.88544017 0.99022156 0.18092066
-5.69914579 17.66512489 0.32596007 -0.78780746 0.99175262 0.12869923
-4.86392975 12.81845760 0.75690711 -0.67235339 0.71965182 0.29885060
-5.96852064 17.64670563 0.97175771 -0.82504380 0.99071854 0.38368031
-5.68878031 10.70160770 2.01453853 -0.78637463 0.60080796 0.79540282
-4.91812515 12.43028164 2.00757837 -0.67984498 0.69785893 0.79265469
-5.90123177 10.83530903 1.36696172 -0.81574231 0.60831422 0.53971922
-4.97836161 11.01671791 1.22093797 -0.68817163 0.61849886 0.48206449
-4.86072493 11.88107109 1.21716356 -0.67191041 0.66702521 0.48057422
-4.87259007 11.44416237 1.61423481 -0.67355055 0.64249635 0.63735038
-4.68762779 12.80476665 1.23430026 -0.64798272 0.71888316 0.48734033
-4.94309330 12.93104172 1.73419511 -0.68329638 0.72597247 0.68471444
-4.75344181 13.93087196 1.74857903 -0.65708035 0.78210479 0.69039369
-6.69043207 12.22705364 0.60463071 -0.92483550 0.68644929 0.23872711
-6.22293139 12.43867779 0.52501142 -0.86021167 0.69833028 0.20729092
-6.28548145 12.12049007 0.98732334 -0.86885810 0.68046665 0.38982612
-5.12771368 11.27380943 0.39485744 -0.70881695 0.63293242 0.15590206
-5.26707172 12.79016018 0.36839181 -0.72808075 0.71806318 0.14545260
-5.12361383 11.95304775 0.78037548 -0.70825022 0.67106611 0.30811664
-6.49749613 17.63184738 0.45904830 -0.89816546 0.98988438 0.18124662
-5.78977633 17.66087914 0.32655963 -0.80033553 0.99151427 0.12893595
-4.93435526 12.82145500 0.75873113 -0.68208849 0.71982008 0.29957077
-6.05937004 17.64105034 0.97318500 -0.83760220 0.99040103 0.38424388
-5.75124884 10.69728184 2.01887178 -0.79500979 0.60056508 0.79711372
-4.98104620 12.41798401 2.00938988 -0.68854272 0.69716847 0.79336995
-5.99135208 10.83794212 1.37253451 -0.82819986 0.60846204 0.54191953
-5.54321861 10.87142944 1.28171730 -0.76625323 0.61034209 0.50606209
-5.04498434 10.97980690 1.22026730 -0.69738102 0.61642659 0.48179969
-4.87281561 11.69963837 1.19993842 -0.67358172 0.65683925 0.47377321
-4.89185286 11.29148102 1.59552956 -0.67621326 0.63392454 0.62996495
-4.73725128 12.69307613 1.22548509 -0.65484232 0.71261269 0.48385984
-4.72985125 14.24285793 1.25687444 -0.65381938 0.79962027 0.49625334
-5.01413488 12.87388802 1.73044038 -0.69311666 0.72276378 0.68323195
-4.77654552 13.71517372 1.72339475 -0.66027409 0.76999509 0.68045014
-6.75254107 12.15860653 0.60303444 -0.93342096 0.68260658 0.23809685
-6.32623053 12.44923687 0.52767795 -0.87449098 0.69892311 0.20834376
-6.73800802 11.74495792 1.04710627 -0.93141204 0.65938359 0.41343030
-6.38929462 12.13370895 0.99225324 -0.88320851 0.68120879 0.39177260
-5.20013094 11.24499321 0.39502937 -0.71882737 0.63131464 0.15596995
-5.94999409 12.38408184 0.91754276 -0.82248282 0.69526517 0.36227456
-5.17239237 11.86023140 0.77572531 -0.71499300 0.66585523 0.30628061
-6.61802101 17.61686325 0.45993736 -0.91482592 0.98904318 0.18159765
-5.90379143 17.63363647 0.32680944 -0.81609613 0.98998481 0.12903458
-5.00092268 12.75491714 0.75625563 -0.69129032 0.71608454 0.29859337
-6.18260050 17.63844109 0.97544497 -0.85463661 0.99025458 0.38513619
-5.83153343 10.68519115 2.02353811 -0.80610776 0.59988630 0.79895610
-5.01577568 12.28021812 1.99187779 -0.69334346 0.68943405 0.78645563
-6.07881451 10.83467960 1.37738049 -0.84029001 0.60827887 0.54383290
-5.61141586 10.83638573 1.28171730 -0.77568030 0.60837466 0.50606209
-5.10965204 10.93889523 1.21914971 -0.70632023 0.61412972 0.48135844
-4.90063906 11.11906528 1.57375336 -0.67742783 0.62424481 0.62136704
-4.87657452 12.81920433 1.24231410 -0.67410135 0.71969372 0.49050444
-4.70587540 13.87700653 1.22391808 -0.65050513 0.77908069 0.48324114
-4.86457539 12.26400185 1.64622784 -0.67244267 0.68852365 0.64998221
-4.71906233 13.27906132 1.66819298 -0.65232801 0.74551094 0.65865475
-6.76096439 11.99598885 0.59569156 -0.93458533 0.67347693 0.23519765
-5.71729231 11.07325172 0.45606387 -0.79031587 0.62167275 0.18006827
-6.75037336 11.59744549 1.03646576 -0.93312132 0.65110195 0.40922910
-6.48977232 12.13906384 0.99652582 -0.89709777 0.68150938 0.39345956
-5.26471090 11.19944954 0.39442763 -0.72775441 0.62875772 0.15573236
-5.05928373 11.85654354 0.33393288 -0.69935769 0.66564816 0.13184714
-6.00311708 12.29631424 0.91325206 -0.82982618 0.69033772 0.36058047
-4.95580006 11.16870403 0.72485548 -0.68505287 0.62703162 0.28619561
-6.74578190 17.61971855 0.46146151 -0.93248665 0.98920345 0.18219943
-6.03122902 17.64540100 0.32810849 -0.83371216 0.99064529 0.12954749
-5.11365318 12.80474567 0.76198834 -0.70687330 0.71888202 0.30085683
-6.30134535 17.62181473 0.97687227 -0.87105101 0.98932111 0.38569972
-5.92904091 10.70359230 2.03420448 -0.81958646 0.60091937 0.80316752
-4.92645836 11.84658241 1.92545259 -0.68099689 0.66508895 0.76022887
-6.16548681 10.82902050 1.38198411 -0.85227096 0.60796118 0.54565054
-5.70704079 10.85371017 1.28865469 -0.78889883 0.60934728 0.50880116
-4.96857452 12.81798077 1.24551964 -0.68681872 0.71962506 0.49177009
-4.69046879 13.54968739 1.19466460 -0.64837545 0.76070440 0.47169092
-4.88788509 12.10096455 1.62691796 -0.67566484 0.67937046 0.64235806
-4.72160530 13.02522945 1.63766658 -0.65267956 0.73126036 0.64660197
-5.83854008 11.13627625 0.46139681 -0.80707628 0.62521106 0.18217389
-6.80685806 11.52737808 1.03367484 -0.94092935 0.64716822 0.40812716
-6.58962059 12.14187908 1.00063407 -0.91090006 0.68166745 0.39508161
-5.34275389 11.18236351 0.39520130 -0.73854250 0.62779850 0.15603782
-5.10909557 11.76764965 0.33166486 -0.70624334 0.66065753 0.13095166
-6.12202930 12.34225368 0.92045426 -0.84626371 0.69291687 0.36342412
-5.33410120 11.82341480 0.77797997 -0.73734641 0.66378826 0.30717081
-6.87019634 17.61235428 0.46266809 -0.94968474 0.98879004 0.18267582
-6.14526081 17.61660194 0.32835832 -0.84947509 0.98902845 0.12964614
-6.42967319 17.63065910 0.97996479 -0.88879013 0.98981768 0.38692075
-6.01255608 10.69537830 2.03987122 -0.83113098 0.60045826 0.80540496
-4.86644411 11.49655628 1.87261438 -0.67270100 0.64543784 0.73936671
-6.25033569 10.81926441 1.38610315 -0.86399984 0.60741341 0.54727685
-5.78538275 10.83693218 1.29119837 -0.79972821 0.60840535 0.50980550
-4.91570187 11.20109940 1.15330446 -0.67951000 0.62885034 0.45536065
-5.02333784 12.72176743 1.23850751 -0.69438881 0.71422344 0.48900148
-4.70614958 13.32269001 1.17522407 -0.65054303 0.74796033 0.46401522
-4.90101671 11.91797447 1.60465801 -0.67748004 0.66909707 0.63356918
-4.71292734 12.74955750 1.60408747 -0.65147996 0.71578366 0.63334388
-6.66673899 12.10198307 1.00079846 -0.92156035 0.67942762 0.39514652
-5.41728735 11.15755367 0.39563113 -0.74884546 0.62640560 0.15620755
-5.15155458 11.66396236 0.32881159 -0.71211255 0.65483636 0.12982510
-6.26335239 12.42988873 0.93133420 -0.86579919 0.69783682 0.36771986
-5.42900896 11.83503246 0.78150278 -0.75046575 0.66444051 0.30856174
-6.99700451 17.60969353 0.46406522 -0.96721375 0.98864061 0.18322746
-6.28189182 17.65113258 0.33030689 -0.86836195 0.99096709 0.13041548
-4.67887497 11.30758667 0.66075391 -0.64677280 0.63482875 0.26088631
-6.55003500 17.61612129 0.98163003 -0.90542805 0.98900151 0.38757822
-6.27449989 11.00029564 2.10653591 -0.86734015 0.61757684 0.83172625
-4.86690044 11.29858208 1.84483659 -0.67276406 0.63432318 0.72839916
-6.34939766 10.83282375 1.39361441 -0.87769341 0.60817468 0.55024254
-5.87034512 10.83183479 1.29536092 -0.81147277 0.60811913 0.51144898
-4.93267584 11.05003262 1.13944042 -0.68185633 0.62036920 0.44988671
-4.82069445 13.37908268 1.18374085 -0.66637689 0.75112635 0.46737790
-4.89130354 11.68597412 1.57515681 -0.67613739 0.65607208 0.62192118
-4.80617952 12.75498486 1.60892081 -0.66437048 0.71608835 0.63525224
-6.75137711 12.07552719 1.00227737 -0.93326008 0.67794234 0.39573044
-5.49970198 11.14836311 0.39683461 -0.76023781 0.62588966 0.15668271
-5.18556881 11.54378986 0.32529983 -0.71681440 0.64808965 0.12843855
-6.24383926 12.20049191 0.91493767 -0.86310184 0.68495810 0.36124599
-5.53603745 11.87125492 0.78699845 -0.76526058 0.66647410 0.31073159
-7.12705755 17.61354065 0.46571636 -0.98519135 0.98885661 0.18387938
-6.39743376 17.62447548 0.33065662 -0.88433355 0.98947054 0.13055357
-5.26699305 12.50023174 0.74739599 -0.72806990 0.70178604 0.29509529
-6.67752218 17.61944199 0.98448467 -0.92305094 0.98918790 0.38870534
-6.31689596 10.91452885 2.09753633 -0.87320065 0.61276174 0.82817292
-4.87929440 11.13368130 1.82249355 -0.67447728 0.62506539 0.71957743
-6.42269897 10.84032249 1.39894497 -0.88782609 0.60859567 0.55234724
-5.94036150 10.83892441 1.29998589 -0.82115132 0.60851717 0.51327509
-4.85909891 11.92359734 1.15776825 -0.67168564 0.66941273 0.45712310
-4.67047262 12.77050686 1.12578940 -0.64561135 0.71695977 0.44449687
-4.88951254 12.79337883 1.61731565 -0.67588979 0.71824384 0.63856679
-6.68822050 12.24263191 0.52701133 -0.92452979 0.68732393 0.20808056
-6.74895525 10.99246597 0.99093843 -0.93292528 0.61713731 0.39125347
-6.79157495 12.01405621 0.99948382 -0.93881673 0.67449123 0.39462745
-5.57724667 11.17233944 0.39924163 -0.77095705 0.62723571 0.15763308
-5.14507627 11.30985546 0.31688628 -0.71121699 0.63495612 0.12511662
-6.29298782 12.15500832 0.91355854 -0.86989576 0.68240458 0.36070147
-6.49764109 17.64105415 0.33190572 -0.89818549 0.99040127 0.13104676
-5.11824608 11.99101448 0.71299976 -0.70750821 0.67319763 0.28151459
-6.77119207 17.61574364 0.98626882 -0.93599916 0.98898029 0.38940978
-4.89894390 11.03641987 1.81011438 -0.67719352 0.61960495 0.71468973
-6.51426792 10.83885288 1.40451777 -0.90048385 0.60851318 0.55454755
-6.02471495 10.83092690 1.30391705 -0.83281171 0.60806817 0.51482719
-4.86196899 11.72016907 1.13893580 -0.67208236 0.65799189 0.44968748
-4.67439556 12.53554344 1.10542309 -0.64615363 0.70376849 0.43645561
-4.88471508 11.32052898 1.52929580 -0.67522663 0.63555533 0.60381383
-4.98342323 12.79754734 1.62214899 -0.68887132 0.71847790 0.64047515
-6.72381020 11.14144993 0.55535901 -0.92944944 0.62550151 0.21927311
-6.75341606 12.17938519 0.52586854 -0.93354189 0.68377310 0.20762934
-7.19374037 11.55136204 1.05303705 -0.99440908 0.64851475 0.41577196
-6.83131456 11.90885067 0.99356788 -0.94431001 0.66858482 0.39229167
-5.66727877 11.17625046 0.40113282 -0.78340238 0.62745529 0.15837978
-5.21770859 11.28093529 0.31703261 -0.72125715 0.63333249 0.12517439
-6.39808273 12.16990280 0.91830891 -0.88442332 0.68324077 0.36257708
-6.61536169 17.61860657 0.33240536 -0.91445833 0.98914105 0.13124403
-4.98833036 12.72255039 0.67606390 -0.68954962 0.71426743 0.26693118
-6.29398489 10.60337543 2.05020428 -0.87003356 0.59529305 0.80948478
-6.61125135 10.84512615 1.41130209 -0.91389012 0.60886538 0.55722618
-6.11699200 10.83614826 1.30969822 -0.84556741 0.60836130 0.51710981
-5.58775234 10.91511822 1.24038458 -0.77240926 0.61279482 0.48974261
-5.16732597 11.05873394 1.15057373 -0.71429265 0.62085772 0.45428249
-5.65821552 10.67068863 1.62451816 -0.78214955 0.59907210 0.64141059
-4.88034773 11.55931759 1.12471128 -0.67462289 0.64896137 0.44407117
-4.86440229 12.80021286 1.13467658 -0.67241871 0.71862751 0.44800580
-4.84220123 11.03210163 1.49121249 -0.66934985 0.61936253 0.58877730
-5.03312826 12.68849087 1.61146474 -0.69574213 0.71235526 0.63625664
-6.77117682 12.03216648 0.52015465 -0.93599701 0.67550796 0.20537332
-7.23418617 11.45544529 1.04780400 -1.00000000 0.64312983 0.41370577
-5.75299025 11.17059517 0.40259421 -0.79525054 0.62713778 0.15895678
-5.36984062 11.42169857 0.32405609 -0.74228674 0.64123517 0.12794748
-6.48572111 12.15055561 0.92014778 -0.89653778 0.68215460 0.36330312
-5.98783112 12.28349972 0.82701790 -0.82771319 0.68961829 0.32653251
-6.74303246 17.62152672 0.33360448 -0.93210655 0.98930496 0.13171749
-4.93750572 11.17961979 0.65971160 -0.68252403 0.62764442 0.26047477
-7.02595043 17.61460495 0.99174023 -0.97121507 0.98891634 0.39157006
-6.20071030 10.82510662 1.31339824 -0.85714000 0.60774142 0.51857072
-5.00513983 12.15239239 2.53272748 -0.69187325 0.68225771 1.00000000
-5.64242792 10.85336590 1.23703170 -0.77996719 0.60932797 0.48841879
-5.19419336 10.93614769 1.14007056 -0.71800661 0.61397547 0.45013550
-5.77784586 10.73242092 1.64070261 -0.79868639 0.60253787 0.64780068
-4.94473171 12.76939583 1.13467658 -0.68352288 0.71689743 0.44800580
-4.87142134 12.05662823 1.52853477 -0.67338902 0.67688131 0.60351330
-7.08292723 11.40867233 0.57749403 -0.97909111 0.64050388 0.22801270
-5.82956553 11.14661121 0.40319595 -0.80583572 0.62579131 0.15919437
-5.46296883 11.43285275 0.32588512 -0.75516009 0.64186144 0.12866963
-6.57622623 12.13584328 0.92244637 -0.90904850 0.68132859 0.36421067
-6.25821877 12.63744640 0.85787803 -0.86508954 0.70948952 0.33871707
-6.85434198 17.58067513 0.33365443 -0.94749320 0.98701149 0.13173720
-4.59256697 11.28763580 0.58792675 -0.63484222 0.63370866 0.23213187
-5.69481611 10.66525555 1.92279053 -0.78720897 0.59876710 0.75917780
-6.29448462 10.83063221 1.31941068 -0.87010264 0.60805166 0.52094460
-4.96256733 11.83848667 2.47292137 -0.68598831 0.66463447 0.97638667
-5.74867010 10.88969803 1.24619627 -0.79465330 0.61136770 0.49203727
-5.89276171 10.78265667 1.65515292 -0.81457150 0.60535818 0.65350610
-4.94282484 11.30940437 1.10407567 -0.68325931 0.63493079 0.43592361
-4.99574566 12.66393280 1.12727058 -0.69057465 0.71097654 0.44508168
-4.97880411 10.96677685 1.49067605 -0.68823278 0.61569506 0.58856553
-4.87114382 11.84037018 1.50284171 -0.67335063 0.66474020 0.59336889
-7.21206665 11.45512295 0.58324063 -0.99694234 0.64311171 0.23028164
-5.93520498 11.17676735 0.40646258 -0.82043850 0.62748432 0.16048414
-5.52686405 11.38210869 0.32522666 -0.76399249 0.63901252 0.12840965
-6.67065668 12.12745476 0.92535788 -0.92210186 0.68085766 0.36536023
-6.24362850 12.41060638 0.84308207 -0.86307269 0.69675428 0.33287516
-5.21397924 11.87133598 0.27399370 -0.72074163 0.66647869 0.10818128
-6.99116325 17.60418510 0.33545312 -0.96640635 0.98833138 0.13244738
-5.43294430 11.89125729 0.71534497 -0.75100976 0.66759706 0.28244057
-4.67100763 11.27701473 0.58911616 -0.64568532 0.63311237 0.23260148
-5.78530931 10.67261696 1.93077874 -0.79971808 0.59918040 0.76233184
-6.38354111 10.82684040 1.32426691 -0.88241315 0.60783875 0.52286196
-4.96959496 11.65010166 2.43956780 -0.68695980 0.65405816 0.96321768
-5.83863831 10.89361763 1.25133741 -0.80708987 0.61158776 0.49406713
-6.00660944 10.82841110 1.66902518 -0.83030891 0.60792696 0.65898335
-4.93021584 11.09097195 1.08344007 -0.68151629 0.62266761 0.42777601
-6.02718687 11.17967319 0.40843976 -0.83315343 0.62764746 0.16126479
-5.63176441 11.41532230 0.32800680 -0.77849317 0.64087725 0.12950735
-6.77206278 12.13053608 0.92934209 -0.93611950 0.68103063 0.36693332
-6.20833492 12.14889908 0.82546788 -0.85819399 0.68206155 0.32592052
-7.11509180 17.59329033 0.33635247 -0.98353726 0.98771971 0.13280247
-5.53117132 11.90753078 0.71899301 -0.76458794 0.66851074 0.28388092
-5.19755030 12.33360195 0.65929288 -0.71847063 0.69243115 0.26030943
-5.85893536 10.64815331 1.93301547 -0.80989558 0.59780693 0.76321495
-6.46288967 10.84446716 1.33074176 -0.89338171 0.60882837 0.52541846
-5.01740503 11.61034775 2.43611741 -0.69356871 0.65182632 0.96185535
-5.90700817 10.89740658 1.25536084 -0.81654078 0.61180049 0.49565572
-6.08184385 10.84309673 1.67625034 -0.84070879 0.60875142 0.66183603
-4.82580137 11.37127686 1.44509590 -0.66708285 0.63840443 0.57056904
-6.64151478 11.17485619 0.48168111 -0.91807353 0.62737703 0.19018276
-6.75810480 11.00433540 0.92635661 -0.93419003 0.61780363 0.36575454
-6.11625671 11.21775341 0.41170639 -0.84546578 0.62978536 0.16255456
-5.64990044 11.31707096 0.32508034 -0.78100014 0.63536119 0.12835188
-6.80556488 12.05684566 0.92566437 -0.94075060 0.67689353 0.36548123
-6.28470087 12.15675354 0.82842708 -0.86875021 0.68250251 0.32708892
-5.16395426 11.41652870 0.26014954 -0.71382654 0.64094496 0.10271517
-5.99877977 12.75300789 0.78192258 -0.82922661 0.71597737 0.30872747
-5.18999434 12.15464020 0.64930159 -0.71742612 0.68238389 0.25636455
-5.92830420 10.65489864 1.93940604 -0.81948459 0.59818566 0.76573813
-6.55139923 10.83768082 1.33536673 -0.90561664 0.60844737 0.52724451
-5.99169779 10.88965130 1.25916076 -0.82824767 0.61136508 0.49715602
-6.17734194 10.85278320 1.68434250 -0.85390973 0.60929525 0.66503108
-5.64310646 10.81045532 1.57989538 -0.78006101 0.60691887 0.62379211
-5.05934858 11.05236340 1.08524323 -0.69936663 0.62050003 0.42848796
-4.78824759 11.54492569 1.02358747 -0.66189170 0.64815336 0.40414435
-4.87756777 11.29516888 1.43873632 -0.67423862 0.63413161 0.56805807
-7.14664507 11.47650337 0.97631317 -0.98789895 0.64431202 0.38547897
-6.20796537 11.21753120 0.41359758 -0.85814285 0.62977284 0.16330126
-6.84441996 11.94987774 0.91999453 -0.94612163 0.67088813 0.36324260
-6.37205553 12.13823986 0.83011800 -0.88082546 0.68146312 0.32775655
-5.20624638 11.32034111 0.25792685 -0.71967274 0.63554478 0.10183758
-6.09605837 12.75105190 0.78452832 -0.84267372 0.71586752 0.30975631
-6.01265812 10.64835548 1.94515753 -0.83114505 0.59781832 0.76800901
-6.66182613 10.86580944 1.34484792 -0.92088121 0.61002654 0.53098798
-6.07943773 10.88646317 1.26363122 -0.84037620 0.61118609 0.49892113
-5.59050751 10.91802692 1.15687561 -0.77279013 0.61295813 0.45677066
-6.28908157 10.88908863 1.69705880 -0.86935580 0.61133349 0.67005187
-5.10509872 10.96988010 1.07963347 -0.70569080 0.61586928 0.42627305
-4.83523273 11.45402813 1.01747763 -0.66838658 0.64305025 0.40173197
-4.88882542 11.12798309 1.41965735 -0.67579478 0.62474549 0.56052512
-7.21118069 11.41956520 0.97516286 -0.99681991 0.64111543 0.38502479
-6.29696798 11.21137524 0.41523090 -0.87044597 0.62942725 0.16394614
-5.81812143 11.29675198 0.32720202 -0.80425376 0.63422048 0.12918960
-6.47626925 12.15082169 0.83434546 -0.89523119 0.68216950 0.32942566
-5.73010349 12.25185013 0.29177520 -0.79208684 0.68784142 0.11520197
-5.35142136 12.58685970 0.20389916 -0.73974061 0.70664948 0.08050577
-4.92011499 11.12911797 0.58685625 -0.68012005 0.62480921 0.23170920
-6.10602283 10.65657520 1.95378482 -0.84405112 0.59827977 0.77141535
-6.77495623 10.89635372 1.35479152 -0.93651944 0.61174136 0.53491408
-6.16737318 10.88260078 1.26810169 -0.85253173 0.61096925 0.50068617
-5.67729044 10.91800785 1.16107678 -0.78478634 0.61295706 0.45842943
-6.20888948 10.59689331 1.65428591 -0.85827065 0.59492910 0.65316379
-5.72424507 10.63745022 1.56370270 -0.79127699 0.59720606 0.61739874
-5.21918249 11.03285027 1.09025180 -0.72146088 0.61940455 0.43046549
-4.91833353 11.00642109 1.40693796 -0.67987376 0.61792076 0.55550307
-5.87882757 11.24047470 0.32639724 -0.81264532 0.63106096 0.12887184
-6.56290150 12.12920761 0.83589548 -0.90720659 0.68095607 0.33003768
-6.27707005 12.71636105 0.78765529 -0.86769539 0.71391994 0.31099093
-6.18480015 10.63846207 1.95761919 -0.85494071 0.59726286 0.77292925
-6.26046753 10.88666725 1.27368987 -0.86540037 0.61119753 0.50289261
-5.75040627 10.89092255 1.16212714 -0.79489332 0.61143643 0.45884413
-5.80421925 10.62562847 1.56761134 -0.80233204 0.59654236 0.61894196
-5.26417398 10.94966316 1.08464217 -0.72768021 0.61473423 0.42825064
-4.98037148 11.39601612 1.01784790 -0.68844944 0.63979334 0.40187818
-4.98166800 10.96264935 1.40515721 -0.68862867 0.61546332 0.55479997
-7.20454741 11.45809364 0.50720316 -0.99590296 0.64327848 0.20025967
-6.50556087 11.24887657 0.42107645 -0.89928025 0.63153267 0.16625415
-5.96148634 11.22628307 0.32734835 -0.82407147 0.63026422 0.12924737
-6.80371618 11.37759686 0.88045907 -0.94049501 0.63875926 0.34763277
-6.66005373 12.12623310 0.83899558 -0.92063624 0.68078905 0.33126169
-5.72921801 11.86051846 0.28053474 -0.79196441 0.66587132 0.11076389
-6.24918509 12.46274376 0.77202058 -0.86384076 0.69968140 0.30481786
-5.50786304 12.05126762 0.65132368 -0.76136595 0.67658037 0.25716296
-5.85151005 10.91598511 1.16947937 -0.80886918 0.61284351 0.46174702
-5.89001465 10.62362289 1.57319498 -0.81419176 0.59642977 0.62114656
-4.93904400 11.10955334 0.99192709 -0.68273664 0.62371081 0.39164382
-5.03967285 10.90770245 1.40185022 -0.69664681 0.61237848 0.55349427
-6.59131908 11.23360634 0.42236593 -0.91113484 0.63067538 0.16676328
-6.04230690 11.20797348 0.32815313 -0.83524346 0.62923628 0.12956512
-6.72784519 11.09274006 0.85869920 -0.93000722 0.62276685 0.33904129
-5.80981112 11.83683872 0.28097928 -0.80310500 0.66454190 0.11093941
-6.35007572 12.46765900 0.77527785 -0.87778717 0.69995731 0.30610394
-6.33934069 10.59544659 1.96432924 -0.87630326 0.59484786 0.77557862
-4.95744658 12.07535744 2.39520955 -0.68528050 0.67793280 0.94570363
-6.38181686 10.82059383 1.27413690 -0.88217479 0.60748810 0.50306910
-5.90477514 10.89178944 1.16989946 -0.81623214 0.61148512 0.46191290
-5.95449495 10.62168503 1.57738268 -0.82310504 0.59632099 0.62279999
