-6.26305819 -5.13352156 1.54745841 -0.61396462 -0.70296991 0.62186980
-6.51636600 -5.25311756 -0.20449112 -0.63879621 -0.71934706 -0.08217788
-6.96748877 -5.12107325 1.57516181 -0.68301958 -0.70126528 0.63300282
-5.49718237 -5.38752651 0.72694725 -0.53888613 -0.73775268 0.29213485
-5.68961573 -5.20818710 0.67604220 -0.55775028 -0.71319443 0.27167788
-5.60325384 -5.65339231 1.02309561 -0.54928428 -0.77415955 0.41114658
-5.57901144 -5.25395012 0.94112504 -0.54690784 -0.71946108 0.37820548
-6.17219353 -5.21741724 0.67513591 -0.60505718 -0.71445835 0.27131367
-6.57026243 -5.17628098 0.63921946 -0.64407969 -0.70882529 0.25688010
-6.02320814 -5.23928165 0.94114923 -0.59045219 -0.71745241 0.37821519
-6.37993860 -5.17802286 0.91470003 -0.62542230 -0.70906383 0.36758617
-5.59144163 -6.38548422 0.31421474 -0.54812634 -0.87441015 0.12627199
-5.55945158 -5.91979933 0.24912585 -0.54499036 -0.81064057 0.10011503
-5.60899353 -6.58915043 0.61921883 -0.54984695 -0.90229964 0.24884254
-5.60172701 -6.14012718 0.54691678 -0.54913461 -0.84081167 0.21978687
-5.58964300 -5.50506353 0.19954732 -0.54795003 -0.75384784 0.08019114
-5.64962673 -5.62185240 2.10107636 -0.55383021 -0.76984060 0.84434962
-5.70126629 -5.24412107 0.14561574 -0.55889243 -0.71811509 0.05851791
-5.81751823 -5.19913816 1.98384452 -0.57028854 -0.71195531 0.79723823
-5.59768963 -5.67656469 0.47437757 -0.54873884 -0.77733272 0.19063587
-5.59394598 -5.29434299 0.40582675 -0.54837185 -0.72499233 0.16308768
-6.18936777 -5.25040293 0.11992971 -0.60674077 -0.71897531 0.04819559
-6.56797314 -5.19985676 2.05021238 -0.64385527 -0.71205366 0.82390916
-6.61005449 -5.23647499 0.07284484 -0.64798045 -0.71706808 0.02927381
-7.33452368 -5.19270658 2.10416460 -0.71899986 -0.71107459 0.84559065
-6.00936699 -5.25119400 0.38284773 -0.58909535 -0.71908367 0.15385321
-6.41630077 -5.23205948 0.35515410 -0.62898690 -0.71646345 0.14272410
-5.60095024 -7.01549625 1.53031397 -0.54905844 -0.96068221 0.61498004
-5.59353876 -6.31485415 1.39188850 -0.54833192 -0.86473829 0.55935162
-5.58022499 -6.58465576 0.02049992 -0.54702675 -0.90168417 0.00823821
-5.56205893 -6.13150120 -0.03249640 -0.54524595 -0.83963042 -0.01305917
-5.66328812 -6.67922354 1.90353763 -0.55516940 -0.91463399 0.76496565
-5.58381605 -5.59540272 1.24538922 -0.54737884 -0.76621860 0.50047868
-5.75142097 -5.19312096 1.14948559 -0.56380904 -0.71113127 0.46193835
-5.55693245 -5.65880680 -0.06666597 -0.54474342 -0.77490103 -0.02679074
-5.56676483 -5.81054020 1.68674946 -0.54570729 -0.79567897 0.67784601
-5.54859972 -5.28362608 -0.12026326 -0.54392660 -0.72352481 -0.04832963
-5.53976154 -5.21763182 1.52479351 -0.54306018 -0.71448773 0.61276156
-5.60745192 -6.46253538 0.90538603 -0.54969585 -0.88496131 0.36384320
-5.57854033 -6.02910614 0.81737161 -0.54686165 -0.82560873 0.32847327
-6.02279377 -5.27410650 -0.16446564 -0.59041160 -0.72222126 -0.06609303
-6.21862268 -5.16271067 1.54439139 -0.60960859 -0.70696700 0.62063724
-6.41648817 -5.23972702 -0.20380642 -0.62900525 -0.71751338 -0.08190272
-6.88620281 -5.12845850 1.56381810 -0.67505115 -0.70227659 0.62844419
-5.57718754 -5.53566265 0.74505281 -0.54672903 -0.75803798 0.29941085
-5.61583853 -5.20608044 0.67016047 -0.55051798 -0.71290594 0.26931423
-5.61318350 -5.73527575 1.03263283 -0.55025768 -0.78537244 0.41497928
-5.59761477 -5.33796692 0.95117563 -0.54873151 -0.73096609 0.38224444
-6.10158062 -5.22364616 0.67012727 -0.59813499 -0.71531135 0.26930088
-6.50018120 -5.18773890 0.63477588 -0.63720965 -0.71039432 0.25509438
-5.94713926 -5.23891973 0.93337166 -0.58299524 -0.71740288 0.37508965
-6.29507065 -5.17530346 0.90605092 -0.61710274 -0.70869142 0.36411041
-5.59549904 -6.47196293 0.31783295 -0.54852408 -0.88625228 0.12772602
-5.59025097 -6.02768278 0.25388741 -0.54800963 -0.82541382 0.10202853
-5.61222315 -6.67775059 0.62532401 -0.55016357 -0.91443229 0.25129601
-5.55367279 -6.16485882 0.54576647 -0.54442388 -0.84419835 0.21932459
-5.59586668 -5.58110094 0.20204028 -0.54856014 -0.76426017 0.08119297
-5.60876322 -5.65174007 2.09900570 -0.54982436 -0.77393329 0.84351748
-5.63888311 -5.25267076 0.14415251 -0.55277699 -0.71928591 0.05792988
-5.71278858 -5.17081022 1.95879853 -0.56002194 -0.70807612 0.78717309
-5.59660149 -5.74742889 0.47820851 -0.54863214 -0.78703666 0.19217539
-5.57356596 -5.34177542 0.40709499 -0.54637402 -0.73148763 0.16359733
-6.12145805 -5.25913906 0.11846909 -0.60008359 -0.72017163 0.04760861
-6.44903946 -5.17160130 2.02268171 -0.63219625 -0.70818448 0.81284553
-6.53015089 -5.24047613 0.07134593 -0.64014757 -0.71761596 0.02867145
-7.32392025 -5.25451708 2.11064696 -0.71796042 -0.71953869 0.84819573
-5.92853689 -5.24640226 0.37867850 -0.58117163 -0.71842748 0.15217774
-6.33548546 -5.23297501 0.35146683 -0.62106460 -0.71658880 0.14124231
-5.59689140 -7.10170650 1.54164445 -0.54866058 -0.97248763 0.61953336
-5.59410858 -6.39579296 1.40222156 -0.54838777 -0.87582183 0.56350416
-5.58480835 -6.67490625 0.02182080 -0.54747611 -0.91404277 0.00876902
-5.56356287 -6.21091747 -0.03173283 -0.54539341 -0.85050547 -0.01275232
-5.66143274 -6.76249599 1.91736603 -0.55498755 -0.92603707 0.77052283
-5.59139633 -5.67407942 1.25529468 -0.54812193 -0.77699238 0.50445932
-5.68942690 -5.20254898 1.14344692 -0.55773181 -0.71242237 0.45951161
-5.55875921 -5.73247051 -0.06618131 -0.54492247 -0.78498828 -0.02659597
-5.59314966 -5.91233540 1.70640945 -0.54829377 -0.80961847 0.68574667
-5.55714989 -5.35853338 -0.12013016 -0.54476476 -0.73378241 -0.04827614
-5.59641933 -5.33729076 1.55008113 -0.54861432 -0.73087353 0.62292379
-5.60408974 -6.54145050 0.91241264 -0.54936624 -0.89576775 0.36666694
-5.53920460 -6.06257439 0.81714034 -0.54300559 -0.83019179 0.32838032
-5.94474840 -5.27192020 -0.16426614 -0.58276081 -0.72192186 -0.06601286
-6.14858246 -5.17000437 1.53480709 -0.60274261 -0.70796579 0.61678565
-6.33865738 -5.24308348 -0.20334464 -0.62137556 -0.71797305 -0.08171715
-6.79723930 -5.12912273 1.55064464 -0.66633010 -0.70236754 0.62315023
-5.58284187 -5.61155939 0.75153500 -0.54728329 -0.76843107 0.30201581
-5.57720280 -5.23583317 0.66932023 -0.54673052 -0.71698022 0.26897654
-5.60172796 -5.79610777 1.03783500 -0.54913473 -0.79370260 0.41706985
-5.60681105 -5.41419077 0.95955110 -0.54963303 -0.74140400 0.38561025
-6.03563547 -5.23311710 0.66571969 -0.59167045 -0.71660829 0.26752964
-6.41780329 -5.18853617 0.62885112 -0.62913418 -0.71050346 0.25271341
-5.88606977 -5.25104237 0.92827600 -0.57700861 -0.71906292 0.37304190
-6.23493242 -5.19197369 0.90147191 -0.61120743 -0.71097422 0.36227027
-5.59739542 -6.55722046 0.32134476 -0.54870999 -0.89792722 0.12913731
-5.59826517 -6.11266565 0.25712529 -0.54879522 -0.83705115 0.10332973
-5.61202192 -6.76357651 0.63108039 -0.55014384 -0.92618507 0.25360930
-5.60117626 -6.29622364 0.55644798 -0.54908061 -0.86218709 0.22361712
-5.59153843 -5.64746761 0.20393148 -0.54813582 -0.77334827 0.08195298
-5.58527946 -5.69931793 2.10366488 -0.54752225 -0.78044850 0.84538984
-5.57370377 -5.25790930 0.14254296 -0.54638749 -0.72000325 0.05728307
-5.64012432 -5.17007446 1.94477272 -0.55289871 -0.70797539 0.78153664
-5.59759951 -5.82138348 0.48234597 -0.54873002 -0.79716378 0.19383809
-5.60017490 -5.43488789 0.41301337 -0.54898244 -0.74423820 0.16597573
-6.03713274 -5.25275469 0.11630990 -0.59181720 -0.71929735 0.04674091
-6.43596268 -5.22797537 2.02896070 -0.63091433 -0.71590418 0.81536883
-6.44890547 -5.24242353 0.06979706 -0.63218313 -0.71788263 0.02804901
-7.20406437 -5.23769999 2.08518052 -0.70621097 -0.71723580 0.83796161
-5.86283445 -5.25416136 0.37581214 -0.57473087 -0.71948999 0.15102585
-6.25644827 -5.23436069 0.34789854 -0.61331660 -0.71677858 0.13980834
-6.82732821 -5.17663860 2.47602177 -0.66927969 -0.70887429 0.99502718
-5.58352470 -7.17723656 1.55057144 -0.54735023 -0.98283046 0.62312078
-5.47755432 -6.34294081 1.38255548 -0.53696203 -0.86858439 0.55560106
-5.57577658 -6.75002575 0.02277477 -0.54659069 -0.92432946 0.00915239
-5.56561565 -6.29208755 -0.03094381 -0.54559463 -0.86162066 -0.01243524
-5.58035374 -5.73463106 1.26104617 -0.54703939 -0.78528416 0.50677067
-5.62318039 -5.20738554 1.13650250 -0.55123770 -0.71308464 0.45672089
-5.55573940 -5.80203533 -0.06575050 -0.54462647 -0.79451430 -0.02642284
-5.57053804 -5.96311903 1.71101069 -0.54607719 -0.81657267 0.68759578
-5.55206394 -5.42121363 -0.12003837 -0.54426616 -0.74236566 -0.04823925
-5.61505222 -5.42257214 1.56493258 -0.55044085 -0.74255168 0.62889206
-5.60762691 -6.62968922 0.92089307 -0.54971296 -0.90785092 0.37007496
-5.55704832 -6.15906954 0.82685274 -0.54475480 -0.84340554 0.33228341
-5.88181591 -5.28236437 -0.16413313 -0.57659161 -0.72335202 -0.06595941
-6.07571507 -5.17407036 1.52445602 -0.59559941 -0.70852256 0.61262596
-6.26103973 -5.24567032 -0.20288287 -0.61376673 -0.71832728 -0.08153158
-5.57942533 -5.67921638 0.75667608 -0.54694837 -0.77769583 0.30408183
-5.57454252 -5.29946995 0.67373151 -0.54646975 -0.72569442 0.27074930
-5.61289454 -5.88141775 1.04795015 -0.55022937 -0.80538470 0.42113477
-5.60675192 -5.48245430 0.96625149 -0.54962718 -0.75075179 0.38830292
-5.96086168 -5.23406553 0.66011000 -0.58434039 -0.71673816 0.26527527
-6.34493685 -5.19605255 0.62403727 -0.62199110 -0.71153277 0.25077891
-5.81334639 -5.25194550 0.92103481 -0.56987953 -0.71918654 0.37013191
-6.15811872 -5.19406605 0.89409471 -0.60367745 -0.71126074 0.35930562
-5.59458923 -6.63816452 0.32453734 -0.54843491 -0.90901148 0.13042028
-5.58124590 -6.17137384 0.25864899 -0.54712683 -0.84509051 0.10394204
-5.60214853 -6.83885288 0.63561565 -0.54917592 -0.93649316 0.25543186
-5.58920574 -6.36267328 0.55989891 -0.54790717 -0.87128651 0.22500393
-5.59495497 -5.72259283 0.20633848 -0.54847074 -0.78363568 0.08292027
-5.54935980 -5.73429823 2.10366488 -0.54400110 -0.78523856 0.84538984
-5.56663704 -5.31760740 0.14385986 -0.54569477 -0.72817814 0.05781228
-5.63882542 -5.23430777 1.95579302 -0.55277133 -0.71677130 0.78596526
-5.59925699 -5.89702559 0.48663664 -0.54889250 -0.80752200 0.19556236
-5.57732821 -5.48112488 0.41414067 -0.54674280 -0.75056976 0.16642876
-5.97856998 -5.26805115 0.11523031 -0.58607632 -0.72139204 0.04630706
-6.41644859 -5.27944136 2.03330755 -0.62900138 -0.72295177 0.81711566
-6.37098885 -5.24609280 0.06834812 -0.62454498 -0.71838510 0.02746674
-7.05332994 -5.19657755 2.05045342 -0.69143456 -0.71160465 0.82400602
-5.78547478 -5.25054216 0.37190348 -0.56714731 -0.71899438 0.14945509
-6.19290924 -5.24782991 0.34551966 -0.60708791 -0.71862298 0.13885236
-6.74282408 -5.17980433 2.45689774 -0.66099578 -0.70930779 0.98734188
-5.61338139 -6.58238792 1.42822087 -0.55027711 -0.90137362 0.57395238
-5.57736158 -6.83926678 0.02405895 -0.54674608 -0.93654984 0.00966846
-5.57346249 -6.38104248 -0.03002752 -0.54636383 -0.87380195 -0.01206702
-5.67381716 -6.95240116 1.95150471 -0.55620158 -0.95204216 0.78424197
-5.58104944 -5.80811024 1.26967347 -0.54710758 -0.79534620 0.51023769
-5.59179640 -5.24396229 1.13680446 -0.54816109 -0.71809340 0.45684224
-5.56302691 -5.88344002 -0.06517609 -0.54534084 -0.80566162 -0.02619201
-5.58453846 -6.05419445 1.72732425 -0.54744965 -0.82904428 0.69415164
-5.55496407 -5.49245548 -0.11991903 -0.54455048 -0.75212133 -0.04819129
-5.53452635 -5.41265917 1.55168676 -0.54254699 -0.74119425 0.62356901
-5.60646772 -6.71364880 0.92864656 -0.54959935 -0.91934806 0.37319079
-5.60304880 -6.28858709 0.84165263 -0.54926419 -0.86114132 0.33823097
-5.79537010 -5.27063513 -0.16389373 -0.56811738 -0.72174585 -0.06586320
-5.99710798 -5.17228270 1.51257145 -0.58789361 -0.70827776 0.60784996
-6.17752886 -5.24232960 -0.20235741 -0.60558021 -0.71786982 -0.08132041
-5.58089876 -5.75277090 0.76271129 -0.54709285 -0.78776819 0.30650717
-5.57704782 -5.36878157 0.67898309 -0.54671532 -0.73518574 0.27285972
-5.58665943 -5.92811728 1.05026221 -0.54765755 -0.81177962 0.42206392
-5.61452007 -5.55926800 0.97462696 -0.55038869 -0.76127046 0.39166874
-5.89225054 -5.23958731 0.65530175 -0.57761449 -0.71749425 0.26334301
-6.26608706 -5.19778872 0.61848283 -0.61426151 -0.71177047 0.24854676
-5.74668026 -5.25751019 0.91486639 -0.56334430 -0.71994859 0.36765304
-6.08454943 -5.19796944 0.88722628 -0.59646547 -0.71179527 0.35654542
-5.59225941 -6.72086906 0.32783630 -0.54820651 -0.92033678 0.13174602
-5.54769707 -6.21226692 0.25902992 -0.54383808 -0.85069025 0.10409513
-5.60654116 -6.93289518 0.64224416 -0.54960656 -0.94937104 0.25809562
-5.59233618 -6.44725180 0.56532186 -0.54821402 -0.88286841 0.22718322
-5.58103609 -5.78069019 0.20771390 -0.54710627 -0.79159135 0.08347300
-5.51455164 -5.77045250 2.10418248 -0.54058886 -0.79018945 0.84559786
-5.55183840 -5.37049389 0.14481096 -0.54424405 -0.73542023 0.05819450
-5.66381216 -5.32385445 1.97633076 -0.55522078 -0.72903359 0.79421872
-5.54032946 -5.90876055 0.48418483 -0.54311585 -0.80912894 0.19457707
-5.58673000 -5.55957174 0.41850901 -0.54766446 -0.76131207 0.16818424
-5.89475775 -5.26012945 0.11307114 -0.57786030 -0.72030723 0.04543936
-6.41885948 -5.34956026 2.04489946 -0.62923771 -0.73255366 0.82177407
-6.29482031 -5.25026846 0.06694914 -0.61707824 -0.71895695 0.02690454
-6.96743679 -5.20134306 2.03471041 -0.68301451 -0.71225721 0.81767946
-5.71718884 -5.25428629 0.36877653 -0.56045330 -0.71950710 0.14819849
-6.11274815 -5.24644756 0.34183243 -0.59922975 -0.71843368 0.13737059
-6.67979622 -5.19856548 2.44564819 -0.65481722 -0.71187687 0.98282105
-5.61776590 -6.67172623 1.44022059 -0.55070692 -0.91360736 0.57877463
-5.57429266 -6.92411089 0.02523306 -0.54644525 -0.94816816 0.01014029
-5.55945396 -6.44616079 -0.02951848 -0.54499060 -0.88271904 -0.01186245
-5.56613159 -5.86603165 1.27478588 -0.54564524 -0.80327779 0.51229215
-5.59610558 -5.31429195 1.14465475 -0.54858357 -0.72772413 0.45999700
-5.52867317 -5.92120790 -0.06514020 -0.54197317 -0.81083345 -0.02617758
-5.55426931 -6.09785843 1.72983408 -0.54448235 -0.83502352 0.69516027
-5.55151892 -5.55830097 -0.11981806 -0.54421276 -0.76113802 -0.04815072
-5.61514473 -6.78904104 0.93640006 -0.55044997 -0.92967206 0.37630665
-5.60630608 -6.35207796 0.84743381 -0.54958349 -0.86983562 0.34055421
-5.74842262 -5.27754068 -0.16379398 -0.56351513 -0.72269148 -0.06582312
-5.93574142 -5.16816616 1.50298715 -0.58187789 -0.70771408 0.60399836
-6.11318398 -5.23764992 -0.20194340 -0.59927249 -0.71722895 -0.08115404
-6.55088091 -5.12383270 1.51368570 -0.64217973 -0.70164317 0.60829771
-5.59081221 -5.81779194 0.76874644 -0.54806465 -0.79667199 0.30893248
-5.59458685 -5.43647385 0.68528497 -0.54843467 -0.74445534 0.27539223
-5.59368038 -5.99207735 1.05777645 -0.54834580 -0.82053816 0.42508361
-5.61494160 -5.61219597 0.97993147 -0.55043006 -0.76851827 0.39380044
-5.83499241 -5.23796654 0.65089411 -0.57200152 -0.71727234 0.26157174
-6.20021629 -5.19283962 0.61348379 -0.60780424 -0.71109277 0.24653783
-5.69279194 -5.25756264 0.90950251 -0.55806166 -0.71995574 0.36549747
-6.02837133 -5.19945621 0.88188416 -0.59095836 -0.71199882 0.35439861
-5.60738945 -6.80428123 0.33177379 -0.54968971 -0.93175906 0.13332836
-5.59136105 -6.32046032 0.26426765 -0.54811841 -0.86550599 0.10619999
-5.61851883 -7.01532316 0.64852381 -0.55078071 -0.96065855 0.26061919
-5.59966612 -6.51728725 0.57008743 -0.54893261 -0.89245892 0.22909833
-5.60469770 -5.86048460 0.21089457 -0.54942584 -0.80251819 0.08475120
-5.48464918 -5.79356241 2.10314727 -0.53765750 -0.79335403 0.84518182
-5.58811569 -5.45647860 0.14795689 -0.54780030 -0.74719477 0.05945874
-5.68090248 -5.39035845 1.99135840 -0.55689615 -0.73814046 0.80025780
-5.59092283 -6.01974392 0.49307263 -0.54807550 -0.82432669 0.19814877
-5.58586979 -5.61122131 0.42104545 -0.54758012 -0.76838481 0.16920355
-5.82396984 -5.24625492 0.11110247 -0.57092094 -0.71840733 0.04464822
-6.42025471 -5.40230608 2.05359340 -0.62937450 -0.73977655 0.82526785
-6.22403288 -5.24135208 0.06545024 -0.61013895 -0.71773595 0.02630218
-6.95841265 -5.24579477 2.03934073 -0.68212986 -0.71834433 0.81954020
-5.65587759 -5.24713898 0.36551932 -0.55444294 -0.71852839 0.14688952
-6.04561758 -5.23869467 0.33850199 -0.59264898 -0.71737206 0.13603219
-6.64312887 -5.22052717 2.44114852 -0.65122277 -0.71488422 0.98101282
-5.62426138 -6.74347019 1.45022023 -0.55134362 -0.92343175 0.58279312
-5.57143450 -6.98789501 0.02611364 -0.54616505 -0.95690256 0.01049417
-5.57330275 -6.52388096 -0.02865310 -0.54634821 -0.89336181 -0.01151469
-5.66787195 -7.10273647 1.97656870 -0.55561876 -0.97262865 0.79431432
-5.58562708 -5.94266510 1.28596938 -0.54755634 -0.81377178 0.51678646
-5.60533953 -5.37335014 1.15190113 -0.54948872 -0.73581135 0.46290907
-5.51018858 -5.95749664 -0.06501454 -0.54016113 -0.81580275 -0.02612709
-5.58949471 -6.19527388 1.75033057 -0.54793549 -0.84836328 0.70339710
-5.56757450 -5.62694216 -0.11968037 -0.54578668 -0.77053756 -0.04809539
-5.61360359 -5.61134672 1.59182584 -0.55029887 -0.76840198 0.63969952
-5.61995697 -6.88273191 0.94560736 -0.55092168 -0.94250184 0.38000676
-5.61470890 -6.44247532 0.85598999 -0.55040723 -0.88221437 0.34399265
-5.67862034 -5.27941418 -0.16362773 -0.55667245 -0.72294807 -0.06575630
-5.86789799 -5.17411041 1.49378622 -0.57522720 -0.70852804 0.60030079
-6.05139160 -5.25112534 -0.20164086 -0.59321499 -0.71907425 -0.08103245
-6.49848461 -5.14906645 1.50892866 -0.63704336 -0.70509863 0.60638601
-5.58825922 -5.88893223 0.77433461 -0.54781437 -0.80641371 0.31117818
-5.59727192 -5.50769281 0.69074661 -0.54869789 -0.75420791 0.27758709
-5.62414455 -6.10148430 1.07251573 -0.55133218 -0.83552003 0.43100682
-5.61864233 -5.68671131 0.98774856 -0.55079281 -0.77872217 0.39694184
-5.76377344 -5.23962307 0.64568514 -0.56501997 -0.71749920 0.25947842
-6.13094187 -5.20086861 0.60904026 -0.60101330 -0.71219224 0.24475212
-5.63076639 -5.26607561 0.90413868 -0.55198133 -0.72112149 0.36334193
-5.94317627 -5.19168758 0.87298065 -0.58260673 -0.71093500 0.35082060
-5.59469080 -6.87662935 0.33432782 -0.54844487 -0.94166619 0.13435474
-5.59370995 -6.40351105 0.26731506 -0.54834872 -0.87687868 0.10742464
-5.60882950 -7.09432650 0.65340799 -0.54983085 -0.97147703 0.26258197
-5.58834696 -6.58723116 0.57386702 -0.54782295 -0.90203679 0.23061723
-5.59239435 -5.92179489 0.21244192 -0.54821974 -0.81091386 0.08537303
-5.46392679 -5.84488392 2.10935926 -0.53562611 -0.80038190 0.84767824
-5.56512022 -5.50269413 0.14854218 -0.54554605 -0.75352335 0.05969394
-5.67071629 -5.44869041 1.99987400 -0.55589759 -0.74612826 0.80367988
-5.60541344 -6.11219931 0.49904895 -0.54949600 -0.83698732 0.20055044
-5.57153702 -5.66749430 0.42315915 -0.54617512 -0.77609062 0.17005296
-5.76437235 -5.25842524 0.10995937 -0.56507868 -0.72007388 0.04418885
-6.04567051 -5.15091228 1.94202161 -0.59265417 -0.70535135 0.78043103
-6.15896416 -5.25318813 0.06440100 -0.60376030 -0.71935672 0.02588052
-6.90362930 -5.27292824 2.03285837 -0.67675948 -0.72205991 0.81693518
-5.60393524 -5.26475763 0.36382556 -0.54935110 -0.72094101 0.14620885
-5.96596193 -5.23587179 0.33481476 -0.58484036 -0.71698546 0.13455042
-6.73657036 -5.36227036 2.48839617 -0.66038275 -0.73429412 1.00000000
-5.62954855 -6.83641386 1.46288657 -0.55186194 -0.93615919 0.58788329
-5.57674551 -7.08572912 0.02758128 -0.54668570 -0.97029972 0.01108396
-5.57357883 -6.60758924 -0.02783863 -0.54637527 -0.90482461 -0.01118738
-5.52982283 -7.02030134 1.94329417 -0.54208589 -0.96134025 0.78094244
-5.56425190 -5.99504805 1.28980374 -0.54546094 -0.82094491 0.51832736
-5.60417843 -5.44005060 1.15884554 -0.54937494 -0.74494517 0.46569979
-5.54796839 -6.07488441 -0.06400932 -0.54386467 -0.83187747 -0.02572312
-5.59197569 -6.27710247 1.76371598 -0.54817867 -0.85956866 0.70877618
-5.56434202 -5.69463158 -0.11957481 -0.54546976 -0.77980673 -0.04805296
-5.59204149 -5.66040993 1.59583974 -0.54818517 -0.77512056 0.64131254
-5.61759996 -6.96900606 0.95360315 -0.55069065 -0.95431596 0.38321999
-5.60660315 -6.51519442 0.86177117 -0.54961264 -0.89217228 0.34631589
-5.61919069 -5.29024363 -0.16350803 -0.55084658 -0.72443098 -0.06570820
-5.80167627 -5.18071842 1.48496854 -0.56873554 -0.70943296 0.59675729
-5.98364973 -5.25876617 -0.20127463 -0.58657432 -0.72012055 -0.08088528
-6.40301037 -5.13948917 1.49392557 -0.62768406 -0.70378715 0.60035682
-5.57825470 -5.95300102 0.77880508 -0.54683363 -0.81518716 0.31297472
-5.59080648 -5.57075691 0.69494784 -0.54806405 -0.76284373 0.27927539
-5.60828209 -6.16163635 1.07742882 -0.54977721 -0.84375709 0.43298122
-5.61608028 -5.75583696 0.99444896 -0.55054164 -0.78818804 0.39963451
-5.69568634 -5.24329567 0.64087683 -0.55834538 -0.71800208 0.25754613
-6.05575752 -5.20305777 0.60385609 -0.59364301 -0.71249205 0.24266879
-5.63201761 -5.33414984 0.91057527 -0.55210400 -0.73044342 0.36592859
-5.87618828 -5.19878292 0.86712974 -0.57603991 -0.71190661 0.34846932
-5.59377384 -6.96468449 0.33794606 -0.54835498 -0.95372421 0.13580878
-5.59654236 -6.48834896 0.27045771 -0.54862636 -0.88849616 0.10868756
-5.60692406 -7.18449688 0.65951318 -0.54964405 -0.98382467 0.26503545
-5.59048653 -6.67406368 0.57945430 -0.54803270 -0.91392744 0.23286256
-5.59856796 -6.00368690 0.21519276 -0.54882491 -0.82212794 0.08647850
-5.42840147 -5.88052225 2.10987711 -0.53214359 -0.80526209 0.84788632
-5.57999706 -5.58691978 0.15110283 -0.54700446 -0.76505703 0.06072298
-5.66836739 -5.51518631 2.01139522 -0.55566734 -0.75523400 0.80830991
-5.58825779 -6.17100048 0.50150073 -0.54781425 -0.84503937 0.20153573
-5.59572887 -5.76378822 0.42921844 -0.54854661 -0.78927684 0.17248799
-5.69166994 -5.25781202 0.10824472 -0.55795169 -0.71998990 0.04349979
-5.94574547 -5.13029909 1.91980386 -0.58285856 -0.70252866 0.77150249
-6.08034754 -5.25268602 0.06290210 -0.59605354 -0.71928799 0.02527817
-6.72082996 -5.20105362 1.98794460 -0.65883976 -0.71221757 0.79888588
-5.56786108 -5.29710531 0.36356497 -0.54581475 -0.72537065 0.14610413
-5.88957310 -5.23490143 0.33136538 -0.57735205 -0.71685261 0.13316424
-5.62515593 -6.91899633 1.47321963 -0.55143136 -0.94746780 0.59203583
-5.58226871 -7.18548489 0.02908561 -0.54722714 -0.98395997 0.01168850
-5.57430506 -6.69309044 -0.02699870 -0.54644644 -0.91653287 -0.01084984
-5.58367920 -6.09261894 1.30354345 -0.54736537 -0.83430600 0.52384883
-5.60381222 -5.50833035 1.16609192 -0.54933900 -0.75429517 0.46861184
-5.56311655 -6.16916323 -0.06329131 -0.54534966 -0.84478778 -0.02543458
-5.59622335 -6.36214828 1.77793813 -0.54859507 -0.87121463 0.71449161
-5.56047726 -5.76250172 -0.11946925 -0.54509091 -0.78910071 -0.04801054
-5.60300684 -5.74299860 1.60948706 -0.54926008 -0.78643000 0.64679694
-5.61314678 -7.05396461 0.96135664 -0.55025411 -0.96594995 0.38633585
-5.60425329 -6.59561872 0.86870861 -0.54938227 -0.90318537 0.34910381
-5.54107952 -5.28254509 -0.16330187 -0.54318935 -0.72337681 -0.06562535
-5.72834206 -5.18009758 1.47423410 -0.56154662 -0.70934790 0.59244347
-5.90407372 -5.25515747 -0.20078100 -0.57877350 -0.71962643 -0.08068691
-6.34307575 -5.15735960 1.48733878 -0.62180865 -0.70623422 0.59770977
-5.53939486 -5.98647022 0.77858156 -0.54302424 -0.81977034 0.31288490
-5.57534599 -5.62550163 0.69788873 -0.54654849 -0.77034026 0.28045726
-5.61431265 -6.24690628 1.08725512 -0.55036837 -0.85543370 0.43693006
-5.61011457 -5.82230854 1.00059104 -0.54995686 -0.79729044 0.40210280
-5.62923431 -5.24768209 0.63626891 -0.55183113 -0.71860278 0.25569439
-5.97777843 -5.20190191 0.59830165 -0.58599877 -0.71233374 0.24043666
-5.60837841 -5.37906075 0.91245264 -0.54978663 -0.73659337 0.36668304
-5.79305744 -5.19072294 0.85848063 -0.56789064 -0.71080291 0.34499356
-5.59320688 -7.05456543 0.34167069 -0.54829937 -0.96603227 0.13730559
-5.58813715 -6.56133032 0.27283847 -0.54780239 -0.89849001 0.10964431
-5.58228254 -7.24646187 0.66247857 -0.54722846 -0.99230999 0.26622713
-5.58665848 -6.75504923 0.58438420 -0.54765743 -0.92501736 0.23484372
-5.57288456 -6.05200386 0.21596643 -0.54630721 -0.82874429 0.08678941
-5.41859961 -5.94456434 2.12074828 -0.53118271 -0.81403184 0.85225511
-5.56026220 -5.63748217 0.15190761 -0.54506981 -0.77198088 0.06104639
-5.66264057 -5.57915640 2.02191448 -0.55510592 -0.76399392 0.81253719
-5.55202532 -6.20897007 0.50180721 -0.54426235 -0.85023880 0.20165889
-5.57324648 -5.81319952 0.43062758 -0.54634267 -0.79604310 0.17305428
-5.62939739 -5.26608086 0.10697462 -0.55184710 -0.72112221 0.04298938
-5.91776800 -5.17139816 1.92125285 -0.58011597 -0.70815665 0.77208477
-5.99745750 -5.24746656 0.06125330 -0.58792788 -0.71857321 0.02461557
-6.63432598 -5.20129251 1.97173858 -0.65035981 -0.71225029 0.79237324
-5.56027317 -5.35697699 0.36591017 -0.54507089 -0.73356926 0.14704660
-5.82235765 -5.24117088 0.32862967 -0.57076293 -0.71771115 0.13206485
-5.62365961 -7.00639725 1.48455274 -0.55128467 -0.95943624 0.59659016
-5.57704973 -7.27287149 0.03029641 -0.54671550 -0.99592644 0.01217508
-5.57290125 -6.77731752 -0.02618423 -0.54630882 -0.92806673 -0.01052253
-5.56642675 -6.15105534 1.30865598 -0.54567415 -0.84230810 0.52590340
-5.59578371 -5.56986284 1.17182863 -0.54855198 -0.76272130 0.47091722
-5.53618193 -6.21746731 -0.06312976 -0.54270923 -0.85140240 -0.02536966
-5.59194803 -6.43861532 1.78965044 -0.54817599 -0.88168579 0.71919835
-5.55874491 -5.83343506 -0.11935451 -0.54492110 -0.79881412 -0.04796443
-5.58861971 -5.80061007 1.61590934 -0.54784971 -0.79431915 0.64937782
-5.60906839 -7.14070415 0.96935242 -0.54985428 -0.97782785 0.38954908
-5.60495424 -6.68082571 0.87633979 -0.54945099 -0.91485339 0.35217053
-5.56518602 -5.37297297 -0.16356787 -0.54555249 -0.73575974 -0.06573225
-5.66246700 -5.18540907 1.46541655 -0.55508894 -0.71007526 0.58890003
-5.83222628 -5.25743389 -0.20036700 -0.57173032 -0.71993816 -0.08052054
-6.24971104 -5.14726448 1.47270167 -0.61265618 -0.70485187 0.59182763
-5.55515051 -6.07997894 0.78752255 -0.54456872 -0.83257514 0.31647795
-5.58870888 -5.71004677 0.70524091 -0.54785848 -0.78191769 0.28341183
-5.59853172 -6.30875921 1.09245718 -0.54882139 -0.86390364 0.43902060
-5.59669018 -5.88177443 1.00533712 -0.54864085 -0.80543357 0.40401009
-5.59615135 -5.28294754 0.63626891 -0.54858804 -0.72343189 0.25569439
-5.90903902 -5.20784998 0.59385806 -0.57926029 -0.71314824 0.23865093
-5.63403130 -5.47234488 0.92371672 -0.55230141 -0.74936742 0.37120968
-5.73235035 -5.20176363 0.85364729 -0.56193954 -0.71231478 0.34305120
-5.59418440 -7.14786291 0.34560817 -0.54839522 -0.97880816 0.13888793
-5.58677053 -6.64361668 0.27579066 -0.54766846 -0.90975809 0.11083069
-5.59088135 -6.84703541 0.59046447 -0.54807144 -0.93761367 0.23728716
-5.58703232 -6.14468575 0.21931903 -0.54769409 -0.84143591 0.08813670
-5.42753744 -6.03030157 2.13938498 -0.53205889 -0.82577246 0.85974455
-5.58485365 -5.73371887 0.15505354 -0.54748052 -0.78515923 0.06231063
-5.67282248 -5.65963936 2.03844500 -0.55610406 -0.77501500 0.81918025
-5.59977341 -6.34260225 0.51192093 -0.54894310 -0.86853802 0.20572324
-5.58336973 -5.89724207 0.43541864 -0.54733503 -0.80755168 0.17497963
-5.56869459 -5.27515459 0.10576802 -0.54589647 -0.72236478 0.04250449
-5.87935877 -5.20331860 1.91932082 -0.57635075 -0.71252775 0.77130836
-5.94187117 -5.26521349 0.06050385 -0.58247876 -0.72100347 0.02431440
-6.58014297 -5.22598505 1.96525621 -0.64504826 -0.71563160 0.78976822
-5.58919764 -5.45329523 0.37164289 -0.54790634 -0.74675882 0.14935037
-5.75086069 -5.24277973 0.32553715 -0.56375414 -0.71793145 0.13082208
-5.62374163 -7.09713602 1.49655235 -0.55129272 -0.97186172 0.60141242
-5.57824135 -6.87108755 -0.02521704 -0.54683232 -0.94090730 -0.01013385
-5.58539295 -6.25082636 1.32271528 -0.54753339 -0.85597050 0.53155333
-5.59557867 -5.63991022 1.17937696 -0.54853189 -0.77231336 0.47395065
-5.55494976 -6.31835651 -0.06233994 -0.54454905 -0.86521786 -0.02505226
-5.58947086 -6.51825333 1.80219924 -0.54793316 -0.89259118 0.72424132
-5.55633926 -5.90457296 -0.11923976 -0.54468524 -0.80855554 -0.04791832
-5.55612564 -5.83985806 1.61711347 -0.54466432 -0.79969364 0.64986175
-5.61303568 -7.21571732 0.97686362 -0.55024320 -0.98809993 0.39256757
-5.62051773 -6.76358747 0.88489598 -0.55097663 -0.92618656 0.35560897
-5.55980539 -5.41873407 -0.16366097 -0.54502505 -0.74202615 -0.06576966
-5.61065006 -5.18664551 1.45813251 -0.55000931 -0.71024460 0.58597279
-5.76883793 -5.24996138 -0.19995300 -0.56551641 -0.71891487 -0.08035417
-6.19508553 -5.15159130 1.46538305 -0.60730124 -0.70544434 0.58888656
-5.57697868 -6.16220951 0.79601651 -0.54670852 -0.84383553 0.31989139
-5.59088945 -5.76623249 0.70965225 -0.54807222 -0.78961158 0.28518459
-5.62216282 -6.39614201 1.10430646 -0.55113792 -0.87586963 0.44378242
-5.59751272 -5.93827486 1.01119995 -0.54872149 -0.81317055 0.40636614
-5.59705830 -5.33403969 0.63987511 -0.54867697 -0.73042834 0.25714359
-5.85609961 -5.21055984 0.59034026 -0.57407063 -0.71351933 0.23723724
-5.62370825 -5.51413727 0.92666686 -0.55128944 -0.75509036 0.37239522
-5.66818428 -5.19264317 0.84677881 -0.55564940 -0.71106589 0.34029099
-5.59703684 -7.22158384 0.34880075 -0.54867482 -0.98890328 0.14017090
-5.60027552 -6.72349072 0.27912375 -0.54899234 -0.92069584 0.11217014
-5.60003281 -6.92435503 0.59588736 -0.54896855 -0.94820160 0.23946644
-5.60068989 -6.21856117 0.22206989 -0.54903293 -0.85155219 0.08924218
-5.43880129 -6.10061216 2.15543294 -0.53316307 -0.83540058 0.86619365
-5.56751204 -5.77001619 0.15556566 -0.54578054 -0.79012972 0.06251644
-5.66386986 -5.70412540 2.04495692 -0.55522645 -0.78110683 0.82179719
-5.60124159 -6.40502167 0.51559865 -0.54908705 -0.87708557 0.20720120
-5.58835983 -5.95832920 0.43880057 -0.54782426 -0.81591678 0.17633872
-5.57403708 -5.33043051 0.10710163 -0.54642016 -0.72993410 0.04304043
-5.81578684 -5.19595194 1.90628004 -0.57011878 -0.71151894 0.76606774
-5.85725164 -5.23998690 0.05850531 -0.57418358 -0.71754897 0.02351125
-6.46723509 -5.18654966 1.93840063 -0.63397998 -0.71023142 0.77897590
-5.58471107 -5.50063515 0.37359723 -0.54746658 -0.75324142 0.15013576
-5.69222212 -5.23881483 0.32280144 -0.55800581 -0.71738851 0.12972268
-5.62930441 -7.17311430 1.50721872 -0.55183804 -0.98226601 0.60569888
-5.57344818 -6.93152237 -0.02465709 -0.54636246 -0.94918311 -0.00990883
-5.59502316 -6.32152414 1.33230114 -0.54847741 -0.86565167 0.53540558
-5.60228634 -5.69997215 1.18662333 -0.54918945 -0.78053808 0.47686270
-5.56309652 -6.38829279 -0.06181938 -0.54534769 -0.87479478 -0.02484306
-5.60540724 -6.59978485 1.81767631 -0.54949540 -0.90375590 0.73046100
-5.53529024 -5.93798876 -0.11921681 -0.54262185 -0.81313139 -0.04790910
-5.60130501 -5.94278812 1.63878870 -0.54909325 -0.81378859 0.65857226
-5.61202717 -6.84015751 0.89113963 -0.55014431 -0.93667185 0.35811806
-5.57818079 -5.50567865 -0.16390704 -0.54682636 -0.75393206 -0.06586855
-5.59367418 -5.23659372 1.46234953 -0.54834521 -0.71708435 0.58766747
-5.69740963 -5.25096512 -0.19953901 -0.55851436 -0.71905231 -0.08018780
-6.11587572 -5.15126562 1.45403922 -0.59953636 -0.70539975 0.58432788
-5.56852722 -6.23128796 0.80115759 -0.54588008 -0.85329497 0.32195741
-5.59040689 -5.83850813 0.71511388 -0.54802489 -0.79950881 0.28737944
-5.62455320 -6.48076439 1.11384368 -0.55137223 -0.88745755 0.44761509
-5.61285591 -6.02973080 1.02208805 -0.55022556 -0.82569426 0.41074169
-5.59628296 -5.40097094 0.64448309 -0.54860091 -0.73959368 0.25899538
-5.77727652 -5.20604563 0.58460069 -0.56634367 -0.71290118 0.23493071
-5.63804913 -5.59836578 0.93605357 -0.55269527 -0.76662439 0.37616742
-5.61357832 -5.20797443 0.84296304 -0.55029637 -0.71316528 0.33875757
-5.59736729 -6.80628681 0.28207594 -0.54870725 -0.93203366 0.11335652
-5.59507895 -7.00760412 0.60098165 -0.54848289 -0.95960152 0.24151365
-5.58799171 -6.28355503 0.22378916 -0.54778814 -0.86045223 0.08993309
-5.43345737 -6.17244816 2.16889286 -0.53263921 -0.84523761 0.87160271
-5.58782721 -5.86406612 0.15856528 -0.54777205 -0.80300862 0.06372188
-5.66733265 -5.77959347 2.05948353 -0.55556589 -0.79144120 0.82763493
-5.60247612 -6.48848629 0.52050227 -0.54920805 -0.88851500 0.20917179
-5.57527924 -6.01960993 0.44133702 -0.54654193 -0.82430840 0.17735802
-5.56335258 -5.38765860 0.10811771 -0.54537278 -0.73777074 0.04344875
-5.66960049 -5.12922668 1.86812341 -0.55578822 -0.70238179 0.75073391
-5.79153872 -5.24723673 0.05740611 -0.56774175 -0.71854174 0.02306952
-6.46932268 -5.25521278 1.94905031 -0.63418460 -0.71963400 0.78325564
-5.58950233 -5.57518101 0.37724531 -0.54793626 -0.76344955 0.15160179
-5.63430452 -5.25140142 0.32077941 -0.55232817 -0.71911204 0.12891011
-5.57218170 -7.01956367 -0.02379171 -0.54623830 -0.96123922 -0.00956106
-5.59276628 -6.39975595 1.34156740 -0.54825622 -0.87636447 0.53912932
-5.60501814 -5.77468538 1.19507742 -0.54945725 -0.79076910 0.48026010
-5.56705666 -6.47478533 -0.06120907 -0.54573590 -0.88663882 -0.02459780
-5.60142422 -6.67992067 1.83022511 -0.54910493 -0.91472948 0.73550391
-5.49651337 -5.97118235 -0.11922140 -0.53882056 -0.81767684 -0.04791094
-5.61471605 -6.03223801 1.65404153 -0.55040795 -0.82603765 0.66470182
-5.61157274 -6.92767191 0.89900208 -0.55009979 -0.94865578 0.36127770
-5.56323004 -5.56046391 -0.16400012 -0.54536074 -0.76143420 -0.06590595
-5.57202911 -5.28247023 1.46541655 -0.54622334 -0.72336656 0.58890003
-5.62619781 -5.25127935 -0.19912499 -0.55153346 -0.71909535 -0.08002142
-6.02492285 -5.13997173 1.43976796 -0.59062028 -0.70385319 0.57859272
-5.58958769 -6.33485079 0.81143975 -0.54794461 -0.86747658 0.32608944
-5.55224228 -5.87207651 0.71490377 -0.54428363 -0.80410558 0.28729498
-5.61839485 -6.55663252 1.12164688 -0.55076855 -0.89784670 0.45075092
-5.58964157 -6.08088017 1.02515912 -0.54794991 -0.83269852 0.41197586
-5.59772539 -5.47089100 0.64949173 -0.54874235 -0.74916834 0.26100817
-5.71348810 -5.21413374 0.58071256 -0.56009048 -0.71400875 0.23336820
-5.61949015 -5.65058613 0.93927193 -0.55087590 -0.77377528 0.37746078
-5.59378958 -5.25533295 0.84525251 -0.54835653 -0.71965045 0.33967763
-5.59363747 -6.88930988 0.28502813 -0.54834157 -0.94340265 0.11454291
-5.59053564 -7.09262466 0.60624021 -0.54803753 -0.97124398 0.24362689
-5.59441900 -6.37120295 0.22679789 -0.54841822 -0.87245452 0.09114220
-5.43374252 -6.25176191 2.18494081 -0.53266716 -0.85609859 0.87805182
-5.54949856 -5.89760733 0.15849212 -0.54401469 -0.80760169 0.06369248
-5.60930014 -5.79288626 2.05146885 -0.54987699 -0.79326147 0.82441407
-5.60546160 -6.57525826 0.52571237 -0.54950070 -0.90039730 0.21126555
-5.58729935 -6.10886812 0.44655082 -0.54772025 -0.83653110 0.17945327
-5.56782675 -5.46039867 0.10983236 -0.54581141 -0.74773157 0.04413781
-5.63726091 -5.16474819 1.86812341 -0.55261797 -0.70724601 0.75073391
-5.72596693 -5.25386906 0.05630691 -0.56131381 -0.71945000 0.02262779
-6.44219732 -5.30068684 1.95090234 -0.63152552 -0.72586107 0.78399992
-5.58377218 -5.64004993 0.37998137 -0.54737449 -0.77233249 0.15270132
-5.59100962 -5.27713299 0.31994680 -0.54808402 -0.72263569 0.12857550
-5.57497549 -7.11414528 -0.02282452 -0.54651219 -0.97419095 -0.00917238
-5.59617662 -6.48569632 1.35243142 -0.54859048 -0.88813293 0.54349524
-5.60977459 -5.85250425 1.20413542 -0.54992354 -0.80142540 0.48390022
-5.56369400 -6.55393934 -0.06068851 -0.54540628 -0.89747792 -0.02438861
-5.60535955 -6.77083063 1.84570217 -0.54949069 -0.92717838 0.74172360
-5.57624531 -6.13406324 -0.11882211 -0.54663664 -0.83998126 -0.04775048
-5.60196304 -6.09474325 1.66166794 -0.54915774 -0.83459693 0.66776663
-5.57024193 -5.63809872 -0.16419964 -0.54604816 -0.77206528 -0.06598613
-5.57123613 -5.26597738 -0.19888614 -0.54614562 -0.72110808 -0.07992543
-5.96417809 -5.15337372 1.43281531 -0.58466554 -0.70568842 0.57579869
-5.59003544 -6.41639709 0.81836903 -0.54798847 -0.87864327 0.32887408
-5.57920599 -5.97501183 0.72477674 -0.54692692 -0.81820124 0.29126260
-5.61787796 -6.64024639 1.13089502 -0.55071789 -0.90929657 0.45446745
-5.61138344 -6.18172169 1.03772235 -0.55008125 -0.84650749 0.41702458
-5.59427643 -5.53683043 0.65389931 -0.54840422 -0.75819790 0.26277941
-5.64836121 -5.22027874 0.57663929 -0.55370617 -0.71485019 0.23173131
-5.62958431 -5.73256350 0.94812226 -0.55186546 -0.78500104 0.38101742
-5.58659410 -5.31491947 0.84983146 -0.54765111 -0.72781003 0.34151775
-5.59785557 -6.98344421 0.28864691 -0.54875511 -0.95629311 0.11599717
-5.59005404 -7.18414402 0.61215615 -0.54799032 -0.98377639 0.24600430
-5.59604788 -6.45463943 0.22954875 -0.54857790 -0.88388008 0.09224767
-5.54643774 -5.96887732 0.16032115 -0.54371464 -0.81736118 0.06442750
-5.61706734 -5.87408590 2.06799912 -0.55063844 -0.80438071 0.83105701
-5.59092903 -6.64244986 0.52893043 -0.54807609 -0.90959829 0.21255878
-5.57696342 -6.17487621 0.44951001 -0.54670703 -0.84557009 0.18064246
-5.56594658 -5.52775717 0.11129298 -0.54562706 -0.75695544 0.04472478
-5.59476423 -5.19079924 1.86474252 -0.54845208 -0.71081340 0.74937528
-5.67081976 -5.26938581 0.05555746 -0.55590773 -0.72157478 0.02232661
-6.41625357 -5.34726954 1.95321751 -0.62898225 -0.73223996 0.78493029
-5.59414482 -5.72223282 0.38428092 -0.54839134 -0.78358638 0.15442915
-5.56931734 -5.32316303 0.32089835 -0.54595751 -0.72893888 0.12895790
-5.57802582 -7.21061659 -0.02183188 -0.54681122 -0.98740143 -0.00877348
-5.58340502 -6.55385971 1.35946107 -0.54733855 -0.89746702 0.54632020
-5.55517673 -5.86901379 1.20021033 -0.54457134 -0.80368614 0.48232284
-5.55827427 -6.63176918 -0.06018590 -0.54487497 -0.90813571 -0.02418662
-5.59479570 -6.84536266 1.85657787 -0.54845512 -0.93738461 0.74609417
-5.55500937 -6.18828392 -0.11876244 -0.54455489 -0.84740609 -0.04772650
-5.54771423 -6.11244965 1.65685129 -0.54383975 -0.83702159 0.66583097
-5.60802078 -7.10347986 0.91472691 -0.54975158 -0.97273046 0.36759698
-5.55699444 -5.69594812 -0.16430603 -0.54474950 -0.77998704 -0.06602889
-5.56276464 -5.40832376 1.48113489 -0.54531515 -0.74060059 0.59521669
-5.52645206 -5.28984547 -0.19875877 -0.54175544 -0.72437650 -0.07987425
-5.75371885 -5.03582239 1.38890386 -0.56403428 -0.68959129 0.55815220
-5.58579969 -6.49366808 0.82462776 -0.54757327 -0.88922453 0.33138925
-5.59022188 -6.06246758 0.73233896 -0.54800677 -0.83017719 0.29430160
-5.62538624 -6.73476362 1.14216638 -0.55145389 -0.92223948 0.45899701
-5.59363937 -6.24040079 1.04218924 -0.54834181 -0.85454285 0.41881967
-5.59021854 -5.60294151 0.65830690 -0.54800642 -0.76725096 0.26455069
-5.58484173 -5.22716904 0.57275116 -0.54747933 -0.71579373 0.23016880
-5.61272097 -5.78778934 0.95187694 -0.55021232 -0.79256350 0.38252628
-5.58603096 -5.38148546 0.85568237 -0.54759592 -0.73692542 0.34386903
-5.58246136 -7.05444479 0.29083723 -0.54724604 -0.96601576 0.11687738
-5.58907223 -6.52921963 0.23178381 -0.54789406 -0.89409286 0.09314586
-5.58063698 -6.08148003 0.16419870 -0.54706717 -0.83278066 0.06598575
-5.66668558 -6.00055313 2.10055900 -0.55550247 -0.82169878 0.84414172
-5.60119057 -6.74044991 0.53521317 -0.54908204 -0.92301816 0.21508358
-5.58865261 -6.26625109 0.45486474 -0.54785293 -0.85808271 0.18279435
-5.57468510 -5.60667562 0.11326165 -0.54648370 -0.76776230 0.04551592
-5.65515804 -5.31380796 1.89662015 -0.55437243 -0.72765785 0.76218575
-5.60694647 -5.27621937 0.05450822 -0.54964626 -0.72251058 0.02190496
-6.02496529 -5.08714724 1.84209085 -0.59062445 -0.69661957 0.74027234
-5.58020067 -5.78029823 0.38636553 -0.54702437 -0.79153770 0.15526690
-5.55733442 -5.37882137 0.32268250 -0.54478282 -0.73656058 0.12967490
-5.48635578 -7.18522596 -0.02279907 -0.53782481 -0.98392451 -0.00916215
-5.58900595 -6.64482546 1.37128365 -0.54788756 -0.90992361 0.55107129
-5.57910633 -5.96864605 1.21379733 -0.54691714 -0.81732953 0.48778298
-5.55463696 -6.71287537 -0.05964739 -0.54451841 -0.91924220 -0.02397021
-5.59698629 -6.93680143 1.87205482 -0.54866987 -0.94990599 0.75231379
-5.52532959 -6.23351860 -0.11873031 -0.54164541 -0.85360044 -0.04771359
-5.61672115 -6.26656628 1.68976533 -0.55060446 -0.85812587 0.67905802
-5.59267044 -7.17611599 0.92027688 -0.54824680 -0.98267704 0.36982733
-5.56676626 -5.77839804 -0.16452549 -0.54570740 -0.79127747 -0.06611709
-5.56913328 -5.48321152 1.49225271 -0.54593945 -0.75085551 0.59968454
-5.56221342 -5.39109516 -0.19952308 -0.54526109 -0.73824131 -0.08018140
-5.83110523 -5.16809797 1.41598260 -0.57162046 -0.70770472 0.56903422
-5.58979321 -6.58176231 0.83245116 -0.54796475 -0.90128791 0.33453321
-5.58290243 -6.13122034 0.73717046 -0.54728925 -0.83959198 0.29624322
-5.61309290 -6.80668879 1.14910245 -0.55024880 -0.93208873 0.46178436
-5.61749506 -6.34645271 1.05559003 -0.55068034 -0.86906528 0.42420498
-5.58554935 -5.66921902 0.66271448 -0.54754871 -0.77632684 0.26632193
-5.55913353 -5.26898670 0.57367688 -0.54495919 -0.72152013 0.23054081
-5.62546253 -5.87459660 0.96153188 -0.55146140 -0.80445063 0.38640627
-5.57203817 -5.43581867 0.85924375 -0.54622424 -0.74436563 0.34530023
-5.58489513 -7.14909935 0.29445603 -0.54748458 -0.97897744 0.11833166
-5.59681416 -6.62231493 0.23505044 -0.54865301 -0.90684110 0.09445861
-5.55577326 -6.13120127 0.16493031 -0.54462981 -0.83958936 0.06627977
-5.65799999 -6.06712103 2.11157942 -0.55465102 -0.83081442 0.84857041
-5.59530449 -6.82030392 0.53965706 -0.54850501 -0.93395317 0.21686943
-5.58090210 -6.33709812 0.45824668 -0.54709315 -0.86778432 0.18415342
-5.56449032 -5.66733122 0.11440475 -0.54548430 -0.77606833 0.04597529
-5.66233110 -5.38814020 1.91062701 -0.55507559 -0.73783666 0.76781464
-5.51999521 -5.26045227 0.05265957 -0.54112250 -0.72035146 0.02116205
-6.05067968 -5.17407036 1.86014891 -0.59314525 -0.70852256 0.74752927
-5.59321547 -5.86737347 0.39105594 -0.54830021 -0.80346155 0.15715180
-5.58346701 -5.47216892 0.32767811 -0.54734457 -0.74934334 0.13168246
-5.58236265 -6.72242212 1.38023043 -0.54723632 -0.92054951 0.55466670
-5.59393311 -6.06011152 1.22557271 -0.54837060 -0.82985455 0.49251512
-5.54767561 -6.79109240 -0.05914478 -0.54383600 -0.92995298 -0.02376823
-5.64077282 -7.08217525 1.90217209 -0.55296224 -0.96981305 0.76441687
-5.55341911 -6.34470177 -0.11849624 -0.54439902 -0.86882550 -0.04761952
-5.60067415 -6.32808685 1.69699037 -0.54903138 -0.86655033 0.68196148
-5.59044123 -7.24320984 0.92628932 -0.54802829 -0.99186468 0.37224349
-5.56288528 -5.82922268 -0.16463855 -0.54532695 -0.79823726 -0.06616251
-5.54184389 -5.50800705 1.49186933 -0.54326427 -0.75425094 0.59953046
-5.57974195 -5.45909309 -0.20000078 -0.54697943 -0.74755275 -0.08037337
-5.76262474 -5.15630150 1.40500474 -0.56490731 -0.70608938 0.56462258
-5.59826565 -6.65527201 0.83938044 -0.54879528 -0.91135412 0.33731785
-5.54726887 -6.15009308 0.73612010 -0.54379612 -0.84217638 0.29582110
-5.62714338 -6.88988209 1.15979576 -0.55162615 -0.94348097 0.46608165
-5.61370945 -6.40257359 1.06117368 -0.55030924 -0.87675035 0.42644885
-5.59758711 -5.73545122 0.66832417 -0.54872876 -0.78539646 0.26857626
-5.52847195 -5.28963327 0.57293630 -0.54195344 -0.72434741 0.23024321
-5.59499598 -5.89815807 0.96099550 -0.54847479 -0.80767709 0.38619071
-5.59029007 -5.50505114 0.86712974 -0.54801345 -0.75384617 0.34846932
-5.59282637 -7.22896719 0.29769391 -0.54826206 -0.98991436 0.11963284
-5.60135698 -6.69160080 0.23745742 -0.54909831 -0.91632891 0.09542589
-5.58304501 -6.21964550 0.16800308 -0.54730320 -0.85170066 0.06751461
-5.67018509 -6.13770580 2.12710786 -0.55584550 -0.84048009 0.85481077
-5.60699034 -6.90086365 0.54502040 -0.54965055 -0.94498473 0.21902478
-5.60095072 -6.42033577 0.46360138 -0.54905850 -0.87918264 0.18630530
-5.57386446 -5.73083973 0.11605588 -0.54640329 -0.78476501 0.04663883
-5.64944267 -5.42689657 1.91497397 -0.55381215 -0.74314386 0.76956153
-5.97899818 -5.16196012 1.84533203 -0.58611834 -0.70686424 0.74157488
-5.58873606 -5.91839170 0.39327085 -0.54786110 -0.81044781 0.15804189
-5.58892155 -5.52922916 0.33029488 -0.54787928 -0.75715703 0.13273405
-5.59814358 -6.80670738 1.39237249 -0.54878330 -0.93209130 0.55954617
-5.60945940 -6.13444519 1.23553646 -0.54989260 -0.84003359 0.49651918
-5.56954718 -6.88414001 -0.05837292 -0.54598004 -0.94269466 -0.02345805
-5.55660915 -7.04407072 1.88460362 -0.54471171 -0.96459514 0.75735676
-5.59177589 -6.44921541 -0.11825757 -0.54815912 -0.88313735 -0.04752361
-5.62130260 -6.41174603 1.71264470 -0.55105358 -0.87800640 0.68825245
-5.56445265 -5.90491152 -0.16482475 -0.54548061 -0.80860192 -0.06623735
-5.58164024 -5.61810541 1.51257145 -0.54716551 -0.76932746 0.60784996
-5.58806324 -5.53615999 -0.20047846 -0.54779518 -0.75810611 -0.08056533
-5.70090342 -5.16607761 1.39768612 -0.55885684 -0.70742804 0.56168151
-5.59559155 -6.73780441 0.84630972 -0.54853314 -0.92265588 0.34010249
-5.58280087 -6.26781797 0.74788362 -0.54727930 -0.85829729 0.30054846
-5.62090206 -6.97140551 1.16846597 -0.55101430 -0.95464456 0.46956590
-5.62536287 -6.49748564 1.07234097 -0.55145162 -0.88974732 0.43093660
-5.59724903 -5.80785275 0.67353314 -0.54869562 -0.79531091 0.27066958
-5.57542467 -5.40165281 0.58330464 -0.54655623 -0.73968709 0.23440988
-5.60512304 -5.98394012 0.97038227 -0.54946750 -0.81942385 0.38996294
-5.58234835 -5.56661224 0.87196308 -0.54723495 -0.76227617 0.35041168
-5.60362816 -6.78067446 0.24046618 -0.54932100 -0.92852640 0.09663501
-5.56512547 -6.27848148 0.16917367 -0.54554659 -0.85975748 0.06798502
-5.64721012 -6.19033861 2.13311887 -0.55359328 -0.84768748 0.85722637
-5.60582256 -6.98894215 0.55023050 -0.54953611 -0.95704597 0.22111852
-5.59444666 -6.49462080 0.46726516 -0.54842091 -0.88935500 0.18777764
-5.57227278 -5.80187893 0.11764352 -0.54624724 -0.79449290 0.04727684
-5.64714909 -5.49349403 1.92608285 -0.55358732 -0.75226355 0.77402580
-5.52069092 -5.37787342 0.05470808 -0.54119068 -0.73643076 0.02198528
-5.91121483 -5.16877842 1.83421934 -0.57947356 -0.70779788 0.73710907
-5.58673286 -5.99142838 0.39665836 -0.54766476 -0.82044929 0.15940322
-5.58659410 -5.59665108 0.33303058 -0.54765111 -0.76638955 0.13383342
-5.59001255 -6.88474226 1.40131938 -0.54798627 -0.94277716 0.56314158
-5.59604788 -6.19738817 1.24127316 -0.54857790 -0.84865284 0.49882457
-5.56600761 -6.96909523 -0.05779851 -0.54563308 -0.95432818 -0.02322721
-5.57454157 -7.15922785 1.90635514 -0.54646963 -0.98036444 0.76609790
-5.56027412 -6.49483490 -0.11822545 -0.54507101 -0.88938433 -0.04751070
-5.60148001 -6.47059202 1.71906686 -0.54911041 -0.88606459 0.69083327
-5.55169916 -5.96617270 -0.16494446 -0.54423040 -0.81699085 -0.06628545
-5.56405497 -5.67132568 1.51755536 -0.54544163 -0.77661532 0.60985279
-5.57298613 -5.59094048 -0.20070140 -0.54631716 -0.76560760 -0.08065492
-5.63202667 -5.16865492 1.38853788 -0.55210489 -0.70778102 0.55800515
-5.59586954 -6.82518387 0.85390955 -0.54856038 -0.93462139 0.34315661
-5.60784912 -6.37579632 0.75817668 -0.54973477 -0.87308353 0.30468488
-5.62245989 -7.06397867 1.17915916 -0.55116707 -0.96732128 0.47386312
-5.61410666 -6.56725550 1.07876217 -0.55034816 -0.89930141 0.43351704
-5.59485197 -5.87902975 0.67854178 -0.54846066 -0.80505770 0.27268237
-5.57985497 -5.47413206 0.58830363 -0.54699051 -0.74961215 0.23641880
-5.59064722 -5.64516115 0.87984908 -0.54804844 -0.77303243 0.35358077
-5.59744167 -6.86073208 0.24295913 -0.54871452 -0.93948925 0.09763683
-5.59288502 -6.38986397 0.17290489 -0.54826784 -0.87500989 0.06948447
-5.61340141 -6.23144054 2.13512254 -0.55027902 -0.85331583 0.85803157
-5.60129881 -7.07414389 0.55513418 -0.54909265 -0.96871328 0.22308914
-5.59759808 -6.58120918 0.47205621 -0.54872984 -0.90121216 0.18970300
-5.56726265 -5.87021542 0.11910414 -0.54575610 -0.80385071 0.04786382
-5.64148235 -5.55754471 1.93622565 -0.55303180 -0.76103449 0.77810186
-5.54387522 -5.46846771 0.05670662 -0.54346341 -0.74883652 0.02278842
-5.88592148 -5.21224833 1.83653450 -0.57699406 -0.71375054 0.73803943
-5.57863808 -6.05878544 0.39952472 -0.54687124 -0.82967293 0.16055511
-5.58785391 -5.66851521 0.33612311 -0.54777461 -0.77623045 0.13507621
-5.59097052 -6.97528887 1.41282237 -0.54808015 -0.95517635 0.56776422
-5.58866262 -6.26776600 1.24851954 -0.54785389 -0.85829014 0.50173664
-5.57026100 -7.06528950 -0.05709845 -0.54605001 -0.96750075 -0.02294588
-5.57891369 -6.59976339 -0.11801432 -0.54689825 -0.90375292 -0.04742586
-5.61815977 -6.57254457 1.73712957 -0.55074549 -0.90002567 0.69809204
-5.52759886 -6.01569796 -0.16501094 -0.54186785 -0.82377267 -0.06631216
-5.56372929 -5.74291849 1.52752304 -0.54540974 -0.78641903 0.61385846
-5.58416605 -5.67276096 -0.20122686 -0.54741311 -0.77681184 -0.08086608
