0.83931887 -17.33757782 1.38132250 0.26130655 -0.86994982 0.51536906
0.86887199 -17.16771507 0.17753725 0.27050737 -0.86142659 0.06623884
0.75881976 -19.41265297 2.23220420 0.23624463 -0.97407115 0.83283150
0.94345641 -17.24642181 1.37382174 0.29372787 -0.86537588 0.51257050
0.98495692 -17.30365562 0.18014230 0.30664828 -0.86824775 0.06721078
0.84983784 -18.74117088 2.15079236 0.26458144 -0.94037813 0.80245692
1.09790015 -17.36297798 0.18135311 0.34181109 -0.87122434 0.06766253
0.89742810 -17.40519333 1.98821115 0.27939779 -0.87334257 0.74179816
0.93089694 -17.44998360 0.79309785 0.28981772 -0.87559003 0.29590344
1.20824206 -17.37368774 0.18168332 0.37616402 -0.87176174 0.06778573
1.00478077 -17.36552048 1.98409212 0.31282008 -0.87135190 0.74026132
1.03045642 -17.27832985 0.78426510 0.32081375 -0.86697692 0.29260796
1.23327637 -16.75668526 1.33265531 0.38395801 -0.84080231 0.49721140
1.31891549 -17.38569069 0.18205023 0.41062018 -0.87236398 0.06792263
1.08799207 -17.38238716 1.98675728 0.33872640 -0.87219822 0.74125570
1.11957419 -17.39086342 0.79054379 0.34855890 -0.87262356 0.29495052
1.37524033 -17.06637955 0.17628975 0.42815587 -0.85634190 0.06577341
1.19843566 -17.39303017 1.98893797 0.37311098 -0.87273228 0.74206930
0.67398340 -19.69289589 2.15490913 0.20983239 -0.98813295 0.80399287
1.23053920 -17.40739059 0.79182082 0.38310584 -0.87345284 0.29542699
1.43534827 -16.95054436 1.35097086 0.44686940 -0.85052961 0.50404489
0.82942301 -17.38083839 1.29626524 0.25822565 -0.87212050 0.48363432
1.47401953 -16.96179008 0.17452858 0.45890898 -0.85109389 0.06511632
0.87674725 -17.34149551 0.08313340 0.27295920 -0.87014639 0.03101693
1.24312449 -16.53991127 1.88547719 0.38702404 -0.82992524 0.70346826
1.30159450 -16.90950584 0.76564187 0.40522760 -0.84847039 0.28565967
1.44449174 -15.88572407 1.25817180 0.44971603 -0.79710001 0.46942171
0.94082201 -17.41708374 1.29971611 0.29290769 -0.87393922 0.48492184
1.58150387 -16.96214676 0.17471203 0.49237224 -0.85111177 0.06518476
0.98135275 -17.25777245 0.08214076 0.30552620 -0.86594546 0.03064658
1.31527388 -16.14794159 1.83847165 0.40948644 -0.81025732 0.68593061
0.82146156 -17.49991226 1.90053654 0.25574702 -0.87809533 0.70908689
1.37972903 -16.56865120 0.74786997 0.42955336 -0.83136731 0.27902898
1.62263680 -16.67142677 1.32811999 0.50517821 -0.83652431 0.49551928
1.04835427 -17.37899208 1.29708683 0.32638589 -0.87202787 0.48394087
1.69025397 -16.97376060 0.17511564 0.52622962 -0.85169452 0.06533535
1.09620047 -17.35505867 0.08346427 0.34128192 -0.87082696 0.03114038
1.38783050 -15.81505871 1.79873490 0.43207559 -0.79355419 0.67110491
0.93036669 -17.47456741 1.89822400 0.28965262 -0.87682360 0.70822412
1.45796883 -16.27523232 0.73265213 0.45391190 -0.81664437 0.27335125
0.90759230 -17.42682838 0.69385684 0.28256223 -0.87442815 0.25887680
1.07628644 -16.13093948 1.19454443 0.33508205 -0.80940419 0.44568247
1.80091655 -17.00058365 0.17581277 0.56068236 -0.85304046 0.06559544
1.20658588 -17.36777878 0.08371880 0.37564841 -0.87146521 0.03123534
1.47906578 -15.72104549 1.78831613 0.46048003 -0.78883690 0.66721767
1.03516519 -17.38309860 1.88828039 0.32227972 -0.87223393 0.70451415
1.55614316 -16.22400665 0.73041737 0.48447666 -0.81407404 0.27251747
1.01045132 -17.30510330 0.68833345 0.31458551 -0.86832035 0.25681603
1.77868629 -16.17052078 1.28590691 0.55376136 -0.81139028 0.47976965
1.23868942 -16.97477531 1.26487803 0.38564327 -0.85174543 0.47192380
1.91130614 -17.02072334 0.17639983 0.59505016 -0.85405099 0.06581447
1.31821597 -17.39375877 0.08415149 0.41040239 -0.87276882 0.03139678
1.55333054 -15.71587658 1.78855848 0.48360100 -0.78857756 0.66730809
1.11832047 -17.39785385 1.89059281 0.34816858 -0.87297434 0.70537692
0.74788970 -19.19779587 2.66638660 0.23284176 -0.96329021 0.99482423
1.63298452 -16.22046661 0.73063022 0.50839984 -0.81389642 0.27259687
1.09853399 -17.40582657 0.69338071 0.34200844 -0.87337434 0.25869915
1.92628717 -16.77746010 1.34015596 0.59971422 -0.84184474 0.50000989
1.32429326 -17.04228401 1.27095830 0.41229445 -0.85513282 0.47419235
1.99243236 -17.01947021 0.17654659 0.62030733 -0.85398811 0.06586923
1.37722826 -17.09828568 0.08046091 0.42877480 -0.85794282 0.03001983
1.65225530 -15.70778084 1.78880072 0.51439941 -0.78817129 0.66739845
1.19005370 -16.84944725 1.82746220 0.37050143 -0.84545684 0.68182302
0.86712414 -19.16306305 2.66205168 0.26996320 -0.96154743 0.99320686
1.73572791 -16.21782875 0.73105586 0.54038709 -0.81376404 0.27275568
1.20882785 -17.41253281 0.69404733 0.37634641 -0.87371087 0.25894785
2.06773353 -17.05969048 1.36614668 0.64375097 -0.85600626 0.50970697
1.41341126 -16.81710625 1.25304627 0.44003969 -0.84383404 0.46750939
2.10427570 -17.04630089 0.17728041 0.65512770 -0.85533440 0.06614301
1.47558391 -16.98369026 0.07911193 0.45939603 -0.85219276 0.02951653
0.86092055 -17.29324341 0.01755694 0.26803184 -0.86772525 0.00655047
1.75470138 -15.73062611 1.79291975 0.54629415 -0.78931761 0.66893524
1.26424253 -16.42366600 1.77866888 0.39359877 -0.82409239 0.66361827
0.99167025 -19.23628807 2.67361188 0.30873838 -0.96522164 0.99751997
1.84054983 -16.23239708 0.73243934 0.57302147 -0.81449503 0.27327186
1.32088339 -17.44045258 0.69576150 0.41123286 -0.87511182 0.25958741
2.17946196 -17.08193016 1.36928654 0.67853558 -0.85712218 0.51087844
1.44257534 -15.95021725 1.18205535 0.44911942 -0.80033606 0.44102281
0.94149005 -17.43890190 1.20379186 0.29311568 -0.87503397 0.44913265
2.19756889 -16.92765999 0.17533578 0.68417281 -0.84938133 0.06541748
1.58189929 -16.97010040 0.07906103 0.49249536 -0.85151088 0.02949753
0.96990252 -17.29348373 0.01761080 0.30196139 -0.86773729 0.00657056
1.85538471 -15.73506069 1.79485810 0.57764006 -0.78954011 0.66965848
1.33881545 -16.06693077 1.73796928 0.41681567 -0.80619240 0.64843333
1.11111844 -19.20597076 2.67014384 0.34592637 -0.96370041 0.99622607
1.94610310 -16.25025177 0.73403561 0.60588354 -0.81539094 0.27386743
1.43237102 -17.45570374 0.69690424 0.44594249 -0.87587708 0.26001376
2.29021692 -17.09356689 1.37155414 0.71301711 -0.85770607 0.51172447
1.04406989 -17.31919098 1.19505727 0.32505202 -0.86902726 0.44587380
2.32375908 -17.05813408 0.17801422 0.72345984 -0.85592812 0.06641680
1.69299579 -17.00560188 0.07964643 0.52708322 -0.85329223 0.02971595
1.08120525 -17.32896042 0.01798775 0.33661345 -0.86951745 0.00671120
1.95693505 -15.74476051 1.79752338 0.60925585 -0.79002684 0.67065287
1.42102504 -15.84646130 1.71322572 0.44241011 -0.79512990 0.63920158
0.86549991 -17.46189308 1.82758534 0.26945755 -0.87618762 0.68186891
1.23627830 -19.26772881 2.68025899 0.38489261 -0.96679926 1.00000000
2.05018663 -16.25355339 0.73488694 0.63828808 -0.81555659 0.27418506
1.54340804 -17.46228218 0.69766611 0.48051181 -0.87620711 0.26029801
2.40343857 -17.12026787 1.37521720 0.74826658 -0.85904586 0.51309115
1.72811675 -16.76764679 1.25140285 0.53801751 -0.84135234 0.46689624
0.89719307 -17.26732635 0.60589898 0.27932462 -0.86642480 0.22605987
2.43459296 -17.06892776 0.17849120 0.75796592 -0.85646975 0.06659476
1.80355942 -17.03042984 0.08010457 0.56150520 -0.85453802 0.02988688
1.19034302 -17.32581520 0.01802365 0.37059149 -0.86935961 0.00672459
2.03374314 -15.56485653 1.77692819 0.63316870 -0.78099978 0.66296881
1.50857317 -15.71064568 1.69842589 0.46966663 -0.78831506 0.63367975
0.96727669 -17.31721306 1.81193852 0.30114388 -0.86892802 0.67603111
1.21526384 -17.27377319 2.38951850 0.37835014 -0.86674833 0.89152521
0.65334111 -19.92939949 2.67177939 0.20340578 -1.00000000 0.99683630
2.15809608 -16.28390121 0.73722816 0.67188370 -0.81707937 0.27505854
1.65625894 -17.48605347 0.69928503 0.51564586 -0.87739992 0.26090205
2.51475215 -17.13044930 1.37748492 0.78292203 -0.85955673 0.51393723
1.83450830 -16.76636696 1.25222456 0.57114053 -0.84128809 0.46720281
1.00803971 -17.30124092 0.60761827 0.31383470 -0.86812657 0.22670133
1.23539627 -16.95071983 1.16778088 0.38461798 -0.85053843 0.43569702
2.54832816 -17.09679794 0.17929840 0.79337531 -0.85786819 0.06689592
1.91494334 -17.05851555 0.08061362 0.59618253 -0.85594732 0.03007680
1.30237103 -17.35987091 0.01840061 0.40546936 -0.87106842 0.00686524
2.15816736 -15.74449062 1.80067325 0.67190588 -0.79001331 0.67182809
1.61005223 -15.72852802 1.70166337 0.50126028 -0.78921235 0.63488770
1.08397901 -17.43575287 1.82602060 0.33747700 -0.87487596 0.68128514
1.28506517 -16.76859093 2.31668878 0.40008152 -0.84139973 0.86435258
0.75354600 -19.26787758 2.57909060 0.23460275 -0.96680671 0.96225423
2.26147652 -16.27793121 0.73765385 0.70406932 -0.81677979 0.27521738
1.76649082 -17.47927666 0.69947553 0.54996455 -0.87705988 0.26097313
2.62689686 -17.14384651 1.38010144 0.81783623 -0.86022896 0.51491344
1.94957232 -16.83966255 1.25929081 0.60696363 -0.84496588 0.46983922
1.12262523 -17.38428879 0.61148661 0.34950879 -0.87229365 0.22814460
2.66250944 -17.12391090 0.18010561 0.82892352 -0.85922867 0.06719709
2.02558494 -17.07593918 0.08099540 0.63062876 -0.85682154 0.03021925
1.40615678 -17.28756523 0.01782620 0.43778116 -0.86744034 0.00665092
2.23965359 -15.78524208 1.80697298 0.69727510 -0.79205811 0.67417848
1.68415308 -15.72076607 1.70166337 0.52433020 -0.78882289 0.63488770
1.16707551 -17.44433212 1.82758534 0.36334759 -0.87530649 0.68186891
1.32122779 -16.24363518 2.24067998 0.41134006 -0.81505895 0.83599383
0.83147120 -18.96336365 2.53665495 0.25886333 -0.95152712 0.94642156
2.34446406 -16.31057549 0.73999500 0.72990596 -0.81841779 0.27609086
1.84780037 -17.46082497 0.69899935 0.57527882 -0.87613404 0.26079544
2.71360946 -17.16866112 1.38341570 0.84483260 -0.86147410 0.51615000
2.06149888 -17.10341644 1.28196847 0.64180994 -0.85820031 0.47830021
1.20579839 -17.39674377 0.61226034 0.37540323 -0.87291861 0.22843328
1.41899383 -16.90432167 1.16532910 0.44177774 -0.84821028 0.43478227
2.82352448 -17.60864258 0.18935174 0.87905264 -0.88355106 0.07064681
2.10869908 -17.08803940 0.08127538 0.65650481 -0.85742873 0.03032370
1.46013606 -16.96595573 0.01499005 0.45458663 -0.85130292 0.00559276
0.84906930 -17.14878464 -0.09844396 0.26434216 -0.86047673 -0.03672927
2.34583974 -15.81798077 1.81278813 0.73033422 -0.79370081 0.67634815
1.78754663 -15.75133228 1.70651948 0.55651993 -0.79035658 0.63669950
1.39241195 -15.88807678 2.18981504 0.43350196 -0.79721802 0.81701618
0.95497209 -19.04677773 2.54921818 0.29731306 -0.95571256 0.95110887
2.44839454 -16.30539703 0.74052709 0.76226276 -0.81815797 0.27628937
1.96121979 -17.48262405 0.70061827 0.61058986 -0.87722784 0.26139948
2.17091036 -17.10594749 1.28328311 0.67587316 -0.85832727 0.47879070
1.31691694 -17.41273117 0.61329186 0.40999797 -0.87372082 0.22881813
1.44161069 -15.98159122 1.09483945 0.44881907 -0.80191034 0.40848270
0.91912955 -17.42557335 1.09433126 0.28615415 -0.87436521 0.40829310
2.94073153 -17.62999535 0.19008555 0.91554290 -0.88462251 0.07092059
2.20531201 -16.99114609 0.08020638 0.68658352 -0.85256690 0.02992486
1.38793743 -16.47228432 2.64141107 0.43210888 -0.82653189 0.98550588
0.96345508 -17.26492882 -0.09816399 0.29995409 -0.86630452 -0.03662482
2.44915891 -15.82842922 1.81593800 0.76250076 -0.79422510 0.67752331
1.88624537 -15.73781681 1.70628834 0.58724797 -0.78967845 0.63661325
1.29505575 -16.29910278 1.70017588 0.40319189 -0.81784213 0.63433266
1.47907448 -15.74110794 2.16958451 0.46048275 -0.78984356 0.80946821
1.07331300 -19.01667213 2.54586792 0.33415633 -0.95420194 0.94985890
2.55982614 -16.34690094 0.74361324 0.79695499 -0.82024050 0.27744082
1.96087158 -16.53147125 0.65557379 0.61048144 -0.82950175 0.24459344
2.85476661 -16.70123863 1.34504008 0.88877928 -0.83802015 0.50183213
2.28278446 -17.12556267 1.28607666 0.71070313 -0.85931152 0.47983298
1.42894614 -17.43597412 0.61466730 0.44487619 -0.87488711 0.22933130
0.79199082 -17.68789673 0.51017839 0.24657184 -0.88752782 0.19034667
1.01926124 -17.25812721 1.08291733 0.31732830 -0.86596322 0.40403458
2.32379651 -17.06415558 0.08132628 0.72347146 -0.85623032 0.03034270
1.49231052 -16.47306824 2.64300871 0.46460354 -0.82657123 0.98610198
1.68097222 -17.02387810 0.01569011 0.52333993 -0.85420930 0.00585395
1.07410347 -17.29446793 -0.09808138 0.33440244 -0.86778671 -0.03659399
1.98780012 -15.74733925 1.70883203 0.61886513 -0.79015625 0.63756227
1.36693776 -15.94018650 1.66061199 0.42557102 -0.79983276 0.61957145
0.84027213 -17.26175117 1.68665349 0.26160333 -0.86614507 0.62928748
1.58675098 -15.81813431 2.18230081 0.49400586 -0.79370850 0.81421268
1.19814038 -19.09652519 2.55815196 0.37301907 -0.95820874 0.95444208
2.66378069 -16.33837700 0.74403894 0.82931930 -0.81981283 0.27759963
2.06691074 -16.53666878 0.65643090 0.64349478 -0.82976252 0.24491324
2.84787560 -16.05730820 1.28939557 0.88663387 -0.80570960 0.48107126
2.39553714 -17.14839554 1.28919899 0.74580663 -0.86045724 0.48099792
1.54042900 -17.44854355 0.61561292 0.47958434 -0.87551779 0.22968411
0.88616985 -17.34322166 0.49774095 0.27589276 -0.87023300 0.18570629
1.72765124 -16.78135300 1.15812683 0.53787255 -0.84204006 0.43209511
1.13726068 -17.40070152 1.09348583 0.35406527 -0.87311721 0.40797767
2.43544650 -17.08090019 0.08173352 0.75823164 -0.85707051 0.03049463
1.79043913 -17.03684616 0.01590552 0.55742043 -0.85486001 0.00593432
1.18435597 -17.31132507 -0.09802631 0.36872754 -0.86863256 -0.03657344
2.64819694 -15.79835987 1.81618023 0.82446760 -0.79271632 0.67761374
2.09187675 -15.77393150 1.71345699 0.65126753 -0.79149055 0.63928783
1.45246887 -15.77495384 1.64295352 0.45219958 -0.79154187 0.61298311
0.95063686 -17.29187965 1.69043469 0.29596338 -0.86765683 0.63069826
1.68674445 -15.81375504 2.18316770 0.52513701 -0.79348880 0.81453609
1.20352256 -17.40321350 2.32000899 0.37469471 -0.87324327 0.86559135
2.77848649 -16.39218903 0.74786997 0.86503088 -0.82251292 0.27902898
2.17438126 -16.55109024 0.65776414 0.67695379 -0.83048618 0.24541067
2.95741463 -16.08611679 1.29358196 0.92073685 -0.80715513 0.48263320
2.50752354 -17.16259575 1.29166400 0.78067154 -0.86116976 0.48191762
1.65193558 -17.45841217 0.61647254 0.51429987 -0.87601298 0.23000485
0.98973703 -17.24152756 0.49422923 0.30813649 -0.86513031 0.18439607
1.84072411 -16.83953857 1.16349018 0.57307571 -0.84495968 0.43409619
1.24839318 -17.41908455 1.09531772 0.38866434 -0.87403959 0.40866116
2.54886031 -17.10680771 0.08226801 0.79354095 -0.85837048 0.03069405
1.90170240 -17.06301880 0.01624657 0.59206021 -0.85617328 0.00606157
1.29559612 -17.33745003 -0.09794828 0.40336013 -0.86994344 -0.03654433
2.76798677 -15.89873409 1.83071816 0.86176199 -0.79775280 0.68303776
2.19338441 -15.77818871 1.71553826 0.68287003 -0.79170418 0.64006436
1.54997885 -15.74969482 1.64116526 0.48255754 -0.79027444 0.61231589
1.06582820 -17.39476013 1.70198810 0.33182609 -0.87281907 0.63500881
1.78404832 -15.78514862 2.18056679 0.55543077 -0.79205340 0.81356573
1.28320456 -16.99636459 2.26361418 0.39950222 -0.85282874 0.84455055
0.75320315 -19.39229774 2.48701191 0.23449600 -0.97304976 0.92789984
2.28508735 -16.58658409 0.66014493 0.71142006 -0.83226711 0.24629892
3.13680196 -16.47618103 1.33003879 0.97658581 -0.82672745 0.49623516
2.61769485 -17.16226768 1.29297864 0.81497133 -0.86115330 0.48240811
1.76383007 -17.46955299 0.61741817 0.54913616 -0.87657195 0.23035765
1.10603118 -17.36263275 0.49891153 0.34434256 -0.87120700 0.18614303
1.98700809 -17.17425156 1.19030690 0.61861855 -0.86175460 0.44410145
1.31778216 -16.88973427 1.05839825 0.41026732 -0.84747833 0.39488655
2.66543913 -17.14974785 0.08303159 0.82983565 -0.86052507 0.03097894
2.01147413 -17.07257843 0.01644403 0.62623560 -0.85665292 0.00613524
1.40689278 -17.35887146 -0.09787943 0.43801031 -0.87101829 -0.03651865
2.83935499 -15.86597633 1.82829511 0.88398117 -0.79610908 0.68213373
1.62583220 -15.75802898 1.64295352 0.50617307 -0.79069263 0.61298311
1.15023184 -17.42725563 1.70597935 0.35810360 -0.87444961 0.63649797
1.86613715 -15.84141541 2.19010401 0.58098763 -0.79487669 0.81712401
1.31490993 -16.37810707 2.17706728 0.40937313 -0.82180637 0.81226003
0.82426310 -18.93313980 2.42532778 0.25661922 -0.95001054 0.90488559
2.50412583 -17.57258224 0.70814157 0.77961373 -0.88174170 0.26420641
3.21133542 -16.44557762 1.32864332 0.99979043 -0.82519186 0.49571452
2.70530629 -17.19306755 1.29659390 0.84224755 -0.86269873 0.48375696
1.84443438 -17.44515228 0.61673045 0.57423085 -0.87534761 0.23010106
1.19025230 -17.39312363 0.50022846 0.37056324 -0.87273699 0.18663438
2.07321620 -17.20824814 1.19367814 0.64545786 -0.86346042 0.44535926
1.41292655 -17.07422638 1.07192600 0.43988881 -0.85673565 0.39993373
2.82035899 -17.60309982 0.08903833 0.87806714 -0.88327295 0.03322005
2.09853864 -17.11649895 0.01692868 0.65334159 -0.85885674 0.00631606
1.49036491 -17.37197685 -0.09783354 0.46399781 -0.87167591 -0.03650152
2.93279123 -15.81464672 1.82417607 0.91307080 -0.79353350 0.68059695
2.34800959 -15.62736416 1.70073831 0.73100978 -0.78413624 0.63454252
1.96169221 -15.79796028 2.18547988 0.61073691 -0.79269624 0.81539875
1.36944628 -15.80320168 2.09694195 0.42635202 -0.79295927 0.78236544
0.94340801 -18.93154526 2.42586398 0.29371279 -0.94993055 0.90508568
2.58908439 -17.38456535 0.69985646 0.80606401 -0.87230754 0.26111522
1.96210372 -17.50469589 0.61982512 0.61086506 -0.87833536 0.23125568
1.30112553 -17.40722847 0.50103325 0.40508160 -0.87344468 0.18693464
2.18610930 -17.23246384 1.19658971 0.68060511 -0.86467552 0.44644555
1.42551255 -15.98785686 0.99555075 0.44380721 -0.80222470 0.37143826
0.90638292 -17.42671967 1.00106847 0.28218570 -0.87442273 0.37349692
2.94200802 -17.65211487 0.08990370 0.91594028 -0.88573241 0.03354292
2.21507883 -17.17238808 0.01755694 0.68962419 -0.86166108 0.00655047
1.60184109 -17.38816452 -0.09777387 0.49870387 -0.87248814 -0.03647926
2.48671484 -15.87338638 1.73149431 0.77419311 -0.79648089 0.64601755
1.03087330 -19.38617134 -0.20239802 0.32094350 -0.97274238 -0.07551435
1.82464516 -15.74425030 1.64384758 0.56806988 -0.79000121 0.61331671
1.28526258 -16.32870865 1.59128511 0.40014297 -0.81932765 0.59370571
2.05082464 -15.70880318 2.17420864 0.63848668 -0.78822261 0.81119347
1.06482947 -18.96877670 2.43176436 0.33151516 -0.95179874 0.90728706
2.72048426 -17.51208496 0.70680833 0.84697294 -0.87870610 0.26370898
2.07869506 -17.54757500 0.62223214 0.64716363 -0.88048691 0.23215374
1.41349638 -17.43656349 0.50242329 0.44006619 -0.87491667 0.18745326
2.28450942 -17.14526176 1.19091988 0.71124017 -0.86029994 0.44433016
1.00614226 -17.25731850 0.99038476 0.31324396 -0.86592263 0.36951083
2.30669355 -17.03923988 0.01647993 0.71814680 -0.85498011 0.00614863
1.71338570 -17.40164375 -0.09771880 0.53343123 -0.87316447 -0.03645872
2.58322740 -15.83783817 1.72918189 0.80424052 -0.79469723 0.64515477
1.15096736 -19.35136223 -0.20230491 0.35833260 -0.97099572 -0.07547961
1.92280138 -15.72655773 1.64317703 0.59862900 -0.78911346 0.61306649
2.14379311 -15.65443993 2.16813946 0.66743070 -0.78549480 0.80892909
1.57120669 -15.81825256 2.10168815 0.48916641 -0.79371446 0.78413624
0.83590525 -17.36875153 1.61215186 0.26024377 -0.87151402 0.60149109
1.13047302 -18.11910439 2.31751418 0.35195208 -0.90916461 0.86466056
2.85897374 -17.67216682 0.71537918 0.89008909 -0.88673854 0.26690674
2.18865824 -17.53218460 0.62214619 0.68139863 -0.87971467 0.23212166
1.52474177 -17.44725037 0.50315487 0.47470042 -0.87545288 0.18772621
2.39664030 -17.16216469 1.19337165 0.74615008 -0.86114812 0.44524491
1.70195997 -16.72100258 1.04895711 0.52987409 -0.83901185 0.39136410
0.86645108 -17.37805748 0.41484857 0.26975366 -0.87198097 0.15477929
1.12595129 -17.42391014 1.00171995 0.35054430 -0.87428176 0.37373999
1.31323183 -16.80419159 2.54018760 0.40885067 -0.84318602 0.94773960
2.41880345 -17.06004524 0.01680303 0.75305015 -0.85602403 0.00626918
1.82639980 -17.42634201 -0.09763618 0.56861609 -0.87440377 -0.03642789
2.69290614 -15.88202477 1.73635054 0.83838701 -0.79691434 0.64782941
1.27693355 -19.40960121 -0.20252436 0.39754987 -0.97391802 -0.07556149
2.02592969 -15.74767208 1.64697695 0.63073611 -0.79017293 0.61448425
1.44411314 -15.79821396 1.53687882 0.44959816 -0.79270899 0.57340682
2.25061035 -15.69941998 2.17680955 0.70068628 -0.78775179 0.81216389
1.68577898 -15.95382690 2.12234759 0.52483642 -0.80051720 0.79184425
0.94866461 -17.42872429 1.61876333 0.29534936 -0.87452328 0.60395777
1.19252431 -17.37022209 2.21694183 0.37127060 -0.87158781 0.82713717
2.97555017 -17.68735313 0.71699810 0.92638302 -0.88750058 0.26751074
2.95912933 -16.14502525 1.21492147 0.92127073 -0.81011099 0.45328510
2.30427957 -17.55968666 0.62395144 0.71739525 -0.88109463 0.23279521
1.63562465 -17.45125771 0.50366700 0.50922179 -0.87565398 0.18791729
2.50849247 -17.17438698 1.19551706 0.78097320 -0.86176139 0.44604534
1.80974400 -16.73576736 1.05078900 0.56343067 -0.83975273 0.39204755
0.97047400 -17.28246307 0.41199082 0.30213931 -0.86718434 0.15371306
1.23626721 -17.42843628 1.00250161 0.38488916 -0.87450886 0.37403160
1.38811326 -16.42717171 2.48372626 0.43216363 -0.82426828 0.92667401
2.53244781 -17.08802605 0.01719794 0.78843123 -0.85742807 0.00641652
1.93694925 -17.42446327 -0.09761323 0.60303366 -0.87430948 -0.03641933
2.79777098 -15.89414501 1.73981929 0.87103474 -0.79752254 0.64912355
1.39915347 -19.40518379 -0.20253767 0.43560082 -0.97369635 -0.07556646
2.12698269 -15.75038528 1.64876509 0.66219711 -0.79030907 0.61515141
1.53780937 -15.73141575 1.53078711 0.47876877 -0.78935724 0.57113403
2.35334659 -15.71236420 2.18085575 0.73267132 -0.78840131 0.81367350
1.77029145 -15.80119610 2.10224628 0.55114782 -0.79285860 0.78434443
1.05446458 -17.36283493 1.61275291 0.32828823 -0.87121719 0.60171533
1.27786505 -17.05014420 2.17456746 0.39783987 -0.85552722 0.81132734
0.73632663 -19.42095566 2.35325575 0.22924180 -0.97448772 0.87799567
2.41868448 -17.57454872 0.62524086 0.75301313 -0.88184035 0.23327629
1.74858499 -17.47444725 0.50491077 0.54438990 -0.87681752 0.18838133
2.62028980 -17.18391037 1.19750917 0.81577921 -0.86223924 0.44678861
2.00400710 -17.51106071 1.10673165 0.62391090 -0.87865472 0.41291967
1.08488297 -17.36779213 0.41491207 0.33775845 -0.87146592 0.15480298
1.30611575 -16.91495514 0.96940827 0.40663522 -0.84874386 0.36168456
1.48283207 -16.32360458 2.46923327 0.46165261 -0.81907159 0.92126667
2.64592314 -17.11129951 0.01755694 0.82375968 -0.85859585 0.00655047
2.05263233 -17.46558571 -0.09748931 0.63904947 -0.87637293 -0.03637309
2.87966204 -15.91989136 1.74444413 0.89653003 -0.79881442 0.65084910
1.49337804 -19.43426704 -0.20265737 0.46493590 -0.97515565 -0.07561111
2.20506954 -15.76773930 1.65189445 0.68650800 -0.79117984 0.61631894
2.43559432 -15.75389576 2.18865895 0.75827765 -0.79048520 0.81658489
1.84109676 -15.76120090 2.09777951 0.57319176 -0.79085177 0.78267789
1.30019462 -16.32683182 2.07721353 0.40479177 -0.81923348 0.77500480
0.79865891 -18.71562576 2.26320291 0.24864782 -0.93909633 0.84439707
3.20421386 -16.46181107 1.24433672 0.99757332 -0.82600635 0.46425989
2.50743985 -17.60449028 0.62704611 0.78064549 -0.88334274 0.23394983
1.82823277 -17.44017029 0.50395966 0.56918681 -0.87509763 0.18802647
2.71153998 -17.23636627 1.20256603 0.84418827 -0.86487132 0.44867530
2.09352016 -17.56086159 1.11095905 0.65177917 -0.88115358 0.41449690
1.16835070 -17.38641930 0.41567415 0.36374459 -0.87240058 0.15508731
1.40152454 -17.09755707 0.98178571 0.43633899 -0.85790628 0.36630255
1.68248296 -17.61750603 2.66881084 0.52381027 -0.88399583 0.99572873
2.80710888 -17.60018730 0.02211633 0.87394190 -0.88312685 0.00825156
2.13611650 -17.46564674 -0.09746636 0.66504073 -0.87637597 -0.03636453
2.99235201 -15.96984100 1.75253785 0.93161398 -0.80132073 0.65386885
1.61646390 -19.43645668 -0.20269728 0.50325644 -0.97526556 -0.07562600
2.31309128 -15.81452465 1.65882373 0.72013861 -0.79352742 0.61890429
1.94871628 -15.82009315 2.10783005 0.60669714 -0.79380679 0.78642774
1.20549619 -16.80440903 1.55765796 0.37530917 -0.84319693 0.58115947
1.37347937 -15.98268604 2.03162074 0.42760766 -0.80196524 0.75799417
0.91633099 -18.71222115 2.26345730 0.28528288 -0.93892550 0.84449202
2.62244868 -17.61802864 0.62833560 0.81645137 -0.88402206 0.23443092
1.94651806 -17.50780487 0.50688612 0.60601276 -0.87849134 0.18911834
2.80842543 -17.15012550 1.19720268 0.87435180 -0.86054403 0.44667426
2.20825005 -17.58299637 1.11349559 0.68749821 -0.88226426 0.41544327
1.27995121 -17.41063118 0.41669023 0.39848936 -0.87361544 0.15546641
1.42584372 -16.16010666 0.92094082 0.44391033 -0.81086773 0.34360144
0.89323860 -17.38595963 0.89908314 0.27809349 -0.87237751 0.33544636
1.59647071 -15.65322495 2.36899161 0.49703190 -0.78543383 0.88386667
2.92357159 -17.61770821 0.02243943 0.91020048 -0.88400596 0.00837211
2.25061989 -17.48957634 -0.09737916 0.70068926 -0.87757671 -0.03633200
1.73963618 -19.43786812 -0.20273717 0.54160386 -0.97533637 -0.07564089
2.42057753 -15.85271549 1.66485894 0.75360245 -0.79544371 0.62115598
1.81478882 -15.74992466 1.53582859 0.56500125 -0.79028594 0.57301497
2.63962483 -15.75912285 2.19414997 0.82179886 -0.79074752 0.81863356
2.01759100 -15.56985378 2.07404900 0.62813997 -0.78125054 0.77382410
1.27441776 -16.33429527 1.51097739 0.39676663 -0.81960797 0.56374305
1.44267654 -15.64024925 1.98629618 0.44915092 -0.78478277 0.74108368
1.03527963 -18.73184395 2.26676440 0.32231534 -0.93991011 0.84572589
2.73803496 -17.63279152 0.62971103 0.85243702 -0.88476282 0.23494411
2.05971813 -17.52302361 0.50791037 0.64125550 -0.87925500 0.18950048
2.30807352 -17.48766899 1.10771811 0.71857643 -0.87748098 0.41328770
1.39044929 -17.41619301 0.41713476 0.43289092 -0.87389451 0.15563226
0.99434984 -17.23648834 0.89051920 0.30957261 -0.86487746 0.33225116
1.69605315 -15.65468025 2.37080336 0.52803510 -0.78550684 0.88454264
2.36630464 -17.51869965 -0.09727819 0.73670560 -0.87903804 -0.03629432
1.86751878 -19.48627472 -0.20293668 0.58141774 -0.97776526 -0.07571533
2.52548671 -15.87055397 1.66865885 0.78626400 -0.79633880 0.62257373
1.91489983 -15.74808502 1.53687882 0.59616899 -0.79019368 0.57340682
2.74781442 -15.79485703 2.20195317 0.85548168 -0.79254055 0.82154495
2.11802173 -15.57649612 2.07684088 0.65940726 -0.78158385 0.77486575
1.55588961 -15.78075695 2.00667882 0.48439774 -0.79183304 0.74868840
2.85423160 -17.64876556 0.63117242 0.88861275 -0.88556433 0.23548934
2.17464733 -17.54941177 0.50937361 0.67703658 -0.88057905 0.19004641
2.87458014 -16.27515221 1.13176990 0.89494789 -0.81664038 0.42226139
2.37560010 -17.16448593 1.08573556 0.73959959 -0.86126459 0.40508607
1.50245905 -17.43698311 0.41808733 0.46776310 -0.87493771 0.15598767
0.85801584 -17.20073891 0.29248449 0.26712751 -0.86308366 0.10912546
1.69026780 -16.74249458 0.96041834 0.52623391 -0.84009027 0.35833043
1.11201620 -17.37933922 0.89943999 0.34620586 -0.87204528 0.33557951
1.79438031 -15.64371395 2.37080336 0.55864745 -0.78495663 0.88454264
2.47938704 -17.52527237 -0.09722770 0.77191174 -0.87936783 -0.03627549
1.99135458 -19.48808098 -0.20298323 0.61997175 -0.97785592 -0.07573269
2.63235092 -15.89750099 1.67357647 0.81953424 -0.79769093 0.62440848
2.02030826 -15.78704453 1.54234052 0.62898594 -0.79214853 0.57544458
2.85903430 -15.84348202 2.21177936 0.89010793 -0.79498041 0.82521105
2.23797894 -15.71976185 2.09917545 0.69675374 -0.78877246 0.78319871
1.43093669 -15.78790855 1.45748520 0.44549593 -0.79219186 0.54378521
0.93335897 -17.46205902 1.48738420 0.29058421 -0.87619597 0.55494046
1.66820264 -15.89483356 2.02357507 0.51936436 -0.79755706 0.75499237
1.19852996 -17.63861275 2.12812376 0.37314034 -0.88505489 0.79399931
2.97006941 -17.66003609 0.63246185 0.92467672 -0.88612986 0.23597042
2.28768539 -17.55720520 0.51017839 0.71222895 -0.88097012 0.19034667
2.94930196 -16.10772896 1.12012374 0.91821116 -0.80823958 0.41791624
2.48623610 -17.16896820 1.08714473 0.77404404 -0.86148947 0.40561181
1.61497140 -17.45904350 0.41910344 0.50279176 -0.87604463 0.15636677
0.97244185 -17.31079674 0.29538238 0.30275196 -0.86860603 0.11020666
1.79263067 -16.70575142 0.95872456 0.55810273 -0.83824658 0.35769847
1.22256792 -17.39192772 0.90062946 0.38062412 -0.87267697 0.33602330
1.89216638 -15.62820530 2.37019944 0.58909136 -0.78417844 0.88431734
2.59148431 -17.52320099 -0.09719557 0.80681115 -0.87926388 -0.03626350
2.11594033 -19.49506569 -0.20304973 0.65875924 -0.97820640 -0.07575750
2.73897433 -15.91981316 1.67804694 0.85272950 -0.79881048 0.62607640
2.11919832 -15.77206802 1.54213047 0.65977359 -0.79139704 0.57536620
2.97207165 -15.89716530 2.22247267 0.92530006 -0.79767406 0.82920069
2.34941745 -15.79159546 2.11145949 0.73144811 -0.79237688 0.78778189
1.03653479 -17.34452248 1.47701585 0.32270610 -0.87029833 0.55107206
1.75340307 -15.75405121 2.00587440 0.54588991 -0.79049301 0.74838829
1.26000941 -16.95607376 2.04137802 0.39228085 -0.85080707 0.76163459
2.40332294 -17.58209610 0.51164162 0.74823058 -0.88221908 0.19089261
2.59791017 -17.17865562 1.08897662 0.80881172 -0.86197555 0.40629530
1.72742224 -17.47639847 0.41999251 0.53780127 -0.87691545 0.15669848
1.08388031 -17.34824944 0.29648158 0.33744627 -0.87048531 0.11061677
1.99131310 -15.62385368 2.37140727 0.61995888 -0.78396010 0.88476795
2.70789170 -17.54808807 -0.09709919 0.84305251 -0.88051265 -0.03622754
2.20346737 -19.44712448 -0.20292337 0.68600923 -0.97580081 -0.07571036
2.82233238 -15.95368862 1.68341160 0.87868148 -0.80051023 0.62807798
2.19702983 -15.78752041 1.54486132 0.68400496 -0.79217243 0.57638508
3.05220628 -15.91018677 2.22651887 0.95024854 -0.79832745 0.83071035
2.44139910 -15.89586163 2.12793112 0.76008487 -0.79760867 0.79392743
1.60464776 -15.77320004 1.45768547 0.49957767 -0.79145384 0.54385996
1.83663309 -15.82238197 2.01633382 0.57180208 -0.79392165 0.75229067
1.29032266 -16.31310654 1.95946550 0.40171832 -0.81854481 0.73107320
2.48976040 -17.59630585 0.51259267 0.77514130 -0.88293207 0.19124745
3.19826150 -16.44223595 1.14893258 0.99572015 -0.82502413 0.42866477
2.69165611 -17.24902725 1.09489489 0.83799779 -0.86550665 0.40850338
1.80892515 -17.46011162 0.41973847 0.56317574 -0.87609822 0.15660369
1.16627836 -17.35292435 0.29673138 0.36309940 -0.87071991 0.11070997
2.07865191 -17.54108620 1.01500940 0.64715022 -0.88016129 0.37869826
1.38276899 -16.99135780 0.87755436 0.43049979 -0.85257751 0.32741401
2.09058356 -15.81033134 2.40160036 0.65086490 -0.79331702 0.89603293
2.79710793 -17.57661819 -0.09700280 0.87082833 -0.88194418 -0.03619158
2.33376336 -19.50040627 -0.20314948 0.72657448 -0.97847438 -0.07579472
2.92937422 -15.97277451 1.68765855 0.91200697 -0.80146796 0.62966251
2.30100965 -15.80686951 1.54843235 0.71637720 -0.79314327 0.57771742
2.54681516 -15.91541481 2.13295650 0.79290426 -0.79858977 0.79580241
1.70761609 -15.79841328 1.46129179 0.53163499 -0.79271901 0.54520541
1.36517453 -15.97653294 1.91723740 0.42502210 -0.80165654 0.71531796
2.60578465 -17.61788750 0.51398277 0.81126332 -0.88401496 0.19176608
2.78918004 -17.16481018 1.09010386 0.86836010 -0.86128086 0.40671587
1.92058098 -17.46628189 0.42031002 0.59793770 -0.87640786 0.15681694
1.27759469 -17.37715912 0.29753080 0.39775571 -0.87193590 0.11100823
2.19406533 -17.56926155 1.01774538 0.68308204 -0.88157505 0.37971905
1.41413653 -16.11113930 0.82545710 0.44026551 -0.80841070 0.30797660
2.17239690 -15.66956902 2.38197494 0.67633599 -0.78625393 0.88871074
2.91268063 -17.59027290 -0.09692937 0.90680975 -0.88262933 -0.03616418
2.48372936 -19.70161629 -0.20387435 0.77326363 -0.98857051 -0.07606517
2.40294838 -15.80980110 1.55032289 0.74811393 -0.79329038 0.57842278
2.64870024 -15.91082287 2.13463163 0.82462430 -0.79835939 0.79642737
1.80021095 -15.73004627 1.45548177 0.56046271 -0.78928852 0.54303771
1.26397371 -16.37486267 1.38851500 0.39351505 -0.82164353 0.51805252
2.00359893 -15.55434895 1.98307788 0.62378383 -0.78047252 0.73988295
1.44121313 -15.69894791 1.88264072 0.44869530 -0.78772807 0.70240998
2.72006011 -17.62487411 0.51486069 0.84684086 -0.88436556 0.19209364
2.03821731 -17.52137184 0.42246920 0.63456160 -0.87917209 0.15762253
1.37546301 -17.22527695 0.29393345 0.42822522 -0.86431491 0.10966606
2.12440372 -16.19591713 0.92823696 0.66139418 -0.81266457 0.34632361
1.51496804 -16.09795952 0.82521921 0.47165754 -0.80774933 0.30788785
2.27446485 -15.68105030 2.38590002 0.70811296 -0.78683007 0.89017516
3.01640821 -17.53219604 -0.09702116 0.93910342 -0.87971520 -0.03619843
2.59635329 -19.60235977 -0.20359504 0.80832702 -0.98359007 -0.07596096
2.50902796 -15.83761692 1.55494428 0.78113991 -0.79468608 0.58014703
1.90889943 -15.79941082 1.46369588 0.59430087 -0.79276901 0.54610240
1.52357030 -15.52174854 1.86101794 0.47433570 -0.77883673 0.69434255
2.83578587 -17.63901520 0.51603127 0.88286996 -0.88507509 0.19253038
2.86050105 -16.30096054 1.03077924 0.89056462 -0.81793535 0.38458195
2.15146112 -17.53400993 0.42329478 0.66981798 -0.87980622 0.15793055
1.45775867 -16.91148949 0.28628901 0.45384645 -0.84856993 0.10681394
2.21294951 -16.08736229 0.92198312 0.68896127 -0.80721760 0.34399030
2.37646914 -15.68991184 2.38952327 0.73987013 -0.78727472 0.89152700
2.69840717 -19.43512726 -0.20308962 0.84009963 -0.97519886 -0.07577239
2.61202025 -15.84313107 1.55725491 0.81320465 -0.79496276 0.58100909
2.86162353 -15.95037270 2.14524055 0.89091408 -0.80034387 0.80038553
2.00889254 -15.79302597 1.46429694 0.62543190 -0.79244864 0.54632664
1.41762125 -15.77052879 1.33371103 0.44135040 -0.79131985 0.49760529
2.28246617 -16.11261749 2.06299925 0.71060401 -0.80848485 0.76970148
1.62391615 -15.53949547 1.86457932 0.50557655 -0.77972722 0.69567132
2.95343375 -17.66225433 0.51756769 0.91949749 -0.88624120 0.19310361
2.98095798 -16.38279152 1.03796577 0.92806667 -0.82204139 0.38726324
2.26726770 -17.56375504 0.42469189 0.70587224 -0.88129878 0.15845181
1.57198787 -16.98960495 0.28848740 0.48940963 -0.85248953 0.10763415
2.47290659 -17.16730690 0.99416316 0.76989418 -0.86140615 0.37092057
1.72677422 -16.16898155 0.83069062 0.53759950 -0.81131303 0.30992922
2.47898030 -15.70006371 2.39344835 0.77178508 -0.78778410 0.89299142
2.72018123 -15.87738705 1.56271660 0.84687859 -0.79668164 0.58304685
2.97041392 -15.97881794 2.15194106 0.92478395 -0.80177116 0.80288547
2.11233902 -15.81164551 1.46750247 0.65763807 -0.79338294 0.54752266
2.33740401 -15.78824806 2.02062488 0.72770792 -0.79220891 0.75389165
1.72238505 -15.53687286 1.86559689 0.53623301 -0.77959561 0.69605100
2.37920237 -17.56104660 0.42507294 0.74072105 -0.88116288 0.15859398
1.68084276 -17.00128174 0.28903702 0.52329957 -0.85307544 0.10783921
2.58580995 -17.18497467 0.99637806 0.80504453 -0.86229265 0.37174693
1.83676791 -16.23320770 0.83521044 0.57184404 -0.81453574 0.31161559
2.58425760 -15.72515488 2.39978886 0.80456126 -0.78904307 0.89535707
2.82749295 -15.90307331 1.56733799 0.88028812 -0.79797053 0.58477110
3.06071520 -15.90731812 2.14440298 0.95289761 -0.79818350 0.80007303
2.21665549 -15.83352852 1.47110868 0.69011509 -0.79448098 0.54886812
1.63574791 -15.94959736 1.35222590 0.50926012 -0.80030495 0.50451314
2.45242095 -15.87508297 2.03457093 0.76351637 -0.79656607 0.75909489
1.82111347 -15.53559685 1.86686885 0.56697029 -0.77953160 0.69652557
3.21200848 -16.47526741 1.04740703 1.00000000 -0.82668155 0.39078575
2.49600506 -17.59126282 0.42653355 0.77708542 -0.88267905 0.15913893
1.79094052 -17.02220345 0.28983644 0.55757654 -0.85412526 0.10813747
2.71492743 -17.30243301 1.00523770 0.84524292 -0.86818635 0.37505245
2.08479381 -17.45653534 0.90931231 0.64906234 -0.87591881 0.33926284
2.90879130 -15.92479897 1.57111907 0.90559888 -0.79906064 0.58618182
2.28577828 -15.78549480 1.46730208 0.71163517 -0.79207075 0.54744786
1.71320009 -15.96349525 1.35426247 0.53337348 -0.80100232 0.50527298
2.53568888 -15.91618538 2.04181218 0.78944027 -0.79862845 0.76179659
1.89406502 -15.52487278 1.86661446 0.58968246 -0.77899349 0.69643062
2.58355236 -17.61094666 0.42754963 0.80434167 -0.88366669 0.15951803
1.87329769 -17.03345108 0.29033607 0.58321691 -0.85468966 0.10832389
2.78038549 -17.19095993 0.99872327 0.86562210 -0.86259300 0.37262192
2.17532134 -17.51388931 0.91335642 0.67724645 -0.87879664 0.34077170
2.90946603 -16.57030678 2.53535652 0.90580893 -0.83145040 0.94593716
3.02568340 -15.99612617 1.58078194 0.94199109 -0.80263966 0.58978701
2.39691782 -15.84950924 1.47531593 0.74623644 -0.79528284 0.55043781
1.81524670 -15.96824741 1.35574365 0.56514382 -0.80124074 0.50582564
2.63825512 -15.91557789 2.04395771 0.82137239 -0.79859799 0.76259708
1.99482334 -15.53824902 1.86992145 0.62105173 -0.77966470 0.69766444
2.69872594 -17.62400055 0.42850223 0.84019887 -0.88432169 0.15987344
1.98348606 -17.04915237 0.29103556 0.61752206 -0.85547745 0.10858487
2.28788328 -17.51967430 0.91454583 0.71229053 -0.87908691 0.34121546
2.50145364 -15.86558056 1.47852147 0.77878177 -0.79608923 0.55163383
2.11183143 -15.67091656 1.88874602 0.65748000 -0.78632158 0.70468789
2.81416535 -17.63630104 0.42945480 0.87613881 -0.88493890 0.16022885
2.09249854 -17.05223083 0.29143527 0.65146106 -0.85563195 0.10873400
2.38851309 -17.43571281 0.91038281 0.74361980 -0.87487400 0.33966225
2.61310554 -15.92219067 1.48593426 0.81354254 -0.79892975 0.55439949
2.86858988 -16.05086899 2.06729031 0.89308292 -0.80538648 0.77130246
2.22921062 -15.79289818 1.90629876 0.69402391 -0.79244226 0.71123677
2.93118405 -17.65573120 0.43066141 0.91257048 -0.88591385 0.16067903
2.20619345 -17.09031105 0.29273432 0.68685794 -0.85754269 0.10921867
2.46653342 -17.19898605 0.89706111 0.76791000 -0.86299568 0.33469194
2.72152233 -15.95448780 1.49094284 0.84729612 -0.80055034 0.55626822
2.26002789 -17.02699280 1.45850110 0.70361829 -0.85436559 0.54416424
2.97301674 -16.05201149 2.06997228 0.92559433 -0.80544382 0.77230310
2.33212805 -15.80409718 1.90960574 0.72606534 -0.79300416 0.71247059
2.31645775 -17.09790993 0.29328391 0.72118670 -0.85792398 0.10942372
2.57983184 -17.21869469 0.89920211 0.80318338 -0.86398464 0.33549076
2.82905030 -15.97821236 1.49515009 0.88077301 -0.80174077 0.55783790
2.37077546 -17.04007530 1.46109319 0.73809749 -0.85502201 0.54513133
3.06855679 -16.00577164 2.06621766 0.95533895 -0.80312365 0.77090222
2.43766928 -15.83031368 1.91494787 0.75892365 -0.79431963 0.71446377
2.42968988 -17.12459564 0.29433316 0.75643945 -0.85926300 0.10981520
2.69255710 -17.23173904 0.90098625 0.83827835 -0.86463916 0.33615643
2.90897608 -15.99014950 1.49775457 0.90565640 -0.80233973 0.55880964
2.45808291 -17.07799911 1.46572185 0.76527911 -0.85692495 0.54685831
2.51440120 -15.83236790 1.91672862 0.78281277 -0.79442275 0.71512812
2.51611757 -17.15252495 0.29533243 0.78334713 -0.86066443 0.11018802
2.75544739 -17.10451698 0.89408755 0.85785806 -0.85825551 0.33358252
3.02051449 -16.03020859 1.50376499 0.94038182 -0.80434978 0.56105214
2.56945062 -17.08979225 1.46831393 0.79995137 -0.85751665 0.54782540
2.62088990 -15.85932446 1.92232502 0.81596607 -0.79577535 0.71721613
2.62744331 -17.16009903 0.29593199 0.81800634 -0.86104447 0.11041172
2.67830801 -17.08314896 1.46923971 0.83384216 -0.85718334 0.54817080
2.72615004 -15.87578869 1.92664969 0.84873688 -0.79660147 0.71882969
2.81119776 -17.62312126 0.30807310 0.87521493 -0.88427758 0.11494154
2.83860159 -16.30719566 0.84805638 0.88374662 -0.81824821 0.31640837
2.79164243 -17.10333443 1.47275746 0.86912674 -0.85819620 0.54948324
2.83206582 -15.89350891 1.93122864 0.88171184 -0.79749060 0.72053808
2.92674732 -17.63470078 0.30882257 0.91118914 -0.88485861 0.11522117
2.81416941 -15.96839619 1.36907434 0.87614012 -0.80124825 0.51079929
3.06634665 -16.03986549 1.95514095 0.95465088 -0.80483437 0.72945970
2.92439938 -16.00526237 1.37425852 0.91045815 -0.80309808 0.51273346
3.00963688 -16.04416275 1.37925756 0.93699533 -0.80504996 0.51459861
