-5.70321560 -4.95835733 1.12019813 -0.66013008 -0.76271647 0.45404413
-4.21000004 -4.22426176 1.24126387 -0.48729485 -0.64979464 0.50311512
-4.66818094 -4.23826742 1.25746691 -0.54032791 -0.65194905 0.50968260
-3.75995612 -4.60497093 2.32490277 -0.43520364 -0.70835704 0.94234085
-3.95914698 -4.36218691 2.26063943 -0.45825937 -0.67101091 0.91629332
-5.32609081 -4.25064898 1.29673231 -0.61647904 -0.65385365 0.52559781
-5.95186377 -4.26427650 1.32852542 -0.68891037 -0.65594989 0.53848439
-6.64219570 -6.35350466 0.89503819 -0.76881421 -0.97732425 0.36278123
-7.01736212 -6.25737858 0.85438538 -0.81223857 -0.96253771 0.34630361
-6.15227461 -6.05566978 1.12135792 -0.71210730 -0.93150997 0.45451424
-6.53509378 -5.99683142 1.11114740 -0.75641745 -0.92245919 0.45037565
-6.85795450 -5.65351248 0.75627583 -0.79378766 -0.86964834 0.30653739
-6.73111677 -5.71088791 1.05539930 -0.77910656 -0.87847406 0.42777956
-6.71419525 -5.30968094 0.95870888 -0.77714795 -0.81675863 0.38858855
-3.45262170 -4.21621609 1.51319563 -0.39963061 -0.64855707 0.61333579
-3.84432268 -4.24260521 1.54597902 -0.44496879 -0.65261632 0.62662369
-3.75970173 -4.34755516 1.87185085 -0.43517420 -0.66876018 0.75870764
-4.36037922 -4.22448063 1.59219515 -0.50470078 -0.64982831 0.64535624
-4.86551809 -4.24422407 1.63570452 -0.56316912 -0.65286535 0.66299170
-4.27320147 -4.33165550 1.93573141 -0.49461022 -0.66631442 0.78460002
-6.71818352 -6.19503403 0.50728464 -0.77760959 -0.95294756 0.20561507
-5.55914307 -4.28447056 1.71211612 -0.64345413 -0.65905625 0.69396323
-6.23916483 -4.30440903 1.76939547 -0.72216457 -0.66212326 0.71717995
-6.95713520 -5.93075895 0.45867586 -0.80526751 -0.91229564 0.18591273
-5.46388197 -4.39304399 2.09371138 -0.63242793 -0.67575747 0.84863323
-6.98737049 -5.55098915 0.39357287 -0.80876714 -0.85387772 0.15952486
-5.26532936 -6.42536926 1.41357601 -0.60944605 -0.98837876 0.57295746
-5.66181374 -6.23241520 1.38922191 -0.65533793 -0.95869774 0.56308615
-4.56883097 -5.85191679 1.65152788 -0.52882844 -0.90016776 0.66940528
-4.98610258 -5.73701859 1.64771330 -0.57712638 -0.88249362 0.66785914
-5.65650415 -5.52756119 1.24602830 -0.65472335 -0.85027397 0.50504625
-5.69723415 -5.01623631 1.12533104 -0.65943772 -0.77161968 0.45612463
-4.17107153 -4.23804283 1.23749924 -0.48278901 -0.65191454 0.50158918
-4.60674095 -4.23579931 1.24783349 -0.53321642 -0.65156943 0.50577790
-3.42429328 -4.24540234 2.13001966 -0.39635167 -0.65304661 0.86334991
-3.89171100 -4.34270906 2.23739266 -0.45045385 -0.66801476 0.90687084
-5.26273108 -4.25430346 1.28753138 -0.60914534 -0.65441579 0.52186847
-5.88190603 -4.27051878 1.31864536 -0.68081295 -0.65691012 0.53447974
-6.66767168 -6.45886660 0.90532035 -0.77176297 -0.99353147 0.36694884
-7.03558922 -6.35320902 0.86257780 -0.81434834 -0.97727877 0.34962422
-6.12668991 -6.10680914 1.12395895 -0.70914596 -0.93937641 0.45556849
-6.51909304 -6.05794621 1.11533511 -0.75456542 -0.93186015 0.45207304
-6.95188427 -5.80519724 0.77330524 -0.80465972 -0.89298117 0.31343982
-6.74440193 -5.24458027 0.65588278 -0.78064424 -0.80674458 0.26584560
-6.71760511 -5.77249479 1.05942225 -0.77754259 -0.88795072 0.42941016
-6.70086622 -5.36783791 0.96201593 -0.77560514 -0.82570463 0.38992897
-3.38272071 -4.18380404 1.49352086 -0.39153975 -0.64357126 0.60536110
-3.78403425 -4.22944021 1.53213942 -0.43799061 -0.65059125 0.62101418
-3.22959590 -4.20082045 1.75957692 -0.37381601 -0.64618880 0.71320027
-3.61844110 -4.23868513 1.81390369 -0.41882369 -0.65201330 0.73522025
-4.31313324 -4.23143101 1.58442998 -0.49923220 -0.65089744 0.64220887
-4.79801130 -4.23894453 1.62167871 -0.55535537 -0.65205324 0.65730667
-4.23399258 -4.34611368 1.93018448 -0.49007192 -0.66853845 0.78235173
-6.66889858 -6.22761440 0.50629824 -0.77190500 -0.95795923 0.20521526
-6.14649820 -4.29798937 1.75041127 -0.71143872 -0.66113579 0.70948517
-6.91521072 -5.97043180 0.45828500 -0.80041486 -0.91839826 0.18575430
-5.38287878 -4.38362741 2.07279277 -0.62305206 -0.67430902 0.84015441
-6.95547152 -5.59727812 0.39381078 -0.80507493 -0.86099809 0.15962130
-5.19273138 -6.41841984 1.40464902 -0.60104305 -0.98730975 0.56933916
-5.66215372 -6.31180954 1.39922166 -0.65537727 -0.97091049 0.56713933
-4.53078604 -5.87896013 1.65108490 -0.52442485 -0.90432769 0.66922575
-4.94740629 -5.76527691 1.64684904 -0.57264739 -0.88684046 0.66750884
-5.65805626 -5.59919310 1.25433600 -0.65490299 -0.86129272 0.50841355
-5.69962454 -5.08210611 1.13227546 -0.65971440 -0.78175211 0.45893937
-5.48227549 -5.65021229 1.64952111 -0.63455695 -0.86914068 0.66859192
-4.57140636 -4.25667763 1.24542511 -0.52912658 -0.65478104 0.50480175
-3.48398352 -4.37621498 2.18538404 -0.40326062 -0.67316878 0.88579047
-3.82963634 -4.32812262 2.21705174 -0.44326890 -0.66577101 0.89862615
-5.19044733 -4.24984217 1.27603018 -0.60077870 -0.65372956 0.51720673
-5.79782343 -4.26560450 1.30547190 -0.67108065 -0.65615416 0.52914017
-6.59439564 -6.46855116 0.90017927 -0.76328146 -0.99502122 0.36486503
-6.09097767 -6.14800215 1.12453687 -0.70501238 -0.94571292 0.45580274
-6.47801065 -6.09607887 1.11477673 -0.74981028 -0.93772584 0.45184672
-6.85309649 -5.79593563 0.76509106 -0.79322535 -0.89155650 0.31011042
-6.79124641 -5.34951067 0.66532534 -0.78606635 -0.82288545 0.26967290
-6.72298050 -5.85111618 1.06693161 -0.77816480 -0.90004462 0.43245390
-6.71022177 -5.44473076 0.96913874 -0.77668804 -0.83753264 0.39281601
-3.35158873 -4.19894314 1.49133468 -0.38793632 -0.64590001 0.60447502
-3.74969602 -4.24449110 1.52894568 -0.43401605 -0.65290642 0.61971968
-3.18832707 -4.20135593 1.75123489 -0.36903930 -0.64627117 0.70981902
-3.56347847 -4.22805643 1.79941690 -0.41246194 -0.65037835 0.72934836
-4.75825930 -4.25742912 1.61717045 -0.55075425 -0.65489662 0.65547937
-4.18556976 -4.35062122 1.92032337 -0.48446712 -0.66923183 0.77835476
-5.38792372 -4.26094294 1.67492557 -0.62363601 -0.65543711 0.67888898
-6.07801867 -4.30738688 1.73837256 -0.70351243 -0.66258132 0.70460558
-6.93304157 -6.06249428 0.46310568 -0.80247873 -0.93255973 0.18770824
-5.31252098 -4.38192225 2.05594158 -0.61490834 -0.67404670 0.83332419
-6.92791748 -5.64715958 0.39440548 -0.80188566 -0.86867112 0.15986234
-5.11307478 -6.40155792 1.39366186 -0.59182304 -0.98471600 0.56488580
-5.65516186 -6.38408661 1.40755475 -0.65456802 -0.98202848 0.57051694
-4.50199413 -5.91820002 1.65418518 -0.52109230 -0.91036373 0.67048234
-4.92248154 -5.80962658 1.65073824 -0.56976247 -0.89366251 0.66908520
-5.65336609 -5.66545677 1.26136565 -0.65436012 -0.87148565 0.51126283
-5.68964386 -5.13763428 1.13680446 -0.65855920 -0.79029369 0.46077511
-5.44531679 -5.68313122 1.64910281 -0.63027906 -0.87420446 0.66842234
-5.70562696 -5.37301779 1.57135487 -0.66040921 -0.82650143 0.63690919
-3.48271298 -4.43172836 2.20236254 -0.40311357 -0.68170810 0.89267224
-3.79005718 -4.33810997 2.20978713 -0.43868774 -0.66730732 0.89568162
-5.11993599 -4.24589920 1.26491237 -0.59261721 -0.65312302 0.51270044
-5.71403694 -4.25980377 1.29229844 -0.66138262 -0.65526187 0.52380067
-4.33577061 -4.34927034 2.30106449 -0.50185245 -0.66902405 0.93267864
-6.72417402 -6.22808647 0.82938790 -0.77830297 -0.95803183 0.33617154
-6.05222893 -6.18615103 1.12453687 -0.70052731 -0.95158118 0.45580274
-6.45107508 -6.14756489 1.11701024 -0.74669254 -0.94564569 0.45275199
-6.83766127 -5.85705137 0.76789588 -0.79143876 -0.90095758 0.31124729
-6.71872854 -5.92214775 1.07283187 -0.77767265 -0.91097099 0.43484542
-6.70351887 -5.50939226 0.97371769 -0.77591217 -0.84747910 0.39467198
-3.29788518 -4.18505955 1.47876465 -0.38172030 -0.64376438 0.59938008
-3.68859601 -4.22886419 1.51457381 -0.42694390 -0.65050262 0.61389440
-3.51611042 -4.22563362 1.78870928 -0.40697923 -0.65000570 0.72500831
-4.67529535 -4.23671532 1.59763455 -0.54115140 -0.65171033 0.64756101
-4.13986969 -4.35746050 1.91169488 -0.47917747 -0.67028385 0.77485746
-5.30362320 -4.24843168 1.65657175 -0.61387843 -0.65351260 0.67144972
-6.86313963 -4.92550373 1.97590590 -0.79438782 -0.75766283 0.80088377
-7.06778860 -6.25980282 0.47821918 -0.81807530 -0.96291059 0.19383413
-5.25411844 -4.38935804 2.04373908 -0.60814846 -0.67519051 0.82837826
-6.97250414 -5.75649214 0.40059054 -0.80704641 -0.88548911 0.16236930
-5.04721403 -6.40100288 1.38645160 -0.58419985 -0.98463064 0.56196332
-5.62665510 -6.43282413 1.41055465 -0.65126842 -0.98952550 0.57173288
-4.46238661 -5.94324398 1.65329933 -0.51650786 -0.91421610 0.67012328
-4.89845133 -5.85538483 1.65505958 -0.56698102 -0.90070122 0.67083681
-5.65359402 -5.73752022 1.26967347 -0.65438652 -0.88257080 0.51463020
-5.68357706 -5.19722748 1.14223921 -0.65785700 -0.79946059 0.46297795
-5.42156601 -5.73004961 1.65286756 -0.62752998 -0.88142163 0.66994828
-5.70586920 -5.44112492 1.58098829 -0.66043723 -0.83697796 0.64081383
-3.49474382 -4.49074984 2.22377014 -0.40450609 -0.69078702 0.90134931
-3.76345062 -4.34889841 2.20615506 -0.43560812 -0.66896683 0.89420944
-5.07134867 -4.24594975 1.25762832 -0.58699340 -0.65313083 0.50974804
-5.65769339 -4.25958633 1.28388202 -0.65486103 -0.65522844 0.52038932
-4.29559183 -4.34963846 2.29039502 -0.49720186 -0.66908067 0.92835402
-6.72677803 -6.28951788 0.83400929 -0.77860433 -0.96748149 0.33804470
-6.04911518 -6.24166536 1.13002801 -0.70016694 -0.96012062 0.45802844
-6.46351433 -6.21761799 1.12510657 -0.74813235 -0.95642155 0.45603365
-6.91964769 -5.98447704 0.78252113 -0.80092841 -0.92055875 0.31717527
-6.73667717 -5.42759657 0.66588080 -0.77975017 -0.83489698 0.26989803
-6.73507500 -5.99336958 1.08087766 -0.77956468 -0.92192668 0.43810657
-6.70654440 -5.56492138 0.97855103 -0.77626234 -0.85602087 0.39663106
-3.26752663 -4.18686295 1.47384596 -0.37820640 -0.64404184 0.59738642
-3.64964223 -4.22438622 1.50658941 -0.42243513 -0.64981383 0.61065811
-3.39788699 -4.58403969 1.89754021 -0.39329520 -0.70513731 0.76912022
-3.48766994 -4.23193359 1.78430021 -0.40368733 -0.65097475 0.72322124
-4.61945772 -4.22614193 1.58511150 -0.53468835 -0.65008390 0.64248508
-4.09070539 -4.34634161 1.89813578 -0.47348687 -0.66857350 0.76936162
-6.69686174 -6.47333431 0.51968509 -0.77514166 -0.99575698 0.21064128
-5.25644779 -4.25132704 1.64787781 -0.60841805 -0.65395796 0.66792583
-6.51160860 -4.72107029 1.87959611 -0.75369912 -0.72621596 0.76184702
-6.95060253 -6.21436548 0.47053215 -0.80451137 -0.95592123 0.19071837
-5.20711040 -4.39178133 2.03327966 -0.60270739 -0.67556328 0.82413876
-6.98678398 -5.82370615 0.40380204 -0.80869925 -0.89582831 0.16367100
-4.99040079 -6.39048576 1.37889802 -0.57762390 -0.98301286 0.55890161
-4.44360542 -5.97675323 1.65684247 -0.51433396 -0.91937065 0.67155945
-4.87830400 -5.88740492 1.65765238 -0.56464905 -0.90562671 0.67188770
-5.66775894 -5.80658674 1.27925932 -0.65602607 -0.89319491 0.51851559
-5.70125437 -5.26273203 1.15099525 -0.65990305 -0.80953676 0.46652699
-5.39316988 -5.75410414 1.65244925 -0.62424320 -0.88512182 0.66977876
-5.70846605 -5.49505615 1.58901608 -0.66073781 -0.84527391 0.64406770
-3.48223758 -4.53331232 2.23410487 -0.40305853 -0.69733417 0.90553820
-3.75306845 -4.39223194 2.21632528 -0.43440640 -0.67563260 0.89833170
-4.99380207 -4.23440981 1.24459362 -0.57801759 -0.65135568 0.50446475
-5.56501341 -4.24515486 1.26851308 -0.64413357 -0.65300852 0.51415986
-4.23306084 -4.34029341 2.27118969 -0.48996407 -0.66764319 0.92056960
-6.00568390 -6.27525043 1.12916100 -0.69513988 -0.96528685 0.45767701
-6.48829794 -6.32014704 1.13766980 -0.75100100 -0.97219300 0.46112585
-6.92374182 -6.06464148 0.78813082 -0.80140233 -0.93289000 0.31944901
-6.72226286 -6.05818129 1.08543694 -0.77808172 -0.93189627 0.43995458
-6.69122744 -5.62349558 0.98185807 -0.77448946 -0.86503100 0.39797148
-3.22596812 -4.18743944 1.46674120 -0.37339613 -0.64413047 0.59450668
-3.60920620 -4.23115015 1.50073409 -0.41775477 -0.65085429 0.60828483
-3.49367046 -4.77697420 1.96940947 -0.40438187 -0.73481536 0.79825062
-3.48267365 -4.28018665 1.79563773 -0.40310901 -0.65839726 0.72781658
-4.10085106 -4.21654177 1.54146230 -0.47466120 -0.64860713 0.62479299
-4.56716967 -4.23148012 1.57609499 -0.52863616 -0.65090501 0.63883048
-4.53900814 -4.40768290 1.95275378 -0.52537656 -0.67800933 0.79149961
-5.17871332 -4.24229908 1.63145602 -0.59942049 -0.65256923 0.66126966
-5.81889200 -4.27744627 1.68419826 -0.67351925 -0.65797573 0.68264741
-5.12716341 -4.37950754 2.01236081 -0.59345376 -0.67367524 0.81565982
-6.94546938 -5.86363649 0.40344518 -0.80391723 -0.90197057 0.16352636
-5.71283150 -4.37824869 2.07441688 -0.66124308 -0.67348164 0.84081274
-4.92017555 -6.38262701 1.37031424 -0.56949556 -0.98180395 0.55542243
-5.48745298 -6.41504240 1.39288855 -0.63515621 -0.98679024 0.56457233
-4.39561939 -5.99037457 1.65285647 -0.50877976 -0.92146593 0.66994381
-4.83749485 -5.91341543 1.65635598 -0.55992550 -0.90962774 0.67136222
-5.65302896 -5.86488199 1.28437173 -0.65432113 -0.90216213 0.52058780
-5.68544960 -5.31460571 1.15461850 -0.65807372 -0.81751621 0.46799558
-5.35823441 -5.78931522 1.65286756 -0.62019956 -0.89053810 0.66994828
-5.70055103 -5.55673122 1.59664249 -0.65982169 -0.85476100 0.64715886
-3.48833561 -4.60114241 2.25698900 -0.40376437 -0.70776814 0.91481376
-3.73746324 -4.42992640 2.22358990 -0.43260014 -0.68143094 0.90127623
-4.94185066 -4.24388361 1.23807621 -0.57200438 -0.65281296 0.50182307
-5.49301195 -4.24530029 1.25790107 -0.63579965 -0.65303093 0.50985855
-4.19536924 -4.35599947 2.26549935 -0.48560140 -0.67005914 0.91826320
-6.75799036 -6.47929859 0.85018414 -0.78221709 -0.99667442 0.34460077
-5.96884871 -6.31574440 1.12973905 -0.69087631 -0.97151577 0.45791131
-6.37074280 -6.28447199 1.12231469 -0.73739433 -0.96670532 0.45490202
-6.87064266 -6.09478617 0.78612733 -0.79525626 -0.93752700 0.31863695
-6.75252533 -5.58140516 0.67606395 -0.78158450 -0.85855645 0.27402553
-6.71036196 -6.12440681 1.09026444 -0.77670425 -0.94208342 0.44191128
-6.69208860 -5.69620228 0.98796338 -0.77458918 -0.87621510 0.40044612
-3.17642188 -4.17690849 1.45581067 -0.36766130 -0.64251059 0.59007627
-3.55885172 -4.22581339 1.49062061 -0.41192639 -0.65003335 0.60418558
-3.47020698 -4.80807018 1.97325957 -0.40166605 -0.73959863 0.79981112
-3.60857224 -4.49084902 1.87625980 -0.41768140 -0.69080228 0.76049471
-4.49375248 -4.21652555 1.55956459 -0.52013832 -0.64860463 0.63213027
-4.54124928 -4.46545076 1.96594274 -0.52563596 -0.68689543 0.79684544
-5.12513924 -4.25236511 1.62276208 -0.59321946 -0.65411764 0.65774578
-5.75593710 -4.28729296 1.67354858 -0.66623241 -0.65949041 0.67833084
-6.75452185 -6.19305611 0.46010903 -0.78181559 -0.95264333 0.18649362
-5.06923151 -4.38525105 2.00015831 -0.58674830 -0.67455876 0.81071389
-6.99666691 -5.98221540 0.41034392 -0.80984318 -0.92021090 0.16632259
-5.62291765 -4.36597443 2.05135536 -0.65083581 -0.67159355 0.83146530
-4.86689472 -6.39613438 1.36653745 -0.56332844 -0.98388171 0.55389160
-5.41768885 -6.41481352 1.38522208 -0.62708122 -0.98675501 0.56146491
-4.36928988 -6.03370237 1.65728545 -0.50573218 -0.92813087 0.67173898
-4.79901361 -5.94217730 1.65592384 -0.55547142 -0.91405207 0.67118710
-5.64050436 -5.92608738 1.29012334 -0.65287143 -0.91157705 0.52291906
-5.67641354 -5.37326527 1.15975130 -0.65702784 -0.82653946 0.47007602
-5.32570028 -5.82720852 1.65412235 -0.61643380 -0.89636701 0.67045689
-5.67111635 -5.59793043 1.59824812 -0.65641469 -0.86109847 0.64780968
-3.47709155 -4.64684391 2.26880002 -0.40246290 -0.71479809 0.91960102
-3.78141403 -4.53897524 2.26717758 -0.43768731 -0.69820529 0.91894341
-4.88702393 -4.25028706 1.23079216 -0.56565833 -0.65379798 0.49887064
-5.43364334 -4.25437021 1.25021660 -0.62892789 -0.65442610 0.50674385
-4.17561865 -4.39042616 2.26976705 -0.48331532 -0.67535478 0.91999298
-5.93039513 -6.35457277 1.13002801 -0.68642545 -0.97748852 0.45802844
-6.34236479 -6.33554792 1.12454820 -0.73410970 -0.97456205 0.45580733
-6.98881340 -6.27914762 0.80736399 -0.80893415 -0.96588629 0.32724470
-6.77545977 -5.67216444 0.68309963 -0.78423911 -0.87251747 0.27687725
-6.70225048 -6.19476652 1.09589648 -0.77576536 -0.95290643 0.44419408
-6.69079304 -5.76784849 0.99381423 -0.77443922 -0.88723600 0.40281761
-3.14207244 -4.18598223 1.45198500 -0.36368546 -0.64390635 0.58852559
-3.50994563 -4.22148991 1.48103929 -0.40626568 -0.64936829 0.60030204
-3.38306046 -4.74935150 1.93989170 -0.39157909 -0.73056632 0.78628629
-3.59687328 -4.53419542 1.88507795 -0.41632727 -0.69747001 0.76406896
-4.43619394 -4.21543694 1.54854429 -0.51347613 -0.64843720 0.62766349
-3.93168473 -4.33782148 1.86115646 -0.45508069 -0.66726291 0.75437295
-4.54429865 -4.52476120 1.97973120 -0.52598894 -0.69601882 0.80243427
-5.05830622 -4.25064754 1.60972130 -0.58548373 -0.65385342 0.65246004
-5.65262365 -4.26616049 1.65086031 -0.65427423 -0.65623969 0.66913474
-6.74028826 -6.25851393 0.46232396 -0.78016812 -0.96271235 0.18739139
-5.01143074 -4.39043999 1.98795581 -0.58005804 -0.67535692 0.80576789
-6.96801472 -6.03387976 0.41105759 -0.80652678 -0.92815810 0.16661185
-5.54245758 -4.35983849 2.03166890 -0.64152282 -0.67064965 0.82348591
-4.80774307 -6.40133238 1.36104393 -0.55648184 -0.98468131 0.55166495
-5.34181213 -6.40640497 1.37588894 -0.61829871 -0.98546159 0.55768198
-4.33129311 -6.06103659 1.65728545 -0.50133419 -0.93233550 0.67173898
-4.76036167 -5.97068930 1.65549171 -0.55099756 -0.91843790 0.67101192
-5.65170717 -6.01332140 1.30162632 -0.65416813 -0.92499572 0.52758151
-5.66972589 -5.43474865 1.16548800 -0.65625376 -0.83599710 0.47240126
-5.29551506 -5.86783218 1.65621388 -0.61293995 -0.90261596 0.67130464
-5.69279194 -5.69009829 1.61470520 -0.65892357 -0.87527615 0.65448016
-3.47859812 -4.71057367 2.28946948 -0.40263727 -0.72460133 0.92797887
-3.75757504 -4.56838512 2.27008343 -0.43492803 -0.70272923 0.92012125
-5.66959429 -4.99833441 1.44203079 -0.65623850 -0.76886594 0.58449090
-5.48555470 -4.35050964 1.26887894 -0.63493645 -0.66921467 0.51430815
-4.14795065 -4.41657543 2.26976705 -0.48011282 -0.67937720 0.91999298
-5.88366270 -6.38441658 1.12858307 -0.68101627 -0.98207927 0.45744276
-6.29126883 -6.36403084 1.12231469 -0.72819549 -0.97894341 0.45490202
-6.84773922 -5.80581522 0.69624513 -0.79260522 -0.89307624 0.28220546
-6.70940256 -6.28019810 1.10447860 -0.77659321 -0.96604788 0.44767264
-6.69185448 -5.84230471 1.00017393 -0.77456206 -0.89868921 0.40539536
-3.10431695 -4.19013834 1.44651985 -0.35931537 -0.64454567 0.58631045
-3.47843742 -4.23751783 1.47891009 -0.40261868 -0.65183377 0.59943902
-2.97054243 -4.22212029 1.71337521 -0.34383136 -0.64946526 0.69447356
-3.53069472 -4.50901270 1.86492240 -0.40866730 -0.69359630 0.75589937
-4.40682077 -4.24055099 1.54754245 -0.51007628 -0.65230036 0.62725741
-3.86643314 -4.31977415 1.84266686 -0.44752803 -0.66448683 0.74687868
-4.97695732 -4.23563528 1.59185052 -0.57606786 -0.65154421 0.64521658
-5.58078671 -4.26744843 1.63743246 -0.64595932 -0.65643781 0.66369206
-4.92806911 -4.37213659 1.96529388 -0.57040918 -0.67254144 0.79658246
-7.03523874 -6.16945601 0.41938365 -0.81430775 -0.94901305 0.16998662
-5.46831656 -4.35763264 2.01423240 -0.63294125 -0.67031038 0.81641847
-4.73468733 -6.38701057 1.35143018 -0.54802585 -0.98247826 0.54776824
-5.26499939 -6.39577818 1.36622250 -0.60940784 -0.98382694 0.55376393
-4.28304863 -6.07375813 1.65329933 -0.49575001 -0.93429238 0.67012328
-4.72275305 -6.00048161 1.65549171 -0.54664451 -0.92302066 0.67101192
-5.62720776 -6.06321716 1.30482161 -0.65133238 -0.93267095 0.52887660
-5.66106653 -5.49498606 1.17092288 -0.65525144 -0.84526312 0.47460413
-5.24427080 -5.88489056 1.65161264 -0.60700858 -0.90523994 0.66943967
-5.67487478 -5.74382877 1.61992323 -0.65684968 -0.88354117 0.65659517
-3.43389463 -4.23128176 2.08846855 -0.39746299 -0.65087450 0.84650820
-5.66144848 -5.05483866 1.44816482 -0.65529567 -0.77755767 0.58697718
-5.61021709 -4.50636244 1.30510592 -0.64936578 -0.69318867 0.52899188
-4.13404989 -4.45767307 2.27759147 -0.47850385 -0.68569905 0.92316443
-5.83546114 -6.41245794 1.12684894 -0.67543709 -0.98639268 0.45673987
-6.24977160 -6.40202045 1.12203550 -0.72339231 -0.98478717 0.45478886
-6.71511173 -6.18671131 0.78071803 -0.77725399 -0.95166737 0.31644443
-6.86864853 -5.89789534 0.70328081 -0.79502541 -0.90724039 0.28505719
-6.68703508 -6.33863020 1.10769689 -0.77400422 -0.97503620 0.44897708
-6.67437315 -5.90127325 1.00348091 -0.77253866 -0.90776002 0.40673575
-3.07002211 -4.19865847 1.44269419 -0.35534585 -0.64585626 0.58475983
-3.42613721 -4.22793102 1.46773195 -0.39656508 -0.65035909 0.59490824
-2.92139959 -4.20793486 1.69989967 -0.33814323 -0.64728320 0.68901157
-3.59908867 -4.65542078 1.91720080 -0.41658372 -0.71611744 0.77708912
-3.90996218 -4.22720432 1.50833070 -0.45256639 -0.65024728 0.61136395
-4.34252644 -4.23179579 1.53401768 -0.50263441 -0.65095359 0.62177551
-3.73128533 -4.22099543 1.78966320 -0.43188506 -0.64929223 0.72539496
-4.93411875 -4.25283384 1.58653760 -0.57110941 -0.65418977 0.64306313
-5.51686573 -4.27393913 1.62631977 -0.63856065 -0.65743625 0.65918779
-4.89340305 -4.39659739 1.96238852 -0.56639671 -0.67630410 0.79540485
-7.05616140 -6.26643658 0.42414138 -0.81672949 -0.96393102 0.17191504
-5.38095188 -4.34385777 1.99173343 -0.62282902 -0.66819143 0.80729908
-4.67475510 -6.38954973 1.34559333 -0.54108888 -0.98286885 0.54540241
-5.20973969 -6.41040516 1.36222267 -0.60301173 -0.98607695 0.55214268
-4.27032185 -6.13744068 1.66348588 -0.49427694 -0.94408834 0.67425215
-4.68976688 -6.03619242 1.65722024 -0.54282641 -0.92851388 0.67171258
-5.63024139 -6.14367676 1.31472707 -0.65168351 -0.94504756 0.53289157
-5.65469980 -5.55809259 1.17696154 -0.65451449 -0.85497046 0.47705176
-5.22007322 -5.93244076 1.65579557 -0.60420781 -0.91255432 0.67113507
-5.67022467 -5.81154728 1.62915528 -0.65631145 -0.89395797 0.66033715
-3.50304985 -4.35746717 2.14367938 -0.40546751 -0.67028493 0.86888653
-5.67538261 -5.11573219 1.45813251 -0.65690851 -0.78692460 0.59101737
-5.71749163 -4.63642406 1.33584404 -0.66178250 -0.71319532 0.54145080
-4.12055779 -4.48538971 2.28185940 -0.47694218 -0.68996251 0.92489433
-6.74404716 -6.27262545 0.78873181 -0.78060323 -0.96488303 0.31969261
-6.88299322 -5.96662664 0.70846492 -0.79668581 -0.91781294 0.28715843
-6.69281483 -6.40440607 1.11440170 -0.77467322 -0.98515409 0.45169470
-6.68356419 -5.96560049 1.00984061 -0.77360249 -0.91765511 0.40931350
-3.02551579 -4.17869854 1.43067062 -0.35019436 -0.64278591 0.57988638
-3.37829280 -4.20955276 1.45548928 -0.39102724 -0.64753205 0.58994597
-2.87060237 -4.17625999 1.68129075 -0.33226359 -0.64241081 0.68146890
-3.10882306 -4.06502485 1.66273725 -0.35983694 -0.62530011 0.67394871
-4.30314827 -4.23326683 1.52700472 -0.49807650 -0.65117985 0.61893296
-3.68763638 -4.21124792 1.77795303 -0.42683282 -0.64779282 0.72064853
-4.85707855 -4.22617340 1.56770074 -0.56219226 -0.65008873 0.63542807
-5.44597769 -4.26047611 1.61103988 -0.63035554 -0.65536529 0.65299451
-6.72447300 -6.46414185 0.47079274 -0.77833754 -0.99434292 0.19082400
-4.89807367 -4.44282961 1.97284782 -0.56693733 -0.68341571 0.79964423
-5.32761431 -4.34258604 1.97935903 -0.61665535 -0.66799581 0.80228341
-4.61349487 -6.36834574 1.33632290 -0.53399819 -0.97960716 0.54164487
-5.13110256 -6.37509060 1.34922302 -0.59390968 -0.98064470 0.54687363
-4.23694468 -6.15105915 1.66171432 -0.49041361 -0.94618320 0.67353410
-4.65768528 -6.05359173 1.65592384 -0.53911310 -0.93119031 0.67118710
-5.63696098 -6.20969629 1.32335424 -0.65246129 -0.95520300 0.53638834
-5.67347002 -5.62912369 1.18662333 -0.65668714 -0.86589676 0.48096794
-5.19590330 -5.96140718 1.65705049 -0.60141021 -0.91701007 0.67164373
-5.66598368 -5.86209488 1.63597894 -0.65582061 -0.90173340 0.66310292
-3.49422097 -4.40267706 2.15530276 -0.40444559 -0.67723930 0.87359780
-5.67205143 -5.17783499 1.46579993 -0.65652293 -0.79647750 0.59412515
-5.71870422 -4.69713259 1.34316266 -0.66192281 -0.72253376 0.54441720
-4.09354544 -4.51257992 2.28257060 -0.47381559 -0.69414502 0.92518258
-4.38464880 -4.34521103 2.25662279 -0.50750995 -0.66839963 0.91466528
-6.71895790 -6.32855082 0.79073530 -0.77769917 -0.97348571 0.32050467
-6.88735247 -6.04644966 0.71364909 -0.79719037 -0.93009168 0.28925970
-6.62829781 -6.42283201 1.10984242 -0.76720554 -0.98798847 0.44984671
-6.67691708 -6.03534174 1.01518273 -0.77283311 -0.92838299 0.41147879
-2.99141479 -4.18663740 1.42684495 -0.34624729 -0.64400715 0.57833570
-3.34937119 -4.22768259 1.45442462 -0.38767967 -0.65032089 0.58951443
-2.84219193 -4.19107008 1.68000734 -0.32897517 -0.64468896 0.68094873
-3.19243836 -4.22797346 1.72257388 -0.36951515 -0.65036559 0.69820201
-4.24480963 -4.22889709 1.51548350 -0.49132398 -0.65050769 0.61426312
-3.64747262 -4.21845293 1.77117348 -0.42218399 -0.64890110 0.71790063
-4.81155252 -4.23986721 1.56142187 -0.55692273 -0.65219516 0.63288307
-5.37783337 -4.26210260 1.59853816 -0.62246805 -0.65561551 0.64792722
-4.89816952 -4.49949598 1.98446929 -0.56694841 -0.69213241 0.80435473
-6.72469711 -6.10666704 0.40308836 -0.77836347 -0.93935460 0.16338173
-5.30467510 -4.37962723 1.98104644 -0.61400020 -0.67369366 0.80296737
-4.55626440 -6.37312031 1.33117270 -0.52737391 -0.98034161 0.53955740
-4.19712114 -6.17594290 1.66127145 -0.48580417 -0.95001090 0.67335463
-4.63259459 -6.09980869 1.66067731 -0.53620893 -0.93829960 0.67311376
-5.64645958 -6.29950523 1.33517683 -0.65356076 -0.96901780 0.54118037
-5.66455650 -5.69121695 1.19236004 -0.65565538 -0.87544823 0.48329315
-5.16215992 -5.99839306 1.65830541 -0.59750450 -0.92269939 0.67215240
-5.66701651 -5.93717003 1.64721787 -0.65594012 -0.91328180 0.66765833
-3.49650669 -4.46257401 2.17419076 -0.40471014 -0.68645293 0.88125354
-5.67966557 -5.25078726 1.47653437 -0.65740424 -0.80769938 0.59847605
-5.73452806 -4.77057171 1.35414052 -0.66375440 -0.73383045 0.54886681
-4.00174236 -4.46699047 2.24629402 -0.46318966 -0.68713224 0.91047877
-4.32672215 -4.34222889 2.24060869 -0.50080508 -0.66794091 0.90817440
-6.72360659 -6.41331768 0.79694599 -0.77823728 -0.98652494 0.32302201
-6.83580542 -6.07772541 0.71198273 -0.79122394 -0.93490267 0.28858429
-6.68138695 -6.11592293 1.02255988 -0.77335048 -0.94077837 0.41446894
-2.94520760 -4.17696953 1.41700757 -0.34089893 -0.64251995 0.57434839
-3.31438828 -4.23804522 1.45069861 -0.38363048 -0.65191489 0.58800417
-2.80009818 -4.18516541 1.67038202 -0.32410297 -0.64378071 0.67704737
-3.15554905 -4.23428965 1.71690524 -0.36524531 -0.65133721 0.69590437
-4.18532896 -4.22259188 1.50346148 -0.48443925 -0.64953780 0.60939032
-3.60859442 -4.22677183 1.76501036 -0.41768396 -0.65018076 0.71540254
-4.02833080 -4.26037645 1.80707562 -0.46626720 -0.65534997 0.73245263
-4.73139191 -4.22203255 1.54355097 -0.54764438 -0.64945173 0.62563956
-5.29315662 -4.24969387 1.58094311 -0.61266696 -0.65370673 0.64079553
-4.88097954 -4.54064512 1.98911798 -0.56495869 -0.69846213 0.80623895
-5.22687006 -4.37115765 1.96192241 -0.60499454 -0.67239082 0.79521590
-4.51613140 -6.40162230 1.33117270 -0.52272862 -0.98472589 0.53955740
-4.99930906 -6.37402248 1.33522332 -0.57865500 -0.98048037 0.54119921
-4.15066195 -6.19083166 1.65817118 -0.48042664 -0.95230114 0.67209798
-4.58947563 -6.12255812 1.65894878 -0.53121799 -0.94179904 0.67241317
-5.63678122 -6.36893415 1.34252608 -0.65244049 -0.97969764 0.54415917
-5.65786409 -5.75623226 1.19870067 -0.65488076 -0.88544917 0.48586318
-5.11931896 -6.02473450 1.65663218 -0.59254581 -0.92675138 0.67147422
-5.65654898 -6.00110817 1.65524566 -0.65472853 -0.92311704 0.67091221
-3.49474049 -4.51826239 2.19089937 -0.40450570 -0.69501913 0.88802594
-5.67943859 -5.31731176 1.48535192 -0.65737796 -0.81793249 0.60205007
-5.72704697 -4.82545137 1.35962939 -0.66288847 -0.74227232 0.55109161
-3.84158778 -4.34178925 2.17018437 -0.44465226 -0.66787326 0.87962967
-4.20699358 -4.27608585 2.19187069 -0.48694688 -0.65776646 0.88841969
-6.62461996 -6.39862585 0.78873181 -0.76677984 -0.98426497 0.31969261
-7.00656605 -6.30797720 0.73808867 -0.81098896 -0.97032100 0.29916567
-6.67052698 -6.18334341 1.02739322 -0.77209347 -0.95114928 0.41642800
-2.90798044 -4.17955589 1.41154230 -0.33658999 -0.64291781 0.57213318
-3.25809860 -4.22074652 1.43739128 -0.37711513 -0.64925390 0.58261043
-2.77893209 -4.21060228 1.67359042 -0.32165304 -0.64769351 0.67834777
-3.09044194 -4.20218897 1.69548988 -0.35770938 -0.64639932 0.68722421
-4.13561010 -4.22536087 1.49494576 -0.47868446 -0.64996374 0.60593867
-3.65400219 -4.33545732 1.80137324 -0.42293978 -0.66689926 0.73014134
-3.97664976 -4.25919104 1.79568505 -0.46028528 -0.65516764 0.72783577
-4.68036318 -4.22947741 1.53534007 -0.54173797 -0.65059698 0.62231147
-5.23911333 -4.26085186 1.57260859 -0.60641164 -0.65542310 0.63741732
-4.87874365 -4.59623671 2.00015831 -0.56469995 -0.70701349 0.81071389
-6.72356033 -6.26127005 0.40927345 -0.77823192 -0.96313632 0.16588870
-5.19342947 -4.39896822 1.95967245 -0.60112387 -0.67666876 0.79430395
-4.43432617 -6.36993122 1.31846893 -0.51325995 -0.97985107 0.53440821
-4.94220543 -6.38352060 1.33055687 -0.57204545 -0.98194140 0.53930777
-4.12025404 -6.22982597 1.66171432 -0.47690701 -0.95829946 0.67353410
-4.55790949 -6.16067410 1.66154158 -0.52756435 -0.94766217 0.67346412
-5.60313082 -6.41167402 1.34412372 -0.64854556 -0.98627210 0.54480672
-5.64781666 -5.81855679 1.20443738 -0.65371782 -0.89503616 0.48818839
-5.09138918 -6.06879330 1.65997851 -0.58931303 -0.93352866 0.67283052
-5.64282370 -6.06228685 1.66247070 -0.65313989 -0.93252784 0.67384070
-3.49468350 -4.57705736 2.20906067 -0.40449911 -0.70406324 0.89538717
-5.65728426 -5.36372566 1.48841894 -0.65481365 -0.82507205 0.60329318
-5.70411062 -4.86770105 1.36145914 -0.66023368 -0.74877137 0.55183321
-4.25870514 -4.38285303 2.23364615 -0.49293232 -0.67418987 0.90535229
-6.65763330 -6.24951363 1.03197217 -0.77060103 -0.96132785 0.41828397
-2.86758995 -4.17706871 1.40443754 -0.33191493 -0.64253521 0.56925344
-3.20215869 -4.20290995 1.42408395 -0.37064025 -0.64651024 0.57721663
-2.72982597 -4.19296312 1.65947330 -0.31596917 -0.64498019 0.67262578
-3.05276823 -4.20620489 1.68919134 -0.35334876 -0.64701706 0.68467122
-4.08197117 -4.22351027 1.48492742 -0.47247592 -0.64967906 0.60187799
-3.71272492 -4.46248007 1.84513211 -0.42973676 -0.68643844 0.74787790
-3.93552971 -4.26871157 1.78909063 -0.45552576 -0.65663213 0.72516292
-4.62800074 -4.23513365 1.52664626 -0.53567719 -0.65146703 0.61878765
-5.16858006 -4.25794172 1.55918074 -0.59824759 -0.65497547 0.63197470
-4.86219454 -4.63872671 2.00538802 -0.56278443 -0.71354949 0.81283361
-5.05761623 -4.33935976 1.91804957 -0.58540386 -0.66749954 0.77743316
-4.40532780 -6.41393709 1.32190239 -0.50990343 -0.98662025 0.53579992
-4.87316656 -6.37691450 1.32255709 -0.56405437 -0.98092526 0.53606528
-4.08739710 -6.26540947 1.66437161 -0.47310394 -0.96377307 0.67461115
-4.51448822 -6.18289423 1.65981305 -0.52253842 -0.95108020 0.67276347
-5.52543449 -6.40331507 1.33485734 -0.63955247 -0.98498631 0.54105085
-5.66189814 -5.90661049 1.21560884 -0.65534770 -0.90858102 0.49271646
-5.05813217 -6.10670090 1.66165173 -0.58546358 -0.93935978 0.67350876
-5.64184618 -6.13792133 1.67370963 -0.65302676 -0.94416225 0.67839611
-3.48951769 -4.63009167 2.22431636 -0.40390119 -0.71222121 0.90157068
-5.67008066 -5.44414902 1.50107026 -0.65629482 -0.83744311 0.60842109
-5.71665525 -4.94061375 1.37207103 -0.66168565 -0.75998712 0.55613446
-3.75267792 -4.34996986 2.15026784 -0.43436119 -0.66913164 0.87155700
-4.25583220 -4.43514633 2.24687505 -0.49259979 -0.68223387 0.91071427
-6.71563721 -6.20144653 0.71142733 -0.77731484 -0.95393401 0.28835917
-6.65857887 -6.32940054 1.03909504 -0.77071053 -0.97361642 0.42117104
-2.82841849 -4.17583704 1.39787924 -0.32738096 -0.64234579 0.56659520
-3.17801714 -4.22601891 1.42514861 -0.36784595 -0.65006495 0.57764816
-2.68206930 -4.17647266 1.64599776 -0.31044146 -0.64244354 0.66716379
-3.01961184 -4.21606970 1.68541217 -0.34951100 -0.64853454 0.68313944
-4.01912880 -4.21138096 1.47140253 -0.46520209 -0.64781326 0.59639603
-3.66537285 -4.46212769 1.83527100 -0.42425591 -0.68638426 0.74388093
-3.91378880 -4.29898071 1.79148865 -0.45300931 -0.66128826 0.72613490
-4.56298018 -4.22838497 1.51360536 -0.52815127 -0.65042889 0.61350185
-5.08481312 -4.24313688 1.54158568 -0.58855182 -0.65269810 0.62484300
-4.56809950 -4.41175222 1.89324057 -0.52874380 -0.67863530 0.76737744
-6.69064999 -6.38928461 0.41307962 -0.77442265 -0.98282808 0.16743143
-4.98957920 -4.33592701 1.90230036 -0.57752883 -0.66697150 0.77104962
-4.80440664 -6.36969471 1.31455731 -0.55609566 -0.97981465 0.53282273
-4.04900074 -6.29261065 1.66481447 -0.46865967 -0.96795726 0.67479068
-4.49044657 -6.23169374 1.66543090 -0.51975572 -0.95858675 0.67504054
-5.45317268 -6.40025854 1.32686913 -0.63118833 -0.98451614 0.53781301
-5.64647722 -5.96498775 1.22043979 -0.65356278 -0.91756088 0.49467456
-5.01842880 -6.13684416 1.66123343 -0.58086807 -0.94399655 0.67333919
-5.60713053 -6.17759132 1.67491388 -0.64900851 -0.95026445 0.67888421
-3.49341416 -4.68074179 2.24102497 -0.40435219 -0.72001243 0.90834314
-5.67951155 -5.50505304 1.51065457 -0.65738642 -0.84681165 0.61230582
-5.72004080 -4.99069452 1.37865782 -0.66207755 -0.76769072 0.55880427
-3.72246337 -4.35620260 2.14457750 -0.43086395 -0.67009038 0.86925054
-4.24914360 -4.47005272 2.25453401 -0.49182561 -0.68760329 0.91381866
-6.72721004 -6.27095461 0.71661144 -0.77865434 -0.96462601 0.29046044
-6.66884136 -6.39907742 1.04621792 -0.77189833 -0.98433447 0.42405811
-2.79486465 -4.16829014 1.39077449 -0.32349718 -0.64118487 0.56371546
-3.13491988 -4.21011209 1.41450274 -0.36285755 -0.64761811 0.57333308
-2.64721584 -4.16502237 1.63637245 -0.30640727 -0.64068222 0.66326243
-2.98977375 -4.21635532 1.67974341 -0.34605733 -0.64857846 0.68084174
-3.97387171 -4.20362902 1.46188498 -0.45996371 -0.64662087 0.59253830
-3.66702080 -4.50747347 1.84698105 -0.42444664 -0.69335955 0.74862731
-4.50909233 -4.21790886 1.50201344 -0.52191389 -0.64881742 0.60880339
-5.02895784 -4.23707438 1.53047299 -0.58208674 -0.65176558 0.62033874
-4.45300484 -4.34074879 1.85314643 -0.51542193 -0.66771322 0.75112629
-6.71376133 -6.47189331 0.41748056 -0.77709770 -0.99553531 0.16921525
-4.91411924 -4.31146288 1.88092649 -0.56879455 -0.66320831 0.76238626
-4.27659321 -6.37511253 1.30370498 -0.49500281 -0.98064804 0.52842402
-4.75420761 -6.36545610 1.30889070 -0.55028528 -0.97916269 0.53052592
-4.03077698 -6.32974863 1.66968632 -0.46655032 -0.97367001 0.67676538
-4.46444559 -6.25754547 1.66672730 -0.51674616 -0.96256340 0.67556602
-5.40517664 -6.40471840 1.32239568 -0.62563294 -0.98520219 0.53599983
-5.66440725 -6.04045057 1.23070550 -0.65563810 -0.92916888 0.49883553
-4.99190807 -6.16347075 1.66207004 -0.57779837 -0.94809240 0.67367828
-5.57533026 -6.20103788 1.67411113 -0.64532775 -0.95387113 0.67855883
-3.49169397 -4.74001026 2.25918651 -0.40415308 -0.72912937 0.91570443
-5.66437292 -5.55992985 1.51602185 -0.65563416 -0.85525304 0.61448133
-5.70481682 -5.04081392 1.38268304 -0.66031539 -0.77540034 0.56043577
-3.71302366 -4.40099907 2.15524697 -0.42977133 -0.67698115 0.87357515
-4.23127508 -4.50756454 2.26010394 -0.48975739 -0.69337356 0.91607630
-6.70799160 -6.33219194 0.71920353 -0.77642989 -0.97404581 0.29151106
-6.66842461 -6.47947311 1.05334067 -0.77185011 -0.99670124 0.42694515
-2.76861954 -4.18576813 1.39077449 -0.32045940 -0.64387339 0.56371546
-3.08430457 -4.19719601 1.40332460 -0.35699898 -0.64563131 0.56880236
-2.61899543 -4.17835426 1.63508904 -0.30314085 -0.64273298 0.66274220
-2.94243026 -4.20558786 1.66777611 -0.34057745 -0.64692217 0.67599112
-3.93544507 -4.21581745 1.45737672 -0.45551595 -0.64849573 0.59071100
-3.64811707 -4.54232550 1.85191166 -0.42225859 -0.69872063 0.75062585
-4.44738674 -4.21267366 1.48993862 -0.51477164 -0.64801210 0.60390913
-4.97107363 -4.24216223 1.52074945 -0.57538682 -0.65254819 0.61639756
-4.46365499 -4.40641022 1.86941659 -0.51665467 -0.67781353 0.75772101
-4.88405514 -4.33971310 1.87980151 -0.56531471 -0.66755390 0.76193029
-4.21587658 -6.37058353 1.29718137 -0.48797506 -0.97995138 0.52577984
-4.69415760 -6.36826706 1.30322421 -0.54333466 -0.97959507 0.52822918
-3.99918890 -6.36818504 1.67322946 -0.46289411 -0.97958243 0.67820150
-4.43293905 -6.29662895 1.66975224 -0.51309937 -0.96857536 0.67679209
-5.33836460 -6.40663671 1.31568563 -0.61789966 -0.98549724 0.53328007
-5.65866709 -6.11065769 1.23795187 -0.65497375 -0.93996847 0.50177264
-4.95795345 -6.20083666 1.66374326 -0.57386822 -0.95384020 0.67435646
-5.54147577 -6.24179411 1.67571664 -0.64140916 -0.96014041 0.67920959
-5.66126537 -5.62731934 1.52483940 -0.65527445 -0.86561918 0.61805528
-5.70975018 -5.10924006 1.39183128 -0.66088641 -0.78592592 0.56414384
-3.72580171 -4.47321749 2.17943144 -0.43125036 -0.68809015 0.88337773
-6.70125151 -6.40579081 0.72346193 -0.77564973 -0.98536712 0.29323709
-2.72032619 -4.16915560 1.37929749 -0.31486958 -0.64131796 0.55906355
-3.05445838 -4.21182394 1.40172768 -0.35354438 -0.64788145 0.56815505
-2.57785130 -4.17049646 1.62546372 -0.29837856 -0.64152426 0.65884084
-2.89534068 -4.19439316 1.65580869 -0.33512700 -0.64520013 0.67114043
-3.88384914 -4.21350002 1.44785929 -0.44954386 -0.64813924 0.58685333
-3.51829433 -4.43658447 1.79890800 -0.40723202 -0.68245506 0.72914213
-3.67575121 -4.18168736 1.71415329 -0.42545715 -0.64324570 0.69478893
-4.39430332 -4.21491909 1.48076177 -0.50862741 -0.64835751 0.60018957
-4.90446949 -4.23908520 1.50824761 -0.56767762 -0.65207487 0.61133021
-4.24971247 -4.24705315 1.78922820 -0.49189144 -0.65330052 0.72521865
-4.82521677 -4.34216881 1.86742711 -0.55850434 -0.66793168 0.75691462
-4.16289473 -6.37711334 1.29306126 -0.48184255 -0.98095584 0.52410984
-4.64357471 -6.38331032 1.30022430 -0.53747982 -0.98190910 0.52701324
-3.95091891 -6.37989950 1.66968632 -0.45730701 -0.98138440 0.67676538
-4.35302973 -6.26672745 1.65419531 -0.50385010 -0.96397579 0.67048645
-5.26298952 -6.39727545 1.30673873 -0.60917521 -0.98405725 0.52965367
-5.65226698 -6.18103027 1.24519825 -0.65423292 -0.95079345 0.50470978
-4.92010260 -6.23340416 1.66416144 -0.56948709 -0.95884985 0.67452598
-5.49178696 -6.26472759 1.67250550 -0.63565785 -0.96366817 0.67790806
-5.65891361 -5.69628382 1.53404033 -0.65500224 -0.87622762 0.62178469
-5.68483782 -5.15159655 1.39366090 -0.65800291 -0.79244143 0.56488538
-3.74254584 -4.55155945 2.20646095 -0.43318844 -0.70014107 0.89433348
-4.05741692 -4.43352699 2.19604826 -0.46963382 -0.68198478 0.89011294
-6.66373825 -6.45053291 0.72383225 -0.77130771 -0.99224955 0.29338720
-2.68786979 -4.17643309 1.37601829 -0.31111285 -0.64243746 0.55773443
-3.00762868 -4.20279217 1.39214635 -0.34812400 -0.64649212 0.56427151
-2.54670119 -4.17850304 1.62225533 -0.29477301 -0.64275587 0.65754038
-2.85818195 -4.19685555 1.64951015 -0.33082598 -0.64557892 0.66858745
-3.84944797 -4.22925568 1.44485366 -0.44556203 -0.65056282 0.58563513
-3.28020787 -4.18817091 1.68797004 -0.37967420 -0.64424300 0.68417621
-3.69964170 -4.26215601 1.73813319 -0.42822242 -0.65562373 0.70450860
-4.34830666 -4.22344971 1.47399974 -0.50330341 -0.64966977 0.59744871
-4.83222961 -4.23023176 1.49389374 -0.55931604 -0.65071297 0.60551226
-4.17870760 -4.22859907 1.77005279 -0.48367286 -0.65046185 0.71744639
-4.84051752 -4.41105032 1.88430130 -0.56027538 -0.67852730 0.76375413
-4.10787296 -6.37991142 1.28825438 -0.47547397 -0.98138624 0.52216154
-4.56990480 -6.36598921 1.29055786 -0.52895278 -0.97924465 0.52309519
-3.88242221 -6.35791302 1.65728545 -0.44937870 -0.97800237 0.67173898
-4.34570742 -6.34058142 1.66672730 -0.50300258 -0.97533631 0.67556602
-5.19290781 -6.39336395 1.29907012 -0.60106349 -0.98345560 0.52654541
-5.64919043 -6.25595427 1.25335050 -0.65387684 -0.96231860 0.50801408
-4.88203812 -6.26574039 1.66457975 -0.56508124 -0.96382397 0.67469555
-5.45360231 -6.30058765 1.67290688 -0.63123810 -0.96918434 0.67807072
-5.63123798 -5.74015522 1.53634059 -0.65179890 -0.88297611 0.62271702
-5.69156647 -5.22300529 1.40354097 -0.65878171 -0.80342579 0.56889004
-3.70683551 -4.56625271 2.20219326 -0.42905506 -0.70240122 0.89260364
-4.08247423 -4.51717758 2.22529101 -0.47253412 -0.69485229 0.90196574
-2.64416194 -4.16555452 1.36672747 -0.30605382 -0.64076406 0.55396861
-2.96886182 -4.20433187 1.38629115 -0.34363684 -0.64672893 0.56189823
-2.52039671 -4.19442177 1.62225533 -0.29172835 -0.64520454 0.65754038
-2.82004189 -4.19744587 1.64258170 -0.32641137 -0.64566970 0.66577917
-3.78771448 -4.21460104 1.43132889 -0.43841657 -0.64830863 0.58015317
-3.23877454 -4.18907213 1.67995787 -0.37487844 -0.64438164 0.68092865
-3.65533257 -4.26509762 1.72974026 -0.42309377 -0.65607619 0.70110673
-4.29823923 -4.22747231 1.46578884 -0.49750829 -0.65028852 0.59412062
-4.79679537 -4.25279331 1.49111557 -0.55521464 -0.65418351 0.60438621
-4.13740540 -4.23965502 1.76366091 -0.47889224 -0.65216249 0.71485561
-4.71086311 -4.34797525 1.84380329 -0.54526824 -0.66882479 0.74733931
-4.51608706 -6.37530231 1.28655803 -0.52272350 -0.98067725 0.52147394
-3.83238387 -6.36544514 1.65285647 -0.44358692 -0.97916096 0.66994381
-4.29699802 -6.35484314 1.66327012 -0.49736461 -0.97753012 0.67416471
-5.13047171 -6.39808559 1.29331863 -0.59383667 -0.98418188 0.52421421
-5.65199089 -6.33844423 1.26301229 -0.65420097 -0.97500759 0.51193029
-4.84495020 -6.29939795 1.66541636 -0.56078845 -0.96900129 0.67503464
-5.41901350 -6.34067440 1.67451251 -0.62723452 -0.97535062 0.67872155
-5.64273834 -5.82488871 1.54975867 -0.65312999 -0.89601022 0.62815571
-5.68751383 -5.28535700 1.41085958 -0.65831262 -0.81301701 0.57185644
-3.46623969 -4.32325029 2.07273555 -0.40120682 -0.66502154 0.84013122
-3.90364814 -4.37537766 2.14174008 -0.45183554 -0.67303997 0.86810046
-2.61590862 -4.17881584 1.36563444 -0.30278358 -0.64280397 0.55352557
-2.93684483 -4.21501589 1.38362968 -0.33993098 -0.64837241 0.56081951
-2.47002649 -4.16933060 1.60621297 -0.28589815 -0.64134490 0.65103805
-2.77778769 -4.19141150 1.63313377 -0.32152057 -0.64474148 0.66194969
-3.72889948 -4.20222664 1.41880584 -0.43160892 -0.64640510 0.57507730
-3.20205379 -4.19568682 1.67441106 -0.37062812 -0.64539915 0.67868042
-3.62351108 -4.28217173 1.72734225 -0.41941053 -0.65870261 0.70013475
-4.23733044 -4.22004032 1.45371401 -0.49045828 -0.64914531 0.58922642
-4.71626139 -4.23492289 1.47398365 -0.54589307 -0.65143460 0.59744221
-4.07495832 -4.22823811 1.74797189 -0.47166419 -0.65040630 0.70849645
-4.52172518 -4.22728634 1.77911901 -0.52337611 -0.65025991 0.72112113
-3.76853251 -6.34908152 1.64222717 -0.43619633 -0.97664386 0.66563547
-4.26677656 -6.39631081 1.66715944 -0.49386656 -0.98390889 0.67574114
-5.05474520 -6.38521481 1.28405225 -0.58507156 -0.98220205 0.52045828
-5.61074400 -6.37235069 1.26271033 -0.64942676 -0.98022324 0.51180786
-4.80763149 -6.33283663 1.66625297 -0.55646890 -0.97414500 0.67537373
-5.37399817 -6.36862040 1.67290688 -0.62202412 -0.97964942 0.67807072
-5.64911556 -5.88690662 1.55934298 -0.65386814 -0.90555006 0.63204044
-5.68985701 -5.33758831 1.41781223 -0.65858388 -0.82105148 0.57467455
-3.49095178 -4.39679337 2.10047650 -0.40406719 -0.67633426 0.85137534
-3.84559298 -4.35170698 2.12085247 -0.44511583 -0.66939884 0.85963422
-4.36139011 -4.33344603 2.17896152 -0.50481778 -0.66658986 0.88318723
-2.58511758 -4.17306042 1.35962260 -0.29921961 -0.64191866 0.55108881
-2.90153670 -4.20665216 1.37617767 -0.33584416 -0.64708591 0.55779898
-2.43608761 -4.15635014 1.59658766 -0.28196982 -0.63934821 0.64713663
-2.74019647 -4.17754412 1.62242615 -0.31716952 -0.64260834 0.65760964
-3.70007062 -4.20960426 1.41529942 -0.42827207 -0.64753997 0.57365602
-3.17311597 -4.19855070 1.66948044 -0.36727864 -0.64583969 0.67668194
-3.56390214 -4.25254726 1.70815825 -0.41251096 -0.65414566 0.69235897
-4.19693708 -4.21925116 1.44646907 -0.48578286 -0.64902389 0.58628988
-4.67312098 -4.23626709 1.46657515 -0.54089969 -0.65164137 0.59443933
-4.16559029 -4.36405039 1.79678214 -0.48215458 -0.67129755 0.72828043
-4.53535795 -4.28005266 1.79261839 -0.52495408 -0.65837669 0.72659278
-3.72972512 -6.35160875 1.63824117 -0.43170449 -0.97703260 0.66401988
-4.21714211 -6.38706541 1.65938091 -0.48812154 -0.98248672 0.67258835
-4.80350208 -6.38988018 1.67545545 -0.55599093 -0.98291969 0.67910373
-5.34014654 -6.38937330 1.67170274 -0.61810595 -0.98284173 0.67758268
-5.65376091 -5.96655798 1.57122755 -0.65440583 -0.91780239 0.63685757
-5.68764734 -5.40294456 1.42586267 -0.65832812 -0.83110487 0.57793760
-3.47358704 -4.43191910 2.10687828 -0.40205726 -0.68173742 0.85397011
-3.78847170 -4.34198284 2.10414219 -0.43850422 -0.66790307 0.85286111
-4.30234814 -4.32862806 2.16269493 -0.49798387 -0.66584873 0.87659401
-2.54689407 -4.16946888 1.35306442 -0.29479533 -0.64136618 0.54843062
-2.85759306 -4.19936800 1.36766088 -0.33075783 -0.64596540 0.55434692
-2.41556835 -4.18143940 1.60043776 -0.27959478 -0.64320755 0.64869720
-2.70663095 -4.18355179 1.61801708 -0.31328440 -0.64353245 0.65582252
-3.64678502 -4.20215702 1.40478003 -0.42210442 -0.64639443 0.56939226
-3.12856555 -4.19393301 1.65961933 -0.36212206 -0.64512938 0.67268497
-3.49801660 -4.22795725 1.68897438 -0.40488490 -0.65036315 0.68458331
-4.14459324 -4.21914291 1.43729222 -0.47972423 -0.64900726 0.58257025
-4.61766100 -4.23932171 1.45731461 -0.53448039 -0.65211123 0.59068584
-4.12370062 -4.37477016 1.79039037 -0.47730595 -0.67294651 0.72568971
-4.45409346 -4.25692654 1.77068198 -0.51554793 -0.65481931 0.71770144
-3.66543508 -6.33265066 1.62716889 -0.42426309 -0.97411638 0.65953201
-4.14161682 -6.35953140 1.64512050 -0.47937971 -0.97825128 0.66680825
-4.73538637 -6.38216829 1.66541636 -0.54810673 -0.98173338 0.67503464
-5.29114103 -6.41224289 1.66889298 -0.61243367 -0.98635960 0.67644382
-5.63622475 -6.02351284 1.57697821 -0.65237606 -0.92656344 0.63918847
-5.67347574 -5.45760632 1.43098569 -0.65668780 -0.83951318 0.58001405
-3.47413373 -4.49072027 2.12466097 -0.40212053 -0.69078249 0.86117792
-3.74514198 -4.34729099 2.09509087 -0.43348894 -0.66871959 0.84919238
-4.25930262 -4.33940744 2.15456152 -0.49300149 -0.66750687 0.87329733
-4.07622433 -4.31391525 2.44524717 -0.47181073 -0.66358554 0.99111944
-2.51473236 -4.17547607 1.34978521 -0.29107273 -0.64229023 0.54710150
-2.81926107 -4.19968033 1.36180568 -0.32632101 -0.64601344 0.55197370
-2.37343311 -4.16848278 1.58952904 -0.27471775 -0.64121449 0.64427561
-2.67823648 -4.19728327 1.61675739 -0.30999783 -0.64564472 0.65531194
-3.61904502 -4.22352171 1.40427911 -0.41889361 -0.64968085 0.56918925
-3.09542012 -4.20428801 1.65592134 -0.35828558 -0.64672220 0.67118609
-3.44955754 -4.22333384 1.67818332 -0.39927593 -0.64965194 0.68020940
-4.11261559 -4.23951006 1.43536019 -0.47602290 -0.65214020 0.58178717
-4.54805613 -4.22864676 1.44342375 -0.52642381 -0.65046918 0.58505553
-4.08963633 -4.39356756 1.78748500 -0.47336313 -0.67583805 0.72451210
-4.47983313 -4.33537626 1.79205585 -0.51852721 -0.66688681 0.72636479
-3.60537839 -6.31992435 1.61786819 -0.41731173 -0.97215879 0.65576220
-4.09097958 -6.36902618 1.64079905 -0.47351861 -0.97971183 0.66505665
-4.69058704 -6.40547180 1.66374326 -0.54292136 -0.98531806 0.67435646
-5.21599340 -6.40291262 1.65765405 -0.60373557 -0.98492438 0.67188835
-5.63945198 -6.10360146 1.58886278 -0.65274966 -0.93888301 0.64400560
-5.67578411 -5.52872324 1.44049990 -0.65695494 -0.85045272 0.58387041
-3.47294831 -4.54821205 2.14173222 -0.40198335 -0.69962615 0.86809731
-3.73361111 -4.38924599 2.10414219 -0.43215427 -0.67517328 0.85286111
-4.25152969 -4.38641596 2.16472816 -0.49210179 -0.67473793 0.87741810
-4.02520895 -4.31372643 2.43058825 -0.46590585 -0.66355652 0.98517781
-2.47089243 -4.16134357 1.33994782 -0.28599837 -0.64011633 0.54311413
-2.77247119 -4.18685293 1.35169220 -0.32090521 -0.64404029 0.54787445
-2.33431673 -4.16013050 1.58054543 -0.27019015 -0.63992971 0.64063436
-2.63044286 -4.18037653 1.60353029 -0.30446586 -0.64304405 0.64995068
-3.56354856 -4.21228456 1.39275789 -0.41247004 -0.64795226 0.56451941
-3.05336905 -4.20204401 1.64729285 -0.35341829 -0.64637703 0.66768873
-4.03640079 -4.21324015 1.41748941 -0.46720126 -0.64809924 0.57454371
-4.45887661 -4.19865751 1.42305052 -0.51610160 -0.64585608 0.57679772
-4.05936956 -4.41634989 1.78632283 -0.46985984 -0.67934251 0.72404104
