-12.93476009 9.75196171 0.82700336 -0.84620273 0.89559674 0.37409356
-12.91372585 6.60592318 -0.35311839 -0.84482670 0.60667211 -0.15973249
-12.88280201 7.20649147 -0.44429758 -0.84280360 0.66182691 -0.20097725
-12.92551899 6.40663385 0.12683034 -0.84559816 0.58836985 0.05737149
-12.92554379 6.99276209 0.04918003 -0.84559983 0.64219850 0.02224650
-12.91839409 7.62481213 -0.00321158 -0.84513205 0.70024443 -0.00145275
-13.43788528 7.44356537 1.64940131 -0.87911761 0.68359917 0.74610382
-13.78211403 8.37243080 1.67491758 -0.90163738 0.76890397 0.75764608
-12.95594788 9.24168205 1.46369588 -0.84758890 0.84873390 0.66210032
-12.92746258 9.96111202 1.37888730 -0.84572536 0.91480464 0.62373728
-13.21328831 9.88050747 1.97676384 -0.86442429 0.90740210 0.89418572
-12.95525742 6.58107185 0.63623703 -0.84754372 0.60438985 0.28780073
-12.96247101 7.19909382 0.56881791 -0.84801561 0.66114748 0.25730380
-12.98467159 6.96692371 1.07655489 -0.84946799 0.63982552 0.48697776
-12.93940353 7.81951475 0.51245618 -0.84650654 0.71812546 0.23180868
-12.97499084 7.58517170 1.01668787 -0.84883469 0.69660395 0.45989701
-12.93489838 8.21868801 0.94425815 -0.84621179 0.75478458 0.42713356
-12.92629433 9.18697548 0.36588594 -0.84564888 0.84370977 0.16550788
-12.91504478 9.89587116 0.26870185 -0.84491295 0.90881306 0.12154682
-12.94617271 9.63348866 0.82331610 -0.84694940 0.88471645 0.37242562
-12.91208172 6.50312519 -0.35240617 -0.84471911 0.59723139 -0.15941033
-12.88582993 7.10218191 -0.44330141 -0.84300172 0.65224737 -0.20052662
-12.93314552 6.30955791 0.12616989 -0.84609711 0.57945466 0.05707273
-12.93042660 6.89066601 0.04862008 -0.84591925 0.63282222 0.02199321
-12.91068649 7.51138592 -0.00378599 -0.84462786 0.68982768 -0.00171259
-12.77282906 8.06099033 -0.10318509 -0.83560908 0.74030203 -0.04667560
-13.76530743 7.54088593 1.68825102 -0.90053785 0.69253689 0.76367742
-13.76515865 8.27367496 1.66754127 -0.90052813 0.75983447 0.75430942
-12.94078541 9.13927555 1.45648348 -0.84659696 0.83932912 0.65883780
-12.92206573 9.86015224 1.37277734 -0.84537226 0.90553272 0.62097347
-13.26129532 9.81931400 1.97701812 -0.86756498 0.90178221 0.89430076
-12.93968773 6.49671459 0.63347012 -0.84652513 0.59664267 0.28654912
-12.94026184 7.10707855 0.56577051 -0.84656268 0.65269703 0.25592533
-12.96457291 6.87756157 1.07162499 -0.84815311 0.63161874 0.48474774
-12.93663216 7.73492146 0.51047897 -0.84632522 0.71035659 0.23091428
-12.97085571 7.50103760 1.01316345 -0.84856415 0.68887728 0.45830274
-12.93298435 8.13210201 0.94087625 -0.84608656 0.74683273 0.42560375
-12.89908218 9.07658482 0.36315522 -0.84386867 0.83357179 0.16427264
-12.89947605 9.78768921 0.26675329 -0.84389442 0.89887786 0.12066539
-12.93040562 9.52729511 0.81879622 -0.84591788 0.87496394 0.37038106
-12.91391850 6.42798901 -0.35193133 -0.84483927 0.59033108 -0.15919553
-12.87178707 7.01547766 -0.44218069 -0.84208298 0.64428461 -0.20001967
-12.92848682 6.23209286 0.12547277 -0.84579235 0.57234043 0.05675739
-12.93269825 6.81376743 0.04818739 -0.84606785 0.62576002 0.02179748
-12.90777493 7.42856836 -0.00418090 -0.84443736 0.68222189 -0.00189122
-12.90728474 8.06122780 -0.10292348 -0.84440529 0.74032384 -0.04655726
-13.77223492 7.43249512 1.68293226 -0.90099102 0.68258250 0.76127154
-13.77922630 8.16478157 1.66262376 -0.90144843 0.74983394 0.75208503
-12.95197868 9.75476551 1.36907434 -0.84732920 0.89585423 0.61929840
-12.94800186 6.39940166 0.63155460 -0.84706903 0.58770567 0.28568265
-12.94954681 7.00657034 0.56386590 -0.84717011 0.64346659 0.25506377
-12.98366737 6.19353867 1.12106645 -0.84940231 0.56879973 0.50711250
-12.97751808 6.78023481 1.06883144 -0.84900004 0.62268049 0.48348406
-12.92467976 7.61805630 0.50747025 -0.84554327 0.69962400 0.22955330
-12.96571541 7.38983965 1.00856626 -0.84822786 0.67866516 0.45622322
-12.94994164 8.02960968 0.93805796 -0.84719592 0.73742008 0.42432889
-12.89836407 9.65962696 0.26480469 -0.84382170 0.88711697 0.11978395
-12.93193626 9.40352058 0.81451428 -0.84601802 0.86359674 0.36844414
-12.91451645 6.32742119 -0.35127845 -0.84487838 0.58109516 -0.15890020
-12.88040352 6.91549778 -0.44135055 -0.84264672 0.63510269 -0.19964416
-12.93484592 6.13535881 0.12481233 -0.84620839 0.56345665 0.05645864
-12.93623066 6.71205759 0.04762744 -0.84629893 0.61641926 0.02154419
-12.87800217 7.54595470 -0.50736827 -0.84248960 0.69300234 -0.22950716
-12.91589451 7.32566595 -0.00457580 -0.84496856 0.67277157 -0.00206986
-12.91684246 7.95474529 -0.10303363 -0.84503055 0.73054469 -0.04660709
-13.79938030 7.33553314 1.68038857 -0.90276694 0.67367774 0.76012087
-13.77873135 8.04803753 1.65591800 -0.90141606 0.73911244 0.74905169
-12.94435501 9.62202263 1.36111295 -0.84683049 0.88366348 0.61569709
-13.15697193 9.48800659 1.94114971 -0.86074001 0.87135577 0.87807572
-12.95279598 6.90340137 0.56167555 -0.84738266 0.63399184 0.25407296
-12.98081589 6.09242725 1.11705446 -0.84921575 0.55951387 0.50529766
-12.97381306 6.67478848 1.06455874 -0.84875762 0.61299658 0.48155132
-12.95845699 7.52868700 0.50678253 -0.84775305 0.69141656 0.22924221
-12.92294884 8.15560341 0.42143375 -0.84543008 0.74899101 0.19063483
-12.96143150 7.27997780 1.00412238 -0.84794760 0.66857570 0.45421302
-12.95251751 7.91888332 0.93411237 -0.84736443 0.72725123 0.42254412
-12.91061211 9.54268074 0.26330581 -0.84462297 0.87637687 0.11910594
-12.93890667 9.28476906 0.81070805 -0.84647405 0.85269088 0.36672240
-12.92337418 6.23143053 -0.35077393 -0.84545785 0.57227963 -0.15867199
-12.87767696 6.81006384 -0.44027135 -0.84246832 0.62541991 -0.19915599
-12.93506145 6.03626251 0.12404182 -0.84622246 0.55435586 0.05611010
-12.93187904 6.60692406 0.04696568 -0.84601426 0.60676402 0.02124484
-12.88704014 7.44294405 -0.50627941 -0.84308088 0.68354213 -0.22901462
-12.90401363 7.21224928 -0.00516816 -0.84419131 0.66235566 -0.00233781
-12.91532421 7.84221983 -0.10317133 -0.84493124 0.72021067 -0.04666937
-13.79243565 7.22097349 1.67345107 -0.90231258 0.66315687 0.75698274
-12.88072777 9.22915459 -0.26401210 -0.84266794 0.84758341 -0.11942542
-13.77214432 7.92865419 1.64854157 -0.90098512 0.72814858 0.74571496
-12.95107460 8.10351086 1.47491038 -0.84727007 0.74420696 0.66717315
-12.95161819 9.50156212 1.35500312 -0.84730560 0.87260067 0.61293334
-13.33743858 9.49156857 1.96022868 -0.87254632 0.87168288 0.88670605
-12.95349407 6.79953766 0.55939001 -0.84742832 0.62445325 0.25303912
-12.98444748 5.99492741 1.11374021 -0.84945333 0.55055976 0.50379848
-12.93609142 7.40749598 0.50334400 -0.84628987 0.68028665 0.22768679
-12.92985344 8.04673004 0.41953155 -0.84588176 0.73899239 0.18977438
-12.98072624 7.18394756 1.00182378 -0.84920990 0.65975648 0.45317328
-12.95933628 7.81153917 0.93058950 -0.84781057 0.71739298 0.42095056
-12.91544628 9.42124176 0.26160705 -0.84493923 0.86522424 0.11833750
-12.94164181 9.16399097 0.80666399 -0.84665298 0.84159893 0.36489308
-12.92249775 6.13130569 -0.35012105 -0.84540051 0.56308442 -0.15837665
-12.87945080 6.70771646 -0.43931666 -0.84258437 0.61602056 -0.19872414
-12.93818092 5.93906975 0.12334469 -0.84642655 0.54542989 0.05579476
-12.93028831 6.50391340 0.04635482 -0.84591019 0.59730381 0.02096852
-12.88833714 7.33617258 -0.50499260 -0.84316570 0.67373645 -0.22843254
-12.90699863 7.10793352 -0.00559897 -0.84438658 0.65277553 -0.00253268
-12.92662144 7.73826551 -0.10327230 -0.84567034 0.71066374 -0.04671505
-13.78812599 7.10861635 1.66697621 -0.90203065 0.65283829 0.75405383
-13.85628700 7.86153650 1.65301216 -0.90648979 0.72198462 0.74773723
-12.94761276 7.98848581 1.46818841 -0.84704357 0.73364335 0.66413248
-12.95465755 9.37905216 1.34852290 -0.84750444 0.86134964 0.61000204
-12.94518566 6.09736919 0.62442458 -0.84688479 0.55996776 0.28245738
-12.95162678 6.69501877 0.55700922 -0.84730619 0.61485445 0.25196216
-12.98192215 5.89515972 1.10990262 -0.84928811 0.54139733 0.50206256
-12.95799732 7.31235600 0.50214046 -0.84772295 0.67154920 0.22714238
-12.93590260 7.93809223 0.41762936 -0.84627748 0.72901535 0.18891393
-12.98180485 7.07844067 0.99799287 -0.84928048 0.65006697 0.45144036
-12.96017742 7.70135880 0.92664397 -0.84786558 0.70727432 0.41916582
-12.91440296 9.29660988 0.25975838 -0.84487098 0.85377836 0.11750126
-12.92450047 6.03312492 -0.34952751 -0.84553158 0.55406773 -0.15810817
-12.87511539 6.60287142 -0.43823746 -0.84230077 0.60639185 -0.19823596
-12.93876648 5.84125662 0.12261087 -0.84646487 0.53644699 0.05546282
-12.94582558 6.41008329 0.04599849 -0.84692669 0.58868665 0.02080734
-12.89054871 7.23065519 -0.50375527 -0.84331042 0.66404599 -0.22787283
-12.91446114 7.00671959 -0.00597593 -0.84487480 0.64348030 -0.00270320
-12.92679691 7.62836695 -0.10340081 -0.84568179 0.70057088 -0.04677318
-13.43289566 6.27817297 1.67080212 -0.87879121 0.57657236 0.75578445
-13.75095367 7.71658134 1.63468301 -0.89959884 0.70867229 0.73944604
-12.93931675 7.89934015 1.46251667 -0.84650087 0.72545642 0.66156691
-12.94373131 9.27838326 1.34222782 -0.84678966 0.85210443 0.60715443
-12.94115925 6.02118063 0.62250906 -0.84662139 0.55297077 0.28159091
-12.95281124 6.61841679 0.55539030 -0.84738368 0.60781950 0.25122985
-12.97863388 5.82010365 1.10693729 -0.84907299 0.53450435 0.50072116
-12.94516659 7.22498369 0.49981946 -0.84688354 0.66352516 0.22609247
-12.92707729 7.84897614 0.41565400 -0.84570014 0.72083116 0.18802038
-12.97461700 6.99547625 0.99446839 -0.84881020 0.64244777 0.44984606
-12.95508194 7.61587906 0.92326200 -0.84753221 0.69942403 0.41763598
-12.90276241 9.19612312 0.25805962 -0.84410942 0.84454989 0.11673283
-12.91826057 5.95629263 -0.34896368 -0.84512335 0.54701161 -0.15785313
-12.87400723 6.52580738 -0.43749031 -0.84222823 0.59931451 -0.19789799
-12.92777061 5.76317596 0.12184037 -0.84574550 0.52927625 0.05511428
-12.93639565 6.32961416 0.04543854 -0.84630972 0.58129656 0.02055405
-12.90173340 7.15725231 -0.50311184 -0.84404212 0.65730488 -0.22758177
-12.89795399 6.91938019 -0.00647854 -0.84379488 0.63545924 -0.00293056
-12.90564823 7.53401470 -0.10355227 -0.84429824 0.69190586 -0.04684169
-13.42875957 6.17380524 1.66498697 -0.87852061 0.56698745 0.75315398
-13.74695015 7.60124588 1.62797725 -0.89933687 0.69808018 0.73641270
-13.15206146 7.66521072 2.00676584 -0.86041880 0.70395458 0.90775710
-12.94784355 5.92566586 0.62069994 -0.84705865 0.54419893 0.28077257
-12.95133972 6.51529503 0.55310476 -0.84728742 0.59834903 0.25019598
-12.98393440 5.72482204 1.10397184 -0.84941977 0.52575392 0.49937975
-12.96227074 7.12813759 0.49844402 -0.84800249 0.65463102 0.22547029
-12.92987347 7.73981953 0.41367865 -0.84588307 0.71080643 0.18712683
-12.97072792 6.88862848 0.99033093 -0.84855580 0.63263512 0.44797450
-12.96128178 7.51026869 0.91988009 -0.84793782 0.68972504 0.41610619
-12.96461487 8.17118454 0.86231083 -0.84815586 0.75042200 0.39006484
-12.91898060 5.85854197 -0.34837013 -0.84517044 0.53803444 -0.15758464
-12.87184620 6.42330074 -0.43649414 -0.84208685 0.58990049 -0.19744737
-12.92524052 5.66503382 0.12106985 -0.84557998 0.52026314 0.05476574
-12.93449688 6.22819424 0.04485314 -0.84618551 0.57198238 0.02028924
-12.89377594 7.04735279 -0.50162703 -0.84352154 0.64721197 -0.22691013
-12.89339733 6.81304264 -0.00696320 -0.84349674 0.62569350 -0.00314979
-12.91635513 7.43178225 -0.10364865 -0.84499866 0.68251705 -0.04688529
-13.41841316 6.06729174 1.65844500 -0.87784374 0.55720550 0.75019473
-12.79079533 8.04333115 -0.18808693 -0.83678448 0.73868024 -0.08508079
-13.78221321 7.50808191 1.62641263 -0.90164381 0.68952423 0.73570496
-12.95552063 7.68729258 1.45243371 -0.84756094 0.70598251 0.65700591
-13.10387039 7.52705383 1.99113166 -0.85726607 0.69126654 0.90068501
-12.95201683 5.82948780 0.61878437 -0.84733170 0.53536618 0.27990603
-12.95624065 6.41601038 0.55120009 -0.84760803 0.58923101 0.24933441
-12.99038124 5.63049364 1.10118091 -0.84984154 0.51709104 0.49811730
-12.94430828 6.17789316 1.04418182 -0.84682739 0.56736290 0.47233385
-12.95053959 7.01617241 0.49569318 -0.84723508 0.64434844 0.22422595
-12.93181038 7.63093901 0.41170329 -0.84600979 0.70080709 0.18623328
-12.97838879 6.78855944 0.98726618 -0.84905696 0.62344503 0.44658816
-12.95801258 7.39992332 0.91579360 -0.84772396 0.67959118 0.41425768
-12.95802116 8.05382252 0.85788095 -0.84772450 0.73964375 0.38806099
-12.90984631 5.75695848 -0.34762821 -0.84457284 0.52870524 -0.15724902
-12.87787437 6.32550049 -0.43570548 -0.84248126 0.58091879 -0.19709063
-12.92199039 5.56715107 0.12029934 -0.84536737 0.51127380 0.05441720
-12.93544769 6.12876654 0.04431864 -0.84624773 0.56285119 0.02004746
-12.90080452 6.94634581 -0.50058770 -0.84398133 0.63793570 -0.22643998
-12.89866829 6.71256113 -0.00734015 -0.84384161 0.61646551 -0.00332031
-12.91238117 7.32180214 -0.10378175 -0.84473872 0.67241675 -0.04694550
-13.54158306 6.02065229 1.66983294 -0.88590163 0.55292225 0.75534606
-12.87510204 7.98384047 -0.18821992 -0.84229988 0.73321676 -0.08514096
-13.78880882 7.39977503 1.62127149 -0.90207535 0.67957759 0.73337936
-12.95381641 7.57655144 1.44634187 -0.84744942 0.69581228 0.65425026
-13.10096455 7.41621161 1.98303533 -0.85707599 0.68108708 0.89702260
-14.38511372 8.85831928 2.14694357 -0.94108611 0.81352681 0.97116625
-12.95549393 5.73349237 0.61686885 -0.84755915 0.52655017 0.27903956
-12.98882008 5.53319788 1.09769225 -0.84973937 0.50815558 0.49653921
-12.98106670 6.09559059 1.04401743 -0.84923220 0.55980438 0.47225949
-12.96790600 6.92058897 0.49440372 -0.84837121 0.63557029 0.22364268
-12.93807030 7.52536201 0.40994743 -0.84641933 0.69111121 0.18543902
-12.97998333 6.68593502 0.98374170 -0.84916127 0.61402023 0.44499385
-12.97124290 7.29972506 0.91311622 -0.84858948 0.67038924 0.41304654
-12.90303516 8.17114639 0.34727886 -0.84412730 0.75041848 0.15709099
-12.97430897 7.95143509 0.85527521 -0.84879005 0.73024070 0.38688228
-12.91460800 5.66212511 -0.34712371 -0.84488440 0.51999599 -0.15702082
-12.87958431 6.22613287 -0.43483382 -0.84259313 0.57179308 -0.19669633
-12.92539120 5.47264194 0.11967559 -0.84558982 0.50259429 0.05413505
-12.92841530 6.02618361 0.04368233 -0.84578764 0.55343026 0.01975963
-12.90353966 6.84366131 -0.49944934 -0.84416026 0.62850541 -0.22592506
-12.89962387 6.61046410 -0.00775301 -0.84390414 0.60708916 -0.00350706
-12.91102695 7.21412277 -0.10390567 -0.84465009 0.66252774 -0.04700155
-13.75388050 6.01154184 1.69309342 -0.89979029 0.55208558 0.76586789
-12.91135025 7.89445877 -0.18816672 -0.84467125 0.72500813 -0.08511689
-13.80865574 7.29909468 1.61791861 -0.90337372 0.67033136 0.73186272
-12.95812130 7.47011900 1.44109035 -0.84773105 0.68603778 0.65187472
-13.13174820 7.32504606 1.98052263 -0.85908985 0.67271465 0.89588600
-12.95770931 8.12326241 1.40118814 -0.84770411 0.74602091 0.63382506
-14.81007481 8.99155235 2.20540977 -0.96888739 0.82576257 0.99761331
-12.95461273 5.63609552 0.61474049 -0.84750152 0.51760548 0.27807680
-12.98838902 5.43691158 1.09437799 -0.84971118 0.49931291 0.49504000
-12.98113441 5.99630117 1.04056644 -0.84923661 0.55068588 0.47069845
-12.94918346 6.80652046 0.49139500 -0.84714633 0.62509447 0.22228168
-12.93138695 7.41303444 0.40767944 -0.84598207 0.68079531 0.18441309
-12.95234585 7.18219519 0.90790242 -0.84735322 0.65959555 0.41068810
-12.89133453 8.05081940 0.34492919 -0.84336179 0.73936790 0.15602812
-12.96930790 7.83680296 0.85110593 -0.84846288 0.71971315 0.38499629
-12.91501427 5.56588173 -0.34655985 -0.84491098 0.51115721 -0.15676576
-12.88055611 6.12699413 -0.43396217 -0.84265667 0.56268841 -0.19630204
-12.93735218 5.38213682 0.11923531 -0.84637231 0.49428251 0.05393589
-12.93877316 5.93229246 0.04330055 -0.84646529 0.54480749 0.01958693
-12.90194702 6.73937035 -0.49821201 -0.84405607 0.61892760 -0.22536534
-12.90338135 6.51041794 -0.00812997 -0.84414995 0.59790117 -0.00367758
-12.91758347 7.11158514 -0.10400665 -0.84507906 0.65311092 -0.04704723
-13.59061718 5.83907652 1.66644073 -0.88910949 0.53624678 0.75381160
-12.90755653 7.78124142 -0.18796057 -0.84442306 0.71461052 -0.08502364
-13.79779339 7.18289518 1.61076581 -0.90266311 0.65965986 0.72862715
-12.96851349 7.36787176 1.43667901 -0.84841090 0.67664766 0.64987928
-13.19138813 7.25004244 1.98275614 -0.86299157 0.66582650 0.89689636
-12.95936584 8.01140785 1.39537811 -0.84781247 0.73574847 0.63119692
-14.84755898 8.88714600 2.20245957 -0.97133964 0.81617415 0.99627882
-12.95669556 5.54050207 0.61282498 -0.84763777 0.50882643 0.27721033
-12.91057587 6.09284401 0.54253405 -0.84462059 0.55955219 0.24541435
-12.99094963 5.34235954 1.09141254 -0.84987873 0.49062946 0.49369860
-12.99135113 5.90221500 1.03810155 -0.84990495 0.54204524 0.46958345
-12.96505737 6.71128321 0.49010551 -0.84818482 0.61634815 0.22169839
-12.93945503 7.30995798 0.40606987 -0.84650987 0.67132902 0.18368500
-12.96922588 7.08532953 0.90564781 -0.84845752 0.65069968 0.40966824
-12.92292595 7.95815754 0.34423062 -0.84542853 0.73085809 0.15571213
-12.96509743 7.72356844 0.84706700 -0.84818745 0.70931399 0.38316929
-12.92393494 5.47374344 -0.34614438 -0.84549457 0.50269544 -0.15657781
-12.88803196 6.03149033 -0.43325654 -0.84314573 0.55391759 -0.19598284
-12.93201828 5.28491402 0.11846479 -0.84602338 0.48535383 0.05358734
-12.94117546 5.83521080 0.04281696 -0.84662247 0.53589177 0.01936818
-12.92090702 6.64631605 -0.49756861 -0.84529644 0.61038172 -0.22507431
-12.91714668 6.41590834 -0.00839922 -0.84505045 0.58922160 -0.00379937
-12.93390369 7.01498652 -0.10408008 -0.84614670 0.64423954 -0.04708045
-13.48082447 5.71702528 1.64826846 -0.88192672 0.52503788 0.74559140
-13.65099335 6.34572315 1.61355793 -0.89305931 0.58277601 0.72989017
-12.90970039 7.69988632 -0.18782757 -0.84456331 0.70713907 -0.08496348
-13.79081631 7.09693146 1.60562479 -0.90220666 0.65176517 0.72630161
-12.94937897 7.27640009 1.43016708 -0.84715915 0.66824710 0.64693362
-13.24627113 7.19917583 1.98610640 -0.86658204 0.66115505 0.89841181
-12.95110416 7.92227411 1.38996875 -0.84727198 0.72756267 0.62874997
-13.22027683 7.83138752 1.94016707 -0.86488152 0.71921581 0.87763125
-12.94031525 5.46158361 0.61037731 -0.84656620 0.50157875 0.27610314
-12.94276333 6.03363037 0.54272449 -0.84672636 0.55411410 0.24550049
-12.98088264 5.26690054 1.08809829 -0.84922010 0.48369950 0.49219939
-12.97721958 5.82210398 1.03432190 -0.84898049 0.53468806 0.46787372
-12.93779755 6.62015820 0.48726872 -0.84640145 0.60797942 0.22041516
-12.92319870 7.22056103 0.40394822 -0.84544641 0.66311902 0.18272528
-12.95160484 6.99656677 0.90156132 -0.84730476 0.64254791 0.40781972
-12.91415596 7.86914873 0.34251598 -0.84485483 0.72268373 0.15493651
-12.95833206 7.63711166 0.84380978 -0.84774482 0.70137399 0.38169590
-12.90896893 5.39587212 -0.34549150 -0.84451544 0.49554396 -0.15628248
-12.88729000 5.95722437 -0.43259242 -0.84309721 0.54709721 -0.19568244
-12.91595459 5.20752430 0.11765759 -0.84497249 0.47824654 0.05322221
-12.92836189 5.75620937 0.04225700 -0.84578419 0.52863646 0.01911488
-12.90927887 6.56366587 -0.49638078 -0.84453577 0.60279131 -0.22453699
-12.90232372 6.33300018 -0.00884798 -0.84408075 0.58160752 -0.00400237
-12.90693569 6.92173862 -0.10423613 -0.84438246 0.63567585 -0.04715103
-13.52197933 5.63449335 1.64899540 -0.88461912 0.51745832 0.74592024
-13.62559509 6.23000002 1.60523295 -0.89139777 0.57214826 0.72612435
-12.90606213 7.58828068 -0.18762806 -0.84432530 0.69688946 -0.08487323
-12.95311260 7.17171431 1.42512560 -0.84740341 0.65863305 0.64465314
-13.36800957 7.15703773 1.99839044 -0.87454629 0.65728515 0.90396845
-12.95116901 7.81100702 1.38415873 -0.84727621 0.71734416 0.62612182
-13.12020493 7.66141844 1.91683435 -0.85833472 0.70360631 0.86707675
-13.14041710 8.33073235 1.85618460 -0.85965699 0.76507449 0.83964193
-12.95407009 5.37178421 0.60920674 -0.84746605 0.49333176 0.27557361
-12.95864105 5.94216681 0.54158175 -0.84776509 0.54571432 0.24498357
-13.00816345 5.18303108 1.08757508 -0.85100484 0.47599712 0.49196273
-12.98438358 5.72753811 1.03169262 -0.84944916 0.52600336 0.46668437
-12.95413685 6.52618599 0.48606521 -0.84747040 0.59934926 0.21987076
-12.92282295 7.11409664 0.40204602 -0.84542179 0.65334153 0.18186483
-12.95835114 6.89531994 0.89860213 -0.84774607 0.63324964 0.40648112
-12.92218590 7.76320076 0.34099185 -0.84538013 0.71295375 0.15424708
-12.95943069 7.52853727 0.84029198 -0.84781671 0.69140279 0.38010463
-12.92476749 8.15163422 0.77228928 -0.84554905 0.74862653 0.34934372
-12.91485214 5.30330276 -0.34504634 -0.84490037 0.48704261 -0.15608113
-12.91173172 5.87032270 -0.43230185 -0.84469622 0.53911632 -0.19555099
-13.06189919 5.17100382 0.11989574 -0.85452032 0.47489259 0.05423463
-12.93131924 5.66038275 0.04179886 -0.84597766 0.51983595 0.01890764
-12.91627121 6.46546888 -0.49544039 -0.84499317 0.59377313 -0.22411162
-12.91302681 6.23792982 -0.00913518 -0.84478092 0.57287651 -0.00413229
-12.92896557 6.82926702 -0.10429121 -0.84582365 0.62718350 -0.04717595
-13.39717865 5.48421335 1.62791550 -0.87645453 0.50365698 0.73638481
-13.69344139 6.15734005 1.60893297 -0.89583629 0.56547534 0.72779804
-12.91192341 7.48302889 -0.18746845 -0.84470874 0.68722343 -0.08480103
-12.95604420 7.06727028 1.42008400 -0.84759516 0.64904112 0.64237255
-12.93665409 7.69193554 1.37674594 -0.84632665 0.70640892 0.62276864
-13.09588242 7.53740454 1.90557027 -0.85674351 0.69221717 0.86198145
-13.28157806 8.30385780 1.86966705 -0.86889189 0.76260638 0.84574068
-12.95055199 5.27527142 0.60707837 -0.84723586 0.48446825 0.27461085
-12.95022202 5.84003210 0.53920096 -0.84721428 0.53633451 0.24390663
-13.19270611 5.16049337 1.10187864 -0.86307782 0.47392732 0.49843290
-12.97259712 5.62515688 1.02742004 -0.84867805 0.51660091 0.46475169
-12.94293690 6.41899204 0.48357227 -0.84673768 0.58950484 0.21874309
-12.93215466 7.01365471 0.40058279 -0.84603232 0.64411724 0.18120293
-12.96666718 6.19703293 0.96611929 -0.84829015 0.56912065 0.43702239
-12.96080685 6.79240847 0.89536107 -0.84790677 0.62379849 0.40501505
-12.92251015 7.65339851 0.33921370 -0.84540135 0.70286977 0.15344274
-12.97007847 7.42618752 0.83755589 -0.84851331 0.68200326 0.37886697
-12.93676949 8.04596138 0.76955360 -0.84633422 0.73892176 0.34810624
-12.90709305 5.20565605 -0.34439346 -0.84439278 0.47807497 -0.15578578
-12.89545727 5.76533651 -0.43109813 -0.84363151 0.52947468 -0.19500650
-13.31418991 5.17398787 0.12422527 -0.87102538 0.47516662 0.05619309
-12.93358231 5.56474733 0.04134072 -0.84612572 0.51105303 0.01870040
-12.90638638 6.35951328 -0.49405459 -0.84434652 0.58404243 -0.22348474
-12.91400909 6.13869572 -0.00951214 -0.84484518 0.56376308 -0.00430280
-12.92729473 6.72476149 -0.10440595 -0.84571433 0.61758596 -0.04722785
-13.71551609 6.06392908 1.60685170 -0.89728045 0.55689669 0.72685659
-12.91175938 7.37503481 -0.18728891 -0.84469801 0.67730552 -0.08471981
-12.96868038 6.96873665 1.41630292 -0.84842187 0.63999206 0.64066219
-12.95036507 7.59042263 1.37273908 -0.84722364 0.69708622 0.62095618
-12.93048191 8.23160744 1.28668332 -0.84592289 0.75597107 0.58202899
-13.12055492 7.44229078 1.90208375 -0.85835761 0.68348211 0.86040431
-13.47353363 8.30683327 1.89078116 -0.88144976 0.76287961 0.85529160
-12.95375538 5.18197155 0.60537565 -0.84744543 0.47589982 0.27384064
-12.94285870 5.73905087 0.53691536 -0.84673256 0.52706063 0.24287274
-13.45563698 5.16571951 1.12350845 -0.88027894 0.47440729 0.50821710
-12.97836399 5.53099155 1.02479076 -0.84905535 0.50795299 0.46356234
-12.96145058 6.32705498 0.48254070 -0.84794885 0.58106154 0.21827646
-12.93192863 6.90865612 0.39875376 -0.84601754 0.63447440 0.18037558
-12.97465038 6.10105705 0.96351421 -0.84881240 0.56030643 0.43584400
-12.95716763 6.68698692 0.89169735 -0.84766865 0.61411685 0.40335777
-12.92196751 7.54389954 0.33743554 -0.84536582 0.69281363 0.15263839
-12.88554478 8.15394878 0.24317050 -0.84298307 0.74883908 0.10999776
-12.97473526 7.32106686 0.83442897 -0.84881794 0.67234921 0.37745252
-12.94285488 7.93732357 0.76646107 -0.84673232 0.72894472 0.34670734
-13.05674934 5.17067385 -0.34626308 -0.85418338 0.47486228 -0.15663151
-12.91862202 5.67854786 -0.43080759 -0.84514701 0.52150422 -0.19487508
-13.52776814 5.15909338 0.12778430 -0.88499784 0.47379875 0.05780301
-12.94804287 5.47477722 0.04106075 -0.84707171 0.50279039 0.01857376
-12.92628765 6.26872635 -0.49351016 -0.84564847 0.57570475 -0.22323847
-12.92150688 6.04307508 -0.00981730 -0.84533572 0.55498153 -0.00444084
-12.92660141 6.62146139 -0.10451610 -0.84566903 0.60809910 -0.04727768
-13.78976345 5.99351931 1.61147666 -0.90213776 0.55043042 0.72894871
-12.91598225 7.27027559 -0.18712930 -0.84497428 0.66768467 -0.08464762
-12.96126842 6.86006212 1.41021109 -0.84793693 0.63001162 0.63790655
-12.94606876 7.47911072 1.36672866 -0.84694254 0.68686360 0.61823738
-12.96172523 8.13746738 1.28446162 -0.84796685 0.74732548 0.58102399
-13.13416195 7.34137678 1.89698803 -0.85924780 0.67421442 0.85809928
-13.98448086 8.50185680 1.95971990 -0.91487634 0.78079015 0.88647592
-13.15903759 5.16812849 0.61527258 -0.86087519 0.47462851 0.27831748
-12.95670033 5.64800453 0.53577262 -0.84763807 0.51869917 0.24235582
-13.68743229 5.15594625 1.14217293 -0.89544320 0.47350973 0.51665998
-12.98529911 5.43774891 1.02232575 -0.84950906 0.49938980 0.46244729
-12.93245983 6.21270895 0.47927406 -0.84605229 0.57056028 0.21679880
-12.93266201 6.80487108 0.39699787 -0.84606552 0.62494302 0.17958130
-12.96564102 5.99771452 0.95953006 -0.84822303 0.55081570 0.43404177
-12.97404480 6.59275579 0.88972455 -0.84877276 0.60546285 0.40246537
-12.92576218 7.43769455 0.33584791 -0.84561408 0.68305999 0.15192023
-12.91279602 8.05797577 0.24247101 -0.84476584 0.74002516 0.10968135
-12.97334671 7.21327972 0.83091116 -0.84872711 0.66245031 0.37586123
-12.94125938 7.82478619 0.76289272 -0.84662795 0.71860957 0.34509322
-13.28106689 5.16289139 -0.34931979 -0.86885846 0.47414756 -0.15801421
-12.91368961 5.57975960 -0.42989442 -0.84482431 0.51243174 -0.19446200
-13.79227066 5.16056776 0.13233398 -0.90230179 0.47393414 0.05986105
-12.93973446 5.37560701 0.04047534 -0.84652817 0.49368283 0.01830895
-12.92750072 6.16935492 -0.49247080 -0.84572786 0.56657875 -0.22276832
-12.91558838 5.94177008 -0.01024811 -0.84494853 0.54567790 -0.00463571
-12.93047619 6.52114582 -0.10461248 -0.84592247 0.59888637 -0.04732128
-13.57336044 5.79793692 1.57933319 -0.88798052 0.53246862 0.71440864
-12.92290020 7.16769028 -0.18698300 -0.84542686 0.65826344 -0.08458144
-12.85687828 7.76123667 -0.25741988 -0.84110767 0.71277332 -0.11644344
-12.96005440 6.75544453 1.40495956 -0.84785753 0.62040383 0.63553107
-12.94434834 7.37011862 1.36111903 -0.84683001 0.67685401 0.61569983
-12.95169258 8.01804924 1.27779627 -0.84731048 0.73635840 0.57800895
-13.16960526 7.25298548 1.89537895 -0.86156654 0.66609681 0.85737139
-14.10393333 8.45367908 1.96964097 -0.92269105 0.77636558 0.89096373
-13.39821148 5.16479015 0.62708503 -0.87652212 0.47432193 0.28366083
-12.95339394 5.54990673 0.53377277 -0.84742177 0.50969011 0.24145119
-13.93832684 5.15034151 1.16258180 -0.91185695 0.47299501 0.52589190
-12.98052120 5.34007215 1.01887488 -0.84919649 0.49041942 0.46088630
-12.94412422 6.11855984 0.47798461 -0.84681535 0.56191385 0.21621552
-12.94501686 6.70780468 0.39575413 -0.84687376 0.61602867 0.17901871
-12.98490715 5.90789890 0.95799768 -0.84948343 0.54256725 0.43334860
-12.94265556 7.33961058 0.33476833 -0.84671926 0.67405224 0.15143187
-12.92063427 7.95043182 0.24122192 -0.84527862 0.73014855 0.10911632
-12.97637367 7.10866880 0.82778424 -0.84892517 0.65284306 0.37444678
-12.95247078 7.72078037 0.76027596 -0.84736139 0.70905793 0.34390953
-13.53757572 5.16456413 -0.35288098 -0.88563943 0.47430116 -0.15962511
-12.91722393 5.48517942 -0.42918879 -0.84505552 0.50374573 -0.19414280
-14.04229069 5.15342712 0.13659012 -0.91865832 0.47327837 0.06178631
-12.93809605 5.27979088 0.03999175 -0.84642100 0.48488331 0.01809020
-12.91711044 6.06513309 -0.49113446 -0.84504807 0.55700725 -0.22216383
-12.91984749 5.84570980 -0.01057121 -0.84522718 0.53685594 -0.00478187
-12.93897152 6.42371941 -0.10469510 -0.84647828 0.58993900 -0.04735865
-13.38721657 5.11551809 1.61022782 -0.87580281 0.46979690 0.72838378
-13.66273403 5.76023531 1.58719563 -0.89382744 0.52900618 0.71796525
-12.90213299 7.07697201 -0.18677685 -0.84406823 0.64993215 -0.08448818
-12.81610680 7.65431261 -0.25670335 -0.83844036 0.70295370 -0.11611932
-12.94580841 6.67054653 1.39949787 -0.84692556 0.61260700 0.63306046
-12.94075966 7.28760862 1.35671139 -0.84659523 0.66927648 0.61370605
-12.95879173 7.93816233 1.27446353 -0.84777492 0.72902179 0.57650137
-13.24195766 7.21164751 1.90127909 -0.86629987 0.66230041 0.86004031
-13.39680099 7.94301462 1.85821962 -0.87642986 0.72946739 0.84056246
-13.62039566 5.17652845 0.63836539 -0.89105761 0.47539994 0.28876349
-12.94630432 5.47475004 0.53205860 -0.84695798 0.50278789 0.24067579
-13.18887711 4.80409670 1.09054041 -0.86282730 0.44119671 0.49330407
-12.97970009 5.26831150 1.01657426 -0.84914279 0.48382908 0.45984563
-12.95107365 6.04738045 0.47695303 -0.84727001 0.55537689 0.21574888
-12.93026543 6.62297392 0.39385194 -0.84590870 0.60823804 0.17815825
-12.96345997 5.82464743 0.95386022 -0.84808034 0.53492165 0.43147704
-12.92998886 7.25220013 0.33305368 -0.84589064 0.66602463 0.15065625
-12.90847206 7.85923719 0.23977298 -0.84448296 0.72177351 0.10846090
-12.97460556 7.02847672 0.82517844 -0.84880948 0.64547843 0.37326804
-12.94403362 7.63322973 0.75718343 -0.84680945 0.70101750 0.34251061
-13.76776600 5.17786217 -0.35614544 -0.90069866 0.47552243 -0.16110177
-12.91712570 5.41339016 -0.42860767 -0.84504908 0.49715275 -0.19387995
-13.20474434 4.77689219 0.11978567 -0.86386532 0.43869832 0.05418484
-12.92018890 5.20152330 0.03940635 -0.84524947 0.47769541 0.01782539
-12.91106319 5.98826122 -0.49019411 -0.84465247 0.54994756 -0.22173846
-12.91253567 5.76931095 -0.01091227 -0.84474880 0.52983969 -0.00493615
-12.92962456 6.34323931 -0.10479607 -0.84586680 0.58254784 -0.04740432
-13.57346439 5.08893299 1.63033855 -0.88798732 0.46735540 0.73748082
-13.68031406 5.66664886 1.58488321 -0.89497751 0.52041143 0.71691918
-12.91640949 6.97964430 -0.18666379 -0.84500223 0.64099377 -0.08443704
-12.89149952 7.58990812 -0.25695813 -0.84337258 0.69703895 -0.11623457
-12.94450188 7.18304062 1.35190308 -0.84684008 0.65967321 0.61153102
-12.94879818 7.82047033 1.26798332 -0.84712112 0.71821320 0.57357007
-13.32196331 7.14699602 1.90664303 -0.87153393 0.65636295 0.86246669
-13.13154793 7.67409277 1.81141257 -0.85907680 0.70477027 0.81938934
-13.88481426 5.17704773 0.65156126 -0.90835607 0.47544762 0.29473263
-12.95832253 5.38406849 0.53091580 -0.84774423 0.49445993 0.24015886
-13.19627476 4.71312523 1.08844721 -0.86331123 0.43284211 0.49235722
-12.95429230 5.95009089 0.47531971 -0.84748054 0.54644209 0.21501006
-12.93595695 6.52355099 0.39238873 -0.84628105 0.59910727 0.17749637
-12.97789860 5.73344231 0.95202136 -0.84902489 0.52654558 0.43064523
-12.94203281 7.15249014 0.33184707 -0.84667856 0.65686750 0.15011045
-12.91477680 7.75219393 0.23852389 -0.84489542 0.71194291 0.10789587
-12.97974586 6.92619991 0.82231212 -0.84914577 0.63608557 0.37197149
-12.94862175 7.52660894 0.75420988 -0.84710962 0.69122571 0.34116554
-14.03466797 5.17745304 -0.35985503 -0.91815966 0.47548485 -0.16277981
-12.90838242 5.31455231 -0.42765301 -0.84447712 0.48807573 -0.19344811
-13.15530205 4.66587162 0.11824465 -0.86063081 0.42850244 0.05348776
-13.07157421 5.16746712 0.04103529 -0.85515326 0.47456777 0.01856224
-12.90292835 5.88634014 -0.48895678 -0.84412026 0.54058737 -0.22117876
-12.89906120 5.66641951 -0.01139693 -0.84386730 0.52039039 -0.00515538
-12.92062950 6.23832798 -0.10491999 -0.84527832 0.57291305 -0.04746038
-13.58652878 4.99672222 1.62791550 -0.88884199 0.45888698 0.73638481
-13.37358093 5.44085455 1.54187107 -0.87491077 0.49967504 0.69746274
-12.90523911 6.86929512 -0.18645763 -0.84427148 0.63085955 -0.08434379
-12.89053822 7.48058653 -0.25651225 -0.84330970 0.68699908 -0.11603288
-13.10244465 5.95643234 1.48000360 -0.85717279 0.54702443 0.66947711
-12.96666336 7.08918810 1.34929860 -0.84828991 0.65105402 0.61035287
-12.96690559 7.72057724 1.26465070 -0.84830576 0.70903927 0.57206255
-13.44200993 7.10286617 1.91817522 -0.87938744 0.65231019 0.86768329
-13.12110519 7.55769110 1.80276346 -0.85839361 0.69408023 0.81547695
-13.22272301 4.83685160 0.61218643 -0.86504149 0.44420484 0.27692148
-12.94937992 5.28511858 0.52872545 -0.84715921 0.48537260 0.23916805
-13.19176102 4.61831760 1.08530736 -0.86301595 0.42413521 0.49093691
-13.19328690 5.16311693 1.02972066 -0.86311579 0.47416827 0.46579239
-12.95497894 5.85218000 0.47360045 -0.84752548 0.53745019 0.21423236
-12.93912220 6.42342806 0.39085233 -0.84648812 0.58991224 0.17680138
-12.97157192 5.63357735 0.94849688 -0.84861100 0.51737422 0.42905092
-12.94055653 6.19625378 0.87521040 -0.84658194 0.56904906 0.39589992
-12.93576622 7.04338121 0.33000541 -0.84626859 0.64684725 0.14927737
-12.91337013 7.64130020 0.23707494 -0.84480339 0.70175868 0.10724045
-12.97881031 6.82135868 0.81905490 -0.84908456 0.62645721 0.37049809
-12.94545841 7.41625357 0.75076050 -0.84690267 0.68109095 0.33960521
-14.28892899 5.16914654 -0.36335686 -0.93479359 0.47472200 -0.16436385
-12.90446663 5.21829557 -0.42682284 -0.84422094 0.47923574 -0.19307257
-13.30688667 5.16439152 0.04380960 -0.87054759 0.47428533 0.01981720
-12.90132523 5.78802109 -0.48791739 -0.84401542 0.53155798 -0.22070859
-12.91419983 5.57656908 -0.01159438 -0.84485769 0.51213872 -0.00524470
-12.93249226 6.14411020 -0.10498884 -0.84605438 0.56426036 -0.04749152
-13.72042179 4.94815731 1.64124191 -0.89760137 0.45442688 0.74241298
-13.66747189 5.46100998 1.57447708 -0.89413738 0.50152606 0.71221203
-12.90914726 6.76769876 -0.18631133 -0.84452713 0.62152922 -0.08427761
-12.88524532 7.36958694 -0.25603455 -0.84296346 0.67680520 -0.11581679
-12.90177250 5.76806831 1.45072186 -0.84404469 0.52972555 0.65623152
-12.97062397 6.98592901 1.34469068 -0.84854901 0.64157093 0.60826850
-12.96710873 7.61066246 1.25946653 -0.84831905 0.69894499 0.56971753
-13.64823246 7.10222435 1.94284904 -0.89287871 0.65225124 0.87884444
-13.15109348 7.46528387 1.80021954 -0.86035544 0.68559372 0.81432623
-13.14376259 4.71472406 0.60601419 -0.85987586 0.43298894 0.27412948
-12.96565247 5.19693804 0.52786839 -0.84822375 0.47727433 0.23878036
-13.20354939 4.52954674 1.08373749 -0.86378717 0.41598269 0.49022681
-13.45048618 5.16692400 1.04960465 -0.87994200 0.47451791 0.47478685
-12.95677471 5.75530434 0.47196713 -0.84764296 0.52855331 0.21349353
-12.93974686 6.32264328 0.38924280 -0.84652901 0.58065641 0.17607331
-12.97918510 5.54026079 0.94619828 -0.84910905 0.50880426 0.42801118
-12.99005413 6.11994076 0.87605590 -0.84982014 0.56204069 0.39628237
-12.92864132 6.93463421 0.32816377 -0.84580243 0.63686013 0.14844432
-12.91453266 7.53275061 0.23572594 -0.84487945 0.69178975 0.10663022
-12.96465588 6.71039915 0.81488568 -0.84815854 0.61626697 0.36861214
-12.94142151 7.30623627 0.74731112 -0.84663856 0.67098719 0.33804491
-14.57191563 5.16783476 -0.36730388 -0.95330685 0.47460154 -0.16614927
-13.12956715 4.47194767 0.11663025 -0.85894722 0.41069293 0.05275749
-13.54453564 5.15927410 0.04660935 -0.88609475 0.47381535 0.02108366
-12.89350605 5.68754292 -0.48672956 -0.84350389 0.52233028 -0.22017129
-12.90845680 5.47818756 -0.01198929 -0.84448195 0.50310361 -0.00542333
-12.92376423 6.04064655 -0.10510816 -0.84548336 0.55475849 -0.04754550
-13.74562263 4.85987473 1.64051497 -0.89925003 0.44631922 0.74208415
-13.81426525 5.41943836 1.58858311 -0.90374070 0.49770820 0.71859282
-12.91229057 6.66632509 -0.18616503 -0.84473276 0.61221927 -0.08421143
-12.89125443 7.26584101 -0.25566834 -0.84335655 0.66727740 -0.11565114
-12.97235107 5.70203638 1.45496881 -0.84866196 0.52366132 0.65815264
-12.98787403 6.89034271 1.34168541 -0.84967750 0.63279253 0.60690910
-12.96299934 7.49905205 1.25391209 -0.84805018 0.68869495 0.56720495
-13.17870998 7.37182760 1.79742134 -0.86216217 0.67701095 0.81306046
-13.13181686 5.16823959 0.53472507 -0.85909438 0.47463873 0.24188197
-13.21474266 4.44081020 1.08216763 -0.86451942 0.40783334 0.48951668
-13.68773937 5.15993690 1.06768107 -0.89546329 0.47387621 0.48296371
-12.96886063 5.66342020 0.47084960 -0.84843361 0.52011490 0.21298800
-12.94321728 6.22384214 0.38777956 -0.84675604 0.57158273 0.17541142
-12.98429871 5.44630241 0.94374651 -0.84944361 0.50017536 0.42690212
-12.97036648 6.01127434 0.87154669 -0.84853214 0.55206102 0.39424264
-12.93658257 6.83463812 0.32689366 -0.84632200 0.62767678 0.14786978
-12.92003918 7.42748594 0.23452681 -0.84523970 0.68212247 0.10608780
-12.97987080 6.61525154 0.81293130 -0.84915394 0.60752881 0.36772808
-12.94871902 7.20337439 0.74469435 -0.84711593 0.66154063 0.33686122
-14.84977055 5.16120577 -0.37116185 -0.97148430 0.47399274 -0.16789442
-13.13287354 5.11987591 -0.43047553 -0.85916352 0.47019711 -0.19472487
-13.14601898 4.38558435 0.11641010 -0.86002350 0.40276155 0.05265791
-13.80697823 5.16050673 0.04973998 -0.90326399 0.47392854 0.02249979
-12.86474419 5.57867146 -0.48499730 -0.84162223 0.51233178 -0.21938770
-12.90383530 5.38086605 -0.01236624 -0.84417963 0.49416584 -0.00559385
-12.92332840 5.94172621 -0.10520455 -0.84545487 0.54567385 -0.04758910
-13.43619442 4.65623856 1.59665930 -0.87900698 0.42761776 0.72224611
-13.46449184 5.18423462 1.54071486 -0.88085824 0.47610766 0.69693971
-12.90931797 6.56246853 -0.18599878 -0.84453833 0.60268134 -0.08413623
-12.88948154 7.15841770 -0.25523841 -0.84324062 0.65741187 -0.11545666
-12.96958447 5.60391760 1.45027483 -0.84848100 0.51465034 0.65602934
-12.96769524 6.17400694 1.37828159 -0.84835738 0.56700599 0.62346333
-13.00267124 6.79389668 1.33848000 -0.85064554 0.62393516 0.60545915
-12.98047447 7.40064812 1.25076461 -0.84919339 0.67965776 0.56578124
-13.22824001 7.29079819 1.79793012 -0.86540246 0.66956943 0.81329060
-13.38380146 5.17089605 0.54596239 -0.87557942 0.47488269 0.24696516
-13.21398258 4.34839201 1.07955110 -0.86446971 0.39934587 0.48833308
-13.93290234 5.15294552 1.08641481 -0.91150206 0.47323415 0.49143788
-12.95090771 5.55904388 0.46835664 -0.84725916 0.51052922 0.21186031
-12.93512535 6.12010384 0.38587737 -0.84622663 0.56205565 0.17455097
-12.97767639 5.34795618 0.94037527 -0.84901035 0.49114347 0.42537713
-12.95889854 5.90724850 0.86774200 -0.84778190 0.54250753 0.39252159
-12.93667984 6.73113632 0.32536954 -0.84632832 0.61817139 0.14718035
-12.91430473 7.31652260 0.23302791 -0.84486455 0.67193186 0.10540977
-12.97655392 6.51125288 0.80967408 -0.84893692 0.59797782 0.36625469
-12.94124126 7.09301424 0.74112606 -0.84662676 0.65140539 0.33524710
-14.62055302 4.97917795 -0.36706647 -0.95648873 0.45727575 -0.16604190
-13.50075150 5.16636753 -0.43794692 -0.88323039 0.47446680 -0.19810453
-13.02688026 4.25530624 0.11358490 -0.85222936 0.39079711 0.05137993
-14.04556370 5.14965963 0.05253973 -0.91887242 0.47293237 0.02376626
-12.88297844 5.49069929 -0.48455185 -0.84281516 0.50425267 -0.21918620
-12.91516876 5.29061794 -0.01258165 -0.84492105 0.48587766 -0.00569129
-12.92216206 5.84305048 -0.10530093 -0.84537858 0.53661174 -0.04763270
-13.25873089 4.52518702 1.57097578 -0.86739719 0.41558233 0.71062821
-12.90612030 6.48454952 -0.18587242 -0.84432912 0.59552544 -0.08407907
-12.88278389 7.07539940 -0.25487217 -0.84280241 0.64978772 -0.11529099
-12.96658039 5.53030491 1.44669843 -0.84828448 0.50788993 0.65441155
-12.94808292 6.08990479 1.37260985 -0.84707433 0.55928224 0.62089771
-12.98677158 6.70795727 1.33307064 -0.84960538 0.61604267 0.60301220
-12.95627308 7.30605936 1.24446952 -0.84761018 0.67097098 0.56293362
-13.27463436 7.23504305 1.79971075 -0.86843759 0.66444898 0.81409609
-13.10783768 4.44794559 0.59952265 -0.85752565 0.40848866 0.27119303
-13.57594585 5.17201328 0.55453318 -0.88814968 0.47498527 0.25084212
-13.15657616 4.26102018 1.07239926 -0.86071414 0.39132187 0.48509797
-13.20270348 4.81111431 1.02018952 -0.86373180 0.44184119 0.46148098
-12.95118618 5.48707676 0.46715313 -0.84727734 0.50391996 0.21131591
-12.92582321 6.04125500 0.38434097 -0.84561807 0.55481434 0.17385598
-12.97870541 5.27701235 0.93838316 -0.84907770 0.48462814 0.42447600
-12.95932102 5.83379269 0.86562830 -0.84780955 0.53576154 0.39156547
-12.92911911 6.65003872 0.32397240 -0.84583372 0.61072361 0.14654836
-12.90158176 7.22913170 0.23167889 -0.84403217 0.66390610 0.10479955
-12.93242836 7.00906181 0.73827142 -0.84605020 0.64369541 0.33395579
-13.74185085 5.18487167 -0.44276181 -0.89900333 0.47616616 -0.20028254
-13.14202023 4.22432756 0.11541944 -0.85976189 0.38795212 0.05220979
-14.26706600 5.15503597 0.05521223 -0.93336332 0.47342613 0.02497515
-12.88104820 5.41834068 -0.48380947 -0.84268886 0.49760741 -0.21885039
-12.91027164 5.21775150 -0.01286885 -0.84460068 0.47918576 -0.00582120
-12.92400265 5.77063894 -0.10536519 -0.84549898 0.52996165 -0.04766176
-13.62032604 4.55271721 1.61386228 -0.89105302 0.41811061 0.73002785
-13.66581249 5.09016323 1.55875218 -0.89402878 0.46746838 0.70509887
-12.91252422 6.38653183 -0.18574607 -0.84474808 0.58652377 -0.08402192
-12.89007473 6.97427797 -0.25453779 -0.84327942 0.64050096 -0.11513973
-12.93320942 5.42039871 1.43842793 -0.84610128 0.49779642 0.65067041
-12.95181751 5.99251270 1.36861873 -0.84731865 0.55033797 0.61909235
-12.96887302 7.20608616 1.24095166 -0.84843445 0.66178966 0.56134236
-13.32507038 7.15431595 1.80047393 -0.87173718 0.65703523 0.81444126
-13.13173389 4.36424494 0.59930980 -0.85908896 0.40080178 0.27109677
-13.83635044 5.17226601 0.56615144 -0.90518552 0.47500849 0.25609764
-13.16598797 4.17287874 1.07082939 -0.86132985 0.38322717 0.48438784
-13.15387726 4.69978285 1.01328754 -0.86053759 0.43161678 0.45835888
-12.94849110 5.39028978 0.46543387 -0.84710103 0.49503127 0.21053821
-12.92541695 5.94233465 0.38280460 -0.84559149 0.54572976 0.17316100
-12.98381042 5.18430948 0.93608457 -0.84941167 0.47611454 0.42343625
-12.95561028 5.73443031 0.86252820 -0.84756678 0.52663630 0.39016315
-12.92603207 6.54615593 0.32238477 -0.84563178 0.60118324 0.14583020
-12.91001987 7.12758207 0.23062965 -0.84458423 0.65458006 0.10432493
-12.93573475 6.90598536 0.73553574 -0.84626651 0.63422912 0.33271834
-13.98594952 5.17715454 -0.44745216 -0.91497242 0.47545746 -0.20240422
-13.16448593 4.14047670 0.11534606 -0.86123163 0.38025144 0.05217659
-13.15737152 4.65909958 0.03978813 -0.86076617 0.42788053 0.01799809
-12.86861515 5.31827641 -0.48257214 -0.84187549 0.48841774 -0.21829067
-13.03951836 5.17475176 -0.01193544 -0.85305613 0.47523677 -0.00539897
-12.92523193 5.67399740 -0.10545239 -0.84557939 0.52108628 -0.04770121
-13.74682140 4.49902105 1.62646174 -0.89932847 0.41317931 0.73572719
-13.78704548 5.03704500 1.56985211 -0.90195996 0.46259013 0.71011990
-12.91820621 6.28869057 -0.18561973 -0.84511977 0.57753825 -0.08396477
-12.88778687 6.86862993 -0.25412378 -0.84312969 0.63079846 -0.11495245
-13.01482296 5.35863543 1.44423962 -0.85144055 0.49212423 0.65329933
-12.96388531 5.89944696 1.36567783 -0.84810817 0.54179102 0.61776203
-12.95803928 7.09378099 1.23502696 -0.84772569 0.65147585 0.55866230
-13.42758751 7.10113287 1.80886865 -0.87844396 0.65215099 0.81823862
-13.12469482 4.27057743 0.59739429 -0.85862845 0.39219958 0.27023029
-14.05229378 5.15287971 0.57548416 -0.91931272 0.47322810 0.26031926
-13.17100430 4.08361340 1.06891060 -0.86165804 0.37502927 0.48351988
-13.13990211 4.60182571 1.00950801 -0.85962331 0.42262062 0.45664921
-12.96544743 5.30204344 0.46466020 -0.84821033 0.48692694 0.21018824
-12.94429874 5.85274458 0.38207299 -0.84682679 0.53750199 0.17283006
-13.18888569 5.17006350 0.95033574 -0.86282784 0.47480622 0.42988274
-12.97310257 5.64492846 0.86111903 -0.84871113 0.51841670 0.38952571
-12.93647385 6.44969082 0.32130519 -0.84631485 0.59232414 0.14534184
-12.91593742 7.02525520 0.22953045 -0.84497136 0.64518255 0.10382771
-12.94355488 6.80593967 0.73315686 -0.84677809 0.62504119 0.33164224
-14.25866413 5.17684555 -0.45276517 -0.93281364 0.47542906 -0.20480755
-13.18638611 4.57633829 0.03978813 -0.86266434 0.42027992 0.01799809
-12.78499603 5.19010878 -0.47945404 -0.83640504 0.47664714 -0.21688022
-13.27314472 5.17083740 -0.00999680 -0.86834013 0.47487730 -0.00452204
-12.92392349 5.57677317 -0.10554419 -0.84549379 0.51215744 -0.04774273
-13.20548058 4.23106241 1.55353034 -0.86391354 0.38857061 0.70273679
-13.78851414 4.93955803 1.56615210 -0.90205604 0.45363715 0.70844620
-12.90873146 6.18413830 -0.18544017 -0.84449995 0.56793642 -0.08388354
-12.88291264 6.76235485 -0.25369385 -0.84281087 0.62103844 -0.11475798
-12.97264767 5.24631500 1.43507504 -0.84868139 0.48180899 0.64915371
-12.95715427 5.79831600 1.36063635 -0.84766781 0.53250343 0.61548150
-13.83904648 5.96102667 1.98498964 -0.90536189 0.54744637 0.89790666
-12.97082806 6.99516535 1.23169422 -0.84856236 0.64241922 0.55715477
-13.65127563 7.11033487 1.83481610 -0.89307779 0.65299606 0.82997590
-13.08272839 4.16631317 0.59356320 -0.85588294 0.38262421 0.26849729
-13.12423801 4.71775770 0.52682084 -0.85859853 0.43326753 0.23830651
-13.16588211 3.99157357 1.06611955 -0.86132294 0.36657652 0.48225734
-13.15159702 4.51332760 1.00802898 -0.86038840 0.41449317 0.45598018
-12.94655800 5.19969893 0.46225321 -0.84697455 0.47752786 0.20909944
-12.93701363 5.75174809 0.38031712 -0.84635019 0.52822673 0.17203580
-13.43711662 5.16985130 0.96811140 -0.87906736 0.47478673 0.43792352
-12.96065235 5.54284000 0.85745531 -0.84789664 0.50904113 0.38786843
-12.93364334 6.34720612 0.31978106 -0.84612972 0.58291215 0.14465241
-12.91755867 6.92124271 0.22833133 -0.84507740 0.63563031 0.10328528
-12.96927071 6.12974930 0.79833895 -0.84846044 0.56294149 0.36112726
-12.94177246 6.70146704 0.73018324 -0.84666151 0.61544663 0.33029714
-14.51685429 5.16792536 -0.45774609 -0.94970465 0.47460985 -0.20706065
-13.16567612 4.47658539 0.03912637 -0.86130947 0.41111887 0.01769875
-13.50349140 5.16276550 -0.00809407 -0.88340962 0.47413599 -0.00366134
-12.92190552 5.47979069 -0.10563598 -0.84536177 0.50325084 -0.04778425
-13.19769096 4.13736773 1.54916906 -0.86340392 0.37996593 0.70076394
-13.76494694 4.83366203 1.55944586 -0.90051425 0.44391191 0.70541263
-12.92017841 6.09015608 -0.18534042 -0.84524882 0.55930531 -0.08383842
-12.89851761 6.66746330 -0.25345501 -0.84383172 0.61232382 -0.11464994
-12.99981022 5.16250992 1.43440449 -0.85045838 0.47411251 0.64885038
-12.97149754 5.70714664 1.35811555 -0.84860617 0.52413064 0.61434126
-13.70124817 5.79960680 1.95818806 -0.89634705 0.53262198 0.88578302
-12.96707439 6.88823986 1.22669530 -0.84831679 0.63259941 0.55489349
-13.17923450 3.90539217 1.06507301 -0.86219645 0.35866183 0.48178396
-13.13626194 4.41593313 1.00424945 -0.85938519 0.40554869 0.45427051
-13.10916615 5.16937351 0.46827069 -0.85761255 0.47474286 0.21182144
-12.94178391 5.65669680 0.37907338 -0.84666228 0.51949745 0.17147319
-13.68772411 5.16742229 0.98604023 -0.89546227 0.47456366 0.44603360
-12.97500324 5.45276546 0.85590523 -0.84883547 0.50076890 0.38716727
-12.94264698 6.25108099 0.31870148 -0.84671873 0.57408428 0.14416407
-12.92721939 6.82216644 0.22738202 -0.84570944 0.62653136 0.10285587
-12.97855473 6.03471804 0.79625434 -0.84906781 0.55421400 0.36018428
-12.95340824 6.60456085 0.72816122 -0.84742272 0.60654700 0.32938248
-14.79435730 5.16257477 -0.46314207 -0.96785915 0.47411847 -0.20950152
-13.38989735 3.93537450 0.11820795 -0.87597823 0.36141536 0.05347117
-13.17837143 4.38869810 0.03892275 -0.86214000 0.40304750 0.01760664
-13.17149258 5.15463448 -0.48801640 -0.86168998 0.47338927 -0.22075337
-13.75111294 5.15829849 -0.00602978 -0.89960921 0.47372577 -0.00272756
-12.92287064 5.38459778 -0.10571859 -0.84542495 0.49450853 -0.04782162
-13.21772861 4.05262566 1.54844213 -0.86471480 0.37218341 0.70043516
-13.44769478 4.62700891 1.51666510 -0.87975937 0.42493340 0.68606085
-12.92550755 5.99375868 -0.18522072 -0.84559745 0.55045241 -0.08378427
-12.90987682 6.57082415 -0.25318432 -0.84457487 0.60344869 -0.11452749
-13.80088902 5.37920809 1.52716744 -0.90286565 0.49401355 0.69081157
-12.96149063 5.60572863 1.35286403 -0.84795147 0.51481664 0.61196572
