23.37100410 2.39408231 2.72842836 0.87298691 0.62628567 0.91331166
24.49645805 2.90336967 2.02132201 0.91502649 0.75951391 0.67661554
23.32589912 2.53763199 2.72479391 0.87130207 0.66383791 0.91209507
24.45994186 3.05499005 2.01975203 0.91366249 0.79917741 0.67608994
25.83820343 2.24622369 1.99992967 0.96514523 0.58760625 0.66945463
23.30357933 2.68345547 2.72406697 0.87046838 0.70198494 0.91185170
26.77131081 2.13279676 2.98740125 1.00000000 0.55793405 1.00000000
24.44026375 3.20861506 2.01975203 0.91292745 0.83936536 0.67608994
23.27837563 2.82885742 2.72309780 0.86952692 0.74002171 0.91152728
24.45119667 3.36648750 2.02254319 0.91333580 0.88066435 0.67702430
23.27786255 2.97734523 2.72527838 0.86950779 0.77886575 0.91225725
23.67205811 2.18790817 2.62850475 0.88423234 0.57235110 0.87986332
24.49068832 3.52891040 2.02795053 0.91481096 0.92315376 0.67883432
23.26656532 3.12460828 2.72624755 0.86908579 0.81738937 0.91258162
23.46013069 2.31724334 2.60537982 0.87631613 0.60618484 0.87212247
24.54288864 3.69404912 2.03457904 0.91676080 0.96635360 0.68105316
23.27792549 3.27518678 2.73012447 0.86951011 0.85678029 0.91387939
23.37595177 2.45739150 2.59728622 0.87317175 0.64284718 0.86941326
23.31919861 3.39318395 2.73715091 0.87105179 0.88764805 0.91623145
23.45298195 2.57720876 2.60769248 0.87604904 0.67419112 0.87289661
23.41124344 3.55702901 2.75120425 0.87449002 0.93050951 0.92093563
23.48253822 3.71904159 2.76283455 0.87715310 0.97289157 0.92482877
23.41085625 2.87075591 2.60676742 0.87447554 0.75098228 0.87258697
23.38841629 3.01728797 2.60630488 0.87363732 0.78931469 0.87243217
23.84554672 2.13141537 2.55381870 0.89071268 0.55757272 0.85486299
23.41034317 3.16974330 2.61116099 0.87445635 0.82919657 0.87405765
23.39646530 2.23916554 2.50464320 0.87393796 0.58575988 0.83840203
23.50209236 3.33257294 2.62434220 0.87788349 0.87179238 0.87846994
23.37600517 2.38551426 2.50397253 0.87317371 0.62404430 0.83817750
23.24629784 3.40833497 2.59612989 0.86832869 0.89161152 0.86902618
23.33090973 2.49202657 2.50017262 0.87148923 0.65190762 0.83690554
23.29109573 2.63586640 2.49749041 0.87000209 0.68953580 0.83600771
23.45081520 3.73969793 2.62549853 0.87596816 0.97829521 0.87885702
23.27012825 2.78168035 2.49704313 0.86921889 0.72768033 0.83585799
26.65531731 2.17076731 2.68592143 0.99566722 0.56786704 0.89908290
25.44075584 2.50290108 1.66742742 0.95029920 0.65475237 0.55815315
23.26796532 2.92983508 2.49883151 0.86913806 0.76643723 0.83645660
24.35257530 2.13909650 2.44329906 0.90965194 0.55958205 0.81786770
25.36102867 2.65610051 1.66291821 0.94732112 0.69482899 0.55664372
23.27273750 3.07912183 2.50151372 0.86931634 0.80549026 0.83735442
23.66336060 2.22903681 2.37166786 0.88390744 0.58311021 0.79388994
25.12641335 3.76467991 1.81414008 0.93855745 0.98483044 0.60726362
23.26781273 3.19011593 2.50263143 0.86913234 0.83452600 0.83772856
23.66645050 2.34188175 2.37313819 0.88402283 0.61263019 0.79438215
23.29058647 3.34249663 2.50754905 0.86998302 0.87438840 0.83937472
23.32808304 3.49766040 2.51425457 0.87138367 0.91497886 0.84161931
23.35444260 2.60798931 2.34330940 0.87236828 0.68224323 0.78439730
23.37043571 3.65435314 2.52163100 0.87296569 0.95596927 0.84408849
25.33374786 3.42019963 1.66742742 0.94630212 0.89471531 0.55815315
25.98226738 2.55756211 1.56626165 0.97052652 0.66905159 0.52428901
23.42247009 2.91393638 2.35423255 0.87490934 0.76227814 0.78805369
24.07951736 2.11881018 2.29512978 0.89945233 0.55427521 0.76826966
25.36509895 3.58680725 1.67123210 0.94747317 0.93829942 0.55942672
25.93790054 2.71782851 1.56443751 0.96886927 0.71097684 0.52367842
23.22421455 3.03772736 2.33511686 0.86750382 0.79466158 0.78165489
23.69330406 2.23461723 2.25746489 0.88502592 0.58457005 0.75566179
25.85486031 2.87342072 1.56013799 0.96576744 0.75167936 0.52223921
23.53823280 2.36917138 2.24324036 0.87923348 0.61976904 0.75090027
25.82242203 3.03417253 1.55922604 0.96455574 0.79373163 0.52193391
23.31151390 3.31013298 2.34814072 0.87076473 0.86592215 0.78601450
23.47140121 2.47417712 2.23763061 0.87673712 0.64723825 0.74902242
25.81377983 3.15655518 1.55961680 0.96423292 0.82574660 0.52206475
23.56375694 3.49688649 2.37733960 0.88018692 0.91477638 0.79578853
23.41979790 2.61759329 2.23402429 0.87480950 0.68475556 0.74781525
25.83302116 3.32380915 1.56222260 0.96495169 0.86949980 0.52293700
23.38312912 2.76233983 2.23202085 0.87343985 0.72262090 0.74714464
26.28476524 2.10197711 2.31314611 0.98182589 0.54987174 0.77430046
25.95796967 3.50593686 1.57186401 0.96961892 0.91714394 0.52616435
25.99140358 2.52176380 1.41767728 0.97086781 0.65968686 0.47455201
23.52581024 3.79397345 2.37817979 0.87876946 0.99249357 0.79606974
23.37123489 2.90994763 2.23262191 0.87299556 0.76123470 0.74734586
24.72338676 2.13473296 2.16873026 0.92350304 0.55844057 0.72595882
25.95915794 2.68339205 1.41672575 0.96966332 0.70196837 0.47423351
23.35248947 3.05673504 2.23262191 0.87229532 0.79963392 0.74734586
24.17604256 2.24103355 2.11892533 0.90305787 0.58624852 0.70928717
26.08468437 2.86201096 1.42528963 0.97435218 0.74869460 0.47710016
23.36436272 3.20775962 2.23582745 0.87273884 0.83914155 0.74841887
24.03464317 2.38043618 2.10707593 0.89777613 0.62271589 0.70532072
25.96900558 3.01464343 1.41946137 0.97003114 0.78862286 0.47514921
23.37853622 3.32205033 2.23883271 0.87326825 0.86903971 0.74942482
23.94590378 2.48571634 2.09985518 0.89446139 0.65025693 0.70290363
25.96243858 3.13793755 1.41993713 0.96978587 0.82087630 0.47530848
23.41821289 3.47799015 2.24504352 0.87475032 0.90983313 0.75150383
23.89022064 2.63179517 2.09615207 0.89238143 0.68847078 0.70166403
25.94617271 3.30150223 1.42017508 0.96917826 0.86366439 0.47538811
23.47257996 3.63701034 2.25285697 0.87678111 0.95143241 0.75411934
23.85540771 2.77978945 2.09448576 0.89108104 0.72718567 0.70110625
23.68497467 3.82266808 2.27689838 0.88471478 1.00000000 0.76216692
23.83549500 2.92938042 2.09430051 0.89033723 0.76631826 0.70104426
23.83242035 3.08111358 2.09578180 0.89022237 0.80601126 0.70154011
23.82837868 3.23292375 2.09726310 0.89007145 0.84572440 0.70203596
23.84640884 3.34985733 2.10041046 0.89074492 0.87631392 0.70308948
23.86429977 3.50537658 2.10411358 0.89141321 0.91699737 0.70432907
23.93039513 3.66875553 2.11244512 0.89388210 0.95973688 0.70711797
24.61783218 2.17515612 2.02533412 0.91956019 0.56901515 0.67795849
23.55208969 2.15136623 2.74756980 0.87975109 0.56279182 0.91971904
23.25319290 2.23435402 2.71219444 0.86858624 0.58450121 0.90787750
23.18142891 2.37449646 2.70516777 0.86590564 0.62116206 0.90552545
24.33423424 2.88400698 2.00701833 0.90896684 0.75444871 0.67182750
