-18.81669044 -9.03275681 1.68902457 -0.99387068 -0.66088599 0.71358639
-18.44097328 -8.99501514 1.65797532 -0.97402585 -0.65812463 0.70046860
-18.24313164 -9.04067421 1.64419496 -0.96357614 -0.66146529 0.69464660
-18.09708023 -9.07464027 1.63407779 -0.95586187 -0.66395044 0.69037223
-17.89952278 -9.11659145 1.62029755 -0.94542718 -0.66701978 0.68455034
-17.79767036 -9.20594788 1.61593664 -0.94004750 -0.67355758 0.68270791
-17.70245552 -9.29809761 1.61227357 -0.93501836 -0.68029976 0.68116033
-18.88795090 -9.04180527 1.58811677 -0.99763453 -0.66154802 0.67095447
-17.67882729 -9.42792797 1.61576223 -0.93377036 -0.68979889 0.68263423
-18.62812996 -9.06197166 1.56954730 -0.98391116 -0.66302353 0.66310912
-18.38311005 -9.08628559 1.55229259 -0.97096956 -0.66480243 0.65581930
-18.16886330 -9.08738708 1.53651679 -0.95965338 -0.66488308 0.64915425
-18.00117493 -9.14550114 1.52632833 -0.95079631 -0.66913497 0.64484978
-18.68365669 -10.19748306 0.99614429 -0.98684400 -0.74610376 0.42085534
-17.91322899 -9.24291706 1.52353466 -0.94615114 -0.67626250 0.64366949
-17.59355164 -10.06825447 1.63634551 -0.92926621 -0.73664868 0.69133031
-17.69934845 -9.27403545 1.50907362 -0.93485427 -0.67853928 0.63755995
-18.93273544 -9.07165527 1.47502363 -1.00000000 -0.66373205 0.62317437
-17.61604309 -10.22870636 1.64506721 -0.93045419 -0.74838823 0.69501513
-18.60297203 -9.05747986 1.45173144 -0.98258239 -0.66269487 0.61333376
-17.58745575 -10.36046124 1.64873028 -0.92894423 -0.75802815 0.69656271
-18.43850517 -9.12102985 1.44253719 -0.97389549 -0.66734457 0.60944933
-18.10105324 -10.43993282 0.97539270 -0.95607173 -0.76384270 0.41208813
-17.65990829 -10.51571846 1.66111517 -0.93277109 -0.76938760 0.70179510
-18.23669243 -9.12822056 1.42889893 -0.96323597 -0.66787064 0.60368741
-18.02993202 -10.55042744 0.97507346 -0.95231521 -0.77192712 0.41195324
-17.63439369 -10.65123367 1.66530156 -0.93142343 -0.77930266 0.70356381
-18.01552582 -9.15931511 1.41480100 -0.95155430 -0.67014569 0.59773123
-17.98216629 -10.67473698 0.97624403 -0.94979233 -0.78102225 0.41244781
-17.68088150 -10.83166695 1.67698860 -0.93387884 -0.79250413 0.70850140
-17.94551849 -10.80608463 0.97815955 -0.94785661 -0.79063237 0.41325709
-17.67505455 -10.98151016 1.68344271 -0.93357110 -0.80346745 0.71122819
-17.62820244 -10.06414700 1.53520215 -0.93109643 -0.73634815 0.64859885
-17.77191544 -9.31817532 1.40376782 -0.93868715 -0.68176877 0.59306991
-17.95051384 -10.96345901 0.98273557 -0.94812047 -0.80214673 0.41519037
-17.86177635 -11.25403214 1.70995677 -0.94343346 -0.82340670 0.72242993
-17.64055443 -10.21859360 1.54243279 -0.93174887 -0.74764830 0.65165371
-17.54060936 -9.33764744 1.38875055 -0.92646986 -0.68319345 0.58672535
-18.75839043 -9.09582043 1.33430743 -0.99079132 -0.66550010 0.56372398
-17.94745064 -11.11710739 0.98688591 -0.94795865 -0.81338853 0.41694382
-17.72359467 -11.32306671 1.70297933 -0.93613493 -0.82845765 0.71948206
-17.61382866 -10.35141087 1.54604805 -0.93033725 -0.75736594 0.65318108
-18.49496460 -9.11230755 1.31810236 -0.97687757 -0.66670638 0.55687761
-17.61859131 -10.18780136 2.23029590 -0.93058878 -0.74539536 0.94226503
-17.95330429 -11.27753258 0.99167472 -0.94826788 -0.82512611 0.41896704
-17.70891953 -11.47108650 1.70891011 -0.93535978 -0.83928758 0.72198772
-17.69234085 -10.54747105 1.55985177 -0.93448412 -0.77171081 0.65901291
-18.27134895 -9.14545345 1.30499732 -0.96506649 -0.66913152 0.55134094
-17.67335129 -10.33076286 2.24417067 -0.93348116 -0.75585526 0.94812691
-17.98084831 -11.41346169 0.99678278 -0.94972271 -0.83507144 0.42112511
-18.83176804 -10.97706127 0.90108055 -0.99466705 -0.80314195 0.38069242
-17.73630333 -11.60795021 1.71745741 -0.93680614 -0.84930128 0.72559881
-17.65952301 -10.64099693 1.56149507 -0.93275076 -0.77855366 0.65970719
-18.11052322 -9.17208004 1.29569697 -0.95657194 -0.67107964 0.54741168
-18.01955223 -11.59765625 1.00380647 -0.95176697 -0.84854811 0.42409250
-18.65575409 -11.03222084 0.89517623 -0.98537022 -0.80717772 0.37819794
-17.76754379 -11.78865719 1.72844684 -0.93845624 -0.86252278 0.73024172
-17.68421173 -10.80778313 1.57036901 -0.93405479 -0.79075664 0.66345632
-17.94426155 -9.23013306 1.28710127 -0.94779021 -0.67532712 0.54378009
-18.43522644 -11.05892754 0.88679582 -0.97372228 -0.80913174 0.37465733
-17.76581955 -11.94905472 1.73612189 -0.93836516 -0.87425834 0.73348427
-17.68376541 -10.96061993 1.57694221 -0.93403119 -0.80193901 0.66623336
-17.87883568 -9.33901024 1.28653765 -0.94433451 -0.68329316 0.54354197
-18.19632339 -11.07189655 0.87736791 -0.96110380 -0.81008065 0.37067419
-17.77429390 -12.11776161 1.74501801 -0.93881279 -0.88660187 0.73724276
-17.68209267 -11.11387539 1.58351541 -0.93394285 -0.81315202 0.66901046
-17.67121506 -10.24362659 1.43135083 -0.93336833 -0.74947989 0.60472327
-17.85683632 -9.47075367 1.28949678 -0.94317257 -0.69293225 0.54479218
-17.86640358 -9.24025059 1.98578274 -0.94367790 -0.67606741 0.83896208
-17.79772568 -12.29838562 1.75565851 -0.94005042 -0.89981729 0.74173820
-17.67414474 -11.26433277 1.58959568 -0.93352306 -0.82416034 0.67157924
-17.67865562 -10.39698410 1.43778682 -0.93376130 -0.76070035 0.60744238
-17.61391258 -10.10670567 2.14521456 -0.93034166 -0.73946196 0.90631956
-17.67761803 -9.28402424 1.97023809 -0.93370652 -0.67927009 0.83239472
-18.01509094 -11.27428246 0.87508237 -0.95153135 -0.82488829 0.36970860
-17.96147346 -12.57934761 1.78147483 -0.94869936 -0.92037404 0.75264519
-17.69515419 -11.43457031 1.59863389 -0.93463272 -0.83661586 0.67539775
-17.65576935 -10.53344059 1.44161773 -0.93255246 -0.77068424 0.60906088
-18.74912643 -9.37598324 1.23037684 -0.99030203 -0.68599832 0.51981491
-17.65028191 -10.23854542 2.15616727 -0.93226266 -0.74910808 0.91094691
-17.73911858 -9.42310143 1.98284185 -0.93695486 -0.68944573 0.83771962
-18.50884438 -8.98570442 1.93290508 -0.97761071 -0.65744340 0.81662208
-17.83209991 -12.61430740 1.77397418 -0.94186598 -0.92293185 0.74947631
-17.72624779 -11.57332134 1.60701478 -0.93627506 -0.84676760 0.67893857
-18.92183113 -11.03867340 0.80447572 -0.99942404 -0.80764985 0.33987838
-17.70492172 -10.67634773 1.45050561 -0.93514866 -0.78114015 0.61281592
-18.60328102 -9.41277409 1.22295046 -0.98259866 -0.68869013 0.51667738
-17.70933723 -9.55039215 1.98641288 -0.93538183 -0.69875902 0.83922833
-18.26294136 -9.00832176 1.91166842 -0.96462244 -0.65909821 0.80764997
-17.82530975 -12.77840424 1.78182364 -0.94150734 -0.93493807 0.75279254
-17.72802353 -11.73390388 1.61440969 -0.93636882 -0.85851675 0.68206280
-18.69570732 -11.06458855 0.79665303 -0.98748052 -0.80954593 0.33657342
-17.70549583 -10.82906437 1.45663512 -0.93517894 -0.79231369 0.61540550
-18.49764252 -9.50571346 1.21956289 -0.97701901 -0.69549012 0.51524621
-18.14552307 -9.09252167 1.90485668 -0.95842057 -0.66525871 0.80477208
-17.92557335 -12.02693272 1.64135993 -0.94680315 -0.87995631 0.69344884
-18.46487236 -11.08501148 0.78857243 -0.97528815 -0.81104022 0.33315951
-17.71839714 -10.99063110 1.46399057 -0.93586040 -0.80413485 0.61851305
-18.39510918 -9.59954834 1.21643591 -0.97160333 -0.70235556 0.51392514
-17.96573067 -9.14394855 1.89103293 -0.94892418 -0.66902143 0.79893178
-17.80347252 -12.10798168 1.63675857 -0.94035393 -0.88588631 0.69150484
-18.25328827 -11.11442280 0.78143740 -0.96411258 -0.81319207 0.33014506
-17.72490311 -11.14959526 1.47088623 -0.93620402 -0.81576550 0.62142640
-17.71743774 -10.23308563 1.30697012 -0.93580973 -0.74870867 0.55217439
-18.28507996 -9.68872547 1.21278787 -0.96579176 -0.70888025 0.51238388
-17.78424454 -9.19256210 1.87700868 -0.93933833 -0.67257822 0.79300678
-17.93879700 -13.37925816 1.82089698 -0.94750160 -0.97889984 0.76930046
-17.78780746 -12.26140404 1.64283884 -0.93952656 -0.89711154 0.69407368
-17.74018860 -11.31551647 1.47870135 -0.93701136 -0.82790524 0.62472814
-17.72512817 -10.38649559 1.31288850 -0.93621594 -0.75993294 0.55467480
-17.67274857 -10.11172199 2.01183057 -0.93344927 -0.73982900 0.84996688
-17.73141861 -9.30690098 1.87760973 -0.93654817 -0.68094391 0.79326069
-18.76314354 -8.96925831 1.79510081 -0.99104238 -0.65624011 0.75840193
-17.94651222 -13.56145763 1.83101416 -0.94790912 -0.99223059 0.77357477
-17.77745247 -12.41966534 1.64957643 -0.93897963 -0.90869081 0.69692022
-17.73567772 -11.47013855 1.48483098 -0.93677312 -0.83921820 0.62731785
-17.73330307 -10.54142189 1.31894779 -0.93664771 -0.77126819 0.55723476
-17.70414543 -10.24062061 2.02149343 -0.93510765 -0.74925995 0.85404932
-17.73303795 -9.41466236 1.88281870 -0.93663371 -0.68882829 0.79546142
-18.54849625 -8.97448349 1.77732658 -0.97970504 -0.65662241 0.75089264
-17.82954597 -12.58134365 1.66075087 -0.94173110 -0.92052007 0.70164120
-17.77818871 -11.61694813 1.49371874 -0.93901849 -0.84995961 0.63107276
-17.95378494 -10.78694725 1.34121215 -0.94829321 -0.78923219 0.56664109
-17.72355461 -10.40089989 2.03178644 -0.93613279 -0.76098686 0.85839790
-17.69979477 -9.54008484 1.88582385 -0.93487781 -0.69800490 0.79673100
-18.40413094 -9.04788494 1.76825428 -0.97207987 -0.66199285 0.74705970
-17.83126450 -12.75101662 1.66896749 -0.94182187 -0.93293428 0.70511264
-17.76631927 -11.76922703 1.49938858 -0.93839157 -0.86110115 0.63346815
-18.17045593 -9.07542706 1.74992466 -0.95973748 -0.66400796 0.73931575
-17.85577774 -12.93872643 1.67964900 -0.94311661 -0.94666815 0.70962536
-17.78963089 -11.94630718 1.50842965 -0.93962288 -0.87405729 0.63728791
-17.64937973 -10.65769196 2.03892851 -0.93221498 -0.77977514 0.86141533
-17.94249916 -9.10309124 1.73215032 -0.94769716 -0.66603208 0.73180634
-17.86898613 -13.12017536 1.68934453 -0.94381428 -0.95994395 0.71372157
-17.80317879 -12.11852360 1.51670456 -0.94033843 -0.88665760 0.64078391
-17.77115631 -10.25493813 1.20132244 -0.93864703 -0.75030750 0.50753993
-17.74159622 -10.86586571 2.05867457 -0.93708575 -0.79500628 0.86975777
-17.77690887 -9.16011429 1.72085631 -0.93895090 -0.67020416 0.72703481
-17.90462112 -13.32012272 1.70150495 -0.94569647 -0.97457319 0.71885920
-17.80870056 -12.28684330 1.52436638 -0.94063008 -0.89897281 0.64402092
-17.77307129 -11.29562473 1.34924424 -0.93874818 -0.82644981 0.57003456
-17.78211021 -10.41083622 1.20705521 -0.93922561 -0.76171386 0.50996190
-17.73045540 -11.01274776 2.06581664 -0.93649727 -0.80575299 0.87277514
-17.68062210 -10.11151028 1.91206920 -0.93386519 -0.73981351 0.80781925
-17.70841217 -9.26609993 1.71974540 -0.93533301 -0.67795867 0.72656548
-17.96552086 -13.54140377 1.71645904 -0.94891310 -0.99076331 0.72517705
-17.83077240 -12.46829510 1.53371394 -0.94179589 -0.91224879 0.64797008
-17.95177650 -11.56784916 1.37024033 -0.94818717 -0.84636724 0.57890505
-17.76938438 -11.15318775 2.07715988 -0.93855345 -0.81602836 0.87756747
-17.70508957 -10.23662090 1.92048371 -0.93515748 -0.74896729 0.81137425
-17.68039894 -9.35781384 1.72141171 -0.93385339 -0.68466896 0.72726947
-18.01272392 -12.72267056 1.55639327 -0.95140630 -0.93086034 0.65755177
-18.04930115 -11.75122738 1.38306355 -0.95333827 -0.85978419 0.58432269
-17.76947403 -11.30939960 2.08598256 -0.93855822 -0.82745767 0.88129497
-17.72790909 -10.39909840 1.93070126 -0.93636280 -0.76085502 0.81569099
-17.92108727 -12.82746124 1.55532050 -0.94656616 -0.93852741 0.65709853
-17.79003716 -11.48005009 2.09753609 -0.93964434 -0.83994341 0.88617611
-17.95144272 -13.02069759 1.56589401 -0.94816953 -0.95266563 0.66156566
-17.78916740 -11.63835430 2.10656881 -0.93959838 -0.85152578 0.88999230
-17.76268959 -10.72198868 1.95033514 -0.93819988 -0.78447944 0.82398605
-17.97525597 -13.21127224 1.57600772 -0.94942731 -0.96660912 0.66583854
-18.11432266 -11.34529877 1.25721633 -0.95677263 -0.83008426 0.53115422
-17.87093925 -10.28898048 1.09046340 -0.94391745 -0.75279820 0.46070370
-17.84850502 -12.82600975 2.33319926 -0.94273251 -0.93842119 0.98574013
-17.80691147 -11.81027317 2.11812210 -0.94053560 -0.86410433 0.89487338
-17.71193314 -10.84379005 1.95233858 -0.93551898 -0.79339111 0.82483244
-17.84041786 -12.26430035 1.39095473 -0.94230533 -0.89732343 0.58765656
-17.81875038 -11.31637287 1.23988795 -0.94116092 -0.82796788 0.52383322
-17.74384308 -10.36487198 1.08618140 -0.93720442 -0.75835085 0.45889461
-17.81733894 -12.97421551 2.34012866 -0.94108635 -0.94926471 0.98866767
-17.81328392 -11.97622299 2.12841535 -0.94087219 -0.87624609 0.89922214
-17.74651146 -11.01899338 1.96455967 -0.93734533 -0.80620998 0.82999569
-17.82100868 -10.56049156 1.09605372 -0.94128019 -0.77266347 0.46306551
-17.94800377 -13.19950867 2.36695170 -0.94798785 -0.96574843 1.00000000
-17.84884834 -12.12252426 2.14017868 -0.94275063 -0.88695031 0.90419197
-17.75671959 -11.14169312 1.97197247 -0.93788451 -0.81518734 0.83312744
-17.63813400 -10.16704655 1.75436819 -0.93162102 -0.74387687 0.74119306
-17.85101700 -12.28849125 2.15026188 -0.94286519 -0.89909339 0.90845197
-17.76522446 -11.30332375 1.98138869 -0.93833375 -0.82701313 0.83710569
-17.65818596 -10.32684612 1.76344049 -0.93268013 -0.75556868 0.74502599
-17.87628365 -12.47201061 2.16349578 -0.94419974 -0.91252065 0.91404307
-17.77907944 -11.46982098 1.99160635 -0.93906552 -0.83919495 0.84142250
-17.79859543 -10.55931854 1.78565824 -0.94009632 -0.77257764 0.75441265
-17.87719536 -12.64027500 2.17378879 -0.94424790 -0.92483181 0.91839170
-17.78155708 -11.63039112 2.00062180 -0.93919641 -0.85094315 0.84523135
-17.67555809 -10.63711166 1.77954841 -0.93359768 -0.77826941 0.75183129
-17.91063118 -12.14020729 1.27441454 -0.94601393 -0.88824409 0.53842014
-18.10598946 -11.31332684 1.13387787 -0.95633245 -0.82774502 0.47904563
-17.79431534 -11.79915237 2.01103973 -0.93987030 -0.86329067 0.84963280
-17.63048363 -10.76142597 1.78195524 -0.93121690 -0.78736490 0.75284815
-17.84893036 -11.30950260 1.12079406 -0.94275498 -0.82746518 0.47351792
-17.90537834 -13.00047112 2.19836617 -0.94573647 -0.95118570 0.92877525
-17.81390572 -11.97408962 2.02245951 -0.94090503 -0.87609005 0.85445744
-17.66417694 -10.93477917 1.79306424 -0.93299657 -0.80004841 0.75754154
-17.95145035 -13.16340637 2.21244025 -0.94816995 -0.96310699 0.93472135
-17.83296013 -12.10939693 2.03167534 -0.94191146 -0.88598984 0.85835099
-17.69016075 -11.06640434 1.80158103 -0.93436897 -0.80967879 0.76113975
-17.84989738 -12.28560066 2.04309511 -0.94280607 -0.89888191 0.86317569
-17.69768143 -11.22632980 1.81009781 -0.93476623 -0.82137984 0.76473796
-17.92954445 -11.79922676 1.14065766 -0.94701290 -0.86329609 0.48190999
-17.86532021 -12.46249390 2.05451488 -0.94362068 -0.91182435 0.86800033
-17.70053673 -11.38463306 1.81824434 -0.93491703 -0.83296216 0.76817971
-17.96639824 -11.98577690 1.14862680 -0.94895947 -0.87694514 0.48527682
-17.86785507 -12.63201046 2.06453204 -0.94375455 -0.92422712 0.87223244
-17.71711922 -11.55318928 1.82805729 -0.93579286 -0.84529465 0.77232558
-17.72064400 -11.71472454 1.83657408 -0.93597907 -0.85711348 0.77592379
-17.94426727 -13.02761459 2.09398293 -0.94779050 -0.95317167 0.88467497
-17.73938942 -11.88782787 1.84694242 -0.93696916 -0.86977863 0.78030425
-17.93078804 -13.14737415 2.09999323 -0.94707859 -0.96193397 0.88721424
-17.76732826 -12.02814674 1.85638499 -0.93844485 -0.88004518 0.78429359
-17.79163170 -12.20817852 1.86767900 -0.93972856 -0.89321727 0.78906512
-17.95640373 -13.51663685 2.12423515 -0.94843155 -0.98895127 0.89745605
-17.78655624 -12.36968613 1.87582552 -0.93946046 -0.90503407 0.79250687
-17.79807091 -12.54421234 1.88600874 -0.94006866 -0.91780335 0.79680914
-17.81781769 -12.72630405 1.89730275 -0.94111162 -0.93112618 0.80158067
-17.94708443 -13.11862946 1.92840767 -0.94793934 -0.95983082 0.81472200
-17.88352203 -13.24533939 1.93062949 -0.94458205 -0.96910161 0.81566072
-17.94339752 -13.46488667 1.94729280 -0.94774461 -0.98516494 0.82270068
-17.97741890 -13.66764736 1.96117890 -0.94954157 -1.00000000 0.82856733
