6.10961771 1.63705671 2.42990446 0.67572159 0.47098005 0.85093117
8.47350979 0.87087053 1.62950027 0.93716717 0.25054884 0.57063663
6.22719717 1.67369974 1.74558890 0.68872583 0.48152220 0.61128986
5.99526978 1.76215851 2.03813386 0.66307473 0.50697172 0.71373653
7.50741816 1.09802794 1.92824233 0.83031780 0.31590185 0.67525345
6.50677633 1.46112335 2.12494230 0.71964717 0.42036414 0.74413610
7.10400248 1.21139884 2.22912264 0.78570014 0.34851858 0.78061914
8.25954628 0.70785302 2.02847767 0.91350287 0.20364881 0.71035504
7.82794333 0.83246320 2.35519505 0.86576778 0.23949906 0.82476854
8.82663727 0.45933425 2.55533028 0.97622293 0.13215014 0.89485413
6.97294950 1.57731450 1.49475145 0.77120572 0.45379224 0.52344877
6.06585169 1.65612984 2.41537523 0.67088103 0.47646737 0.84584314
8.36590099 0.89942050 1.60918152 0.92526567 0.25876263 0.56352121
6.70937872 1.37002385 2.56993794 0.74205494 0.39415488 0.89996964
6.32159615 1.73070753 1.77486491 0.69916630 0.49792331 0.62154204
5.94685030 1.77855599 2.02427697 0.65771955 0.51168931 0.70888394
7.42937946 1.12259746 1.90920734 0.82168674 0.32297048 0.66858763
6.43495846 1.47667515 2.10337090 0.71170413 0.42483839 0.73658198
7.02300358 1.23189056 2.20514274 0.77674168 0.35441405 0.77222157
8.14596748 0.73653150 2.00094700 0.90094113 0.21189958 0.70071399
7.73456430 0.85917825 2.32788444 0.85544008 0.24718496 0.81520462
8.61739922 0.48965216 2.49458337 0.95308131 0.14087257 0.87358111
6.92544937 1.60079205 1.48596728 0.76595223 0.46054673 0.52037263
6.04454947 1.69123220 2.41101646 0.66852504 0.48656631 0.84431672
6.64762878 1.40081668 2.54931021 0.73522538 0.40301394 0.89274597
6.29387712 1.76575792 1.77007437 0.69610059 0.50800729 0.61986446
5.89195013 1.80270088 2.00916028 0.65164763 0.51863575 0.70359021
6.43956232 1.36724007 1.72938085 0.71221334 0.39335400 0.60561395
7.38199615 1.16303635 1.89868796 0.81644619 0.33460471 0.66490382
6.42185259 1.51619196 2.10213828 0.71025461 0.43620735 0.73615032
6.99446487 1.27229571 2.19854832 0.77358532 0.36603856 0.76991224
8.12959099 0.78654897 1.99804902 0.89912987 0.22628957 0.69969916
7.66251087 0.89977181 2.30754685 0.84747100 0.25886372 0.80808258
8.54518604 0.53959632 2.47433424 0.94509453 0.15524147 0.86649007
6.95328331 1.65343130 1.49433315 0.76903069 0.47569099 0.52330232
5.97284412 1.71192110 2.38631701 0.66059446 0.49251848 0.83566719
6.58210850 1.43008327 2.52725959 0.72797889 0.41143394 0.88502407
6.43084478 1.40767384 1.72938085 0.71124917 0.40498677 0.60561395
7.31337261 1.19953465 1.88265848 0.80885643 0.34510526 0.65929043
6.35122919 1.54151225 2.08179975 0.70244372 0.44349197 0.72902793
6.88877821 1.29812741 2.16737437 0.76189643 0.37347034 0.75899541
8.00675488 0.82517838 1.96858633 0.88554424 0.23740323 0.68938160
7.57696486 0.93781328 2.28314185 0.83800966 0.26980820 0.79953617
8.46885777 0.58839566 2.45296025 0.93665266 0.16928101 0.85900509
6.16599798 1.80855870 2.46913338 0.68195719 0.52032107 0.86466879
6.52013016 1.45940995 2.50663185 0.72112411 0.41987121 0.87780041
6.46142054 1.45709789 1.74025214 0.71463084 0.41920602 0.60942096
6.32112646 1.57626021 2.07502007 0.69911432 0.45348895 0.72665375
6.85612583 1.33670926 2.15958071 0.75828511 0.38457030 0.75626612
7.94740677 0.86942267 1.95506251 0.87898040 0.25013229 0.68464565
8.83873081 0.49130031 2.07221580 0.97756052 0.14134675 0.72567171
7.51401138 0.97784024 2.26570964 0.83104700 0.28132394 0.79343158
8.23146915 0.62445796 2.38433886 0.91039759 0.17965610 0.83497447
6.98124027 1.75320065 1.50520885 0.77212268 0.50439459 0.52711087
5.87404394 1.76404941 2.35507917 0.64966720 0.50751573 0.82472801
6.44712448 1.48546302 2.48173618 0.71304971 0.42736664 0.86908215
6.43333340 1.49324131 1.73507535 0.71152437 0.42960447 0.60760808
6.23927069 1.59731519 2.05098367 0.69006115 0.45954645 0.71823645
6.76524448 1.36341763 2.13320279 0.74823362 0.39225426 0.74702883
7.86662006 0.91044503 1.93622565 0.87004542 0.26193440 0.67804915
8.72282124 0.54011357 2.04536009 0.96474093 0.15539029 0.71626711
7.42811060 1.01394594 2.24130440 0.82154638 0.29171151 0.78488505
7.21438932 1.47267318 1.47421813 0.79790890 0.42368701 0.51625818
5.44419622 1.98942244 2.26584744 0.60212618 0.57235539 0.79347980
5.82183361 1.78847337 2.33837056 0.64389277 0.51454252 0.81887680
6.38677359 1.51371384 2.46181965 0.70637488 0.43549439 0.86210757
7.00991249 1.26744342 2.60962534 0.77529383 0.36464256 0.91386783
6.47639799 1.54635632 1.74957049 0.71628731 0.44488561 0.61268419
7.46285820 1.36848271 1.92824233 0.82538950 0.39371151 0.67525345
6.19417620 1.62718987 2.03927350 0.68507367 0.46814138 0.71413565
6.73411417 1.40129936 2.12600899 0.74479067 0.40315282 0.74450964
7.79333878 0.95144767 1.91932082 0.86194050 0.27373081 0.67212927
8.62606525 0.58876926 2.02313471 0.95403975 0.16938849 0.70848393
7.34584379 1.04956281 2.21806145 0.81244773 0.30195847 0.77674556
8.07573223 0.71517837 2.34102845 0.89317310 0.20575631 0.81980753
7.17813730 1.51239228 1.46859872 0.79389942 0.43511418 0.51429033
5.75992632 1.79939878 2.31657672 0.63704580 0.51768577 0.81124479
6.31421423 1.52776396 2.43621254 0.69834983 0.43953660 0.85314018
6.90057802 1.28158998 2.57063484 0.76320148 0.36871251 0.90021366
5.59555864 2.22687173 2.00470233 0.61886680 0.64066941 0.70202911
7.45442247 1.40328228 1.92774141 0.82445651 0.40372330 0.67507803
6.17542171 1.65337360 2.03557563 0.68299943 0.47567439 0.71284068
6.64153862 1.41498578 2.09843183 0.73455185 0.40709040 0.73485237
7.72525215 0.97993666 1.90338206 0.85441017 0.28192708 0.66654766
8.53197670 0.62296951 2.00137234 0.94363362 0.17922789 0.70086294
7.28025913 1.07505417 2.19946694 0.80519408 0.30929232 0.77023393
8.01301861 0.74784714 2.32359171 0.88623703 0.21515508 0.81370133
7.12302017 1.53600991 1.45856392 0.78780353 0.44190896 0.51077622
5.43067503 2.05247927 2.26953840 0.60063076 0.59049684 0.79477239
6.26461315 1.55736017 2.42056394 0.69286400 0.44805139 0.84766018
6.85186100 1.31725299 2.55531716 0.75781339 0.37897274 0.89484954
5.98588085 1.63260293 2.69308519 0.66203630 0.46969870 0.94309473
5.54814672 2.24835491 1.99251032 0.61362308 0.64685011 0.69775957
7.50250435 1.46104348 1.94276905 0.82977432 0.42034116 0.68034059
6.10624886 1.67583954 2.01585317 0.67534894 0.48213783 0.70593405
6.60267973 1.45022798 2.08884001 0.73025405 0.41722956 0.73149335
7.64971018 1.01904774 1.88599420 0.84605521 0.29317930 0.66045856
8.40567780 0.66716111 1.97220170 0.92966497 0.19194177 0.69064766
7.20151806 1.10950208 2.17738605 0.79648536 0.31920296 0.76250142
7.90691614 0.78834647 2.29378080 0.87450212 0.22680672 0.80326182
7.09983158 1.57779670 1.45575416 0.78523886 0.45393097 0.50979227
6.75881052 1.34371078 2.52328944 0.74752206 0.38658464 0.88363373
5.93675280 1.65921235 2.67536616 0.65660274 0.47735420 0.93688965
7.52166414 1.51380885 1.95028281 0.83189338 0.43552172 0.68297184
6.09742880 1.71469390 2.01646948 0.67437345 0.49331620 0.70614988
6.53756952 1.47922218 2.07085490 0.72305286 0.42557117 0.72519517
7.59704161 1.06052959 1.87440240 0.84023011 0.30511361 0.65639919
8.35478592 0.71608722 1.96108902 0.92403638 0.20601778 0.68675607
7.13963270 1.14578032 2.16053510 0.78964084 0.32964018 0.75660038
7.85407972 0.83307314 2.27971911 0.86865842 0.23967455 0.79833758
7.11462307 1.62798715 1.46097231 0.78687477 0.46837074 0.51161963
6.69326639 1.37462771 2.50170541 0.74027288 0.39547941 0.87607521
5.92269373 1.69546187 2.67375541 0.65504783 0.48778316 0.93632561
6.36537838 1.67906797 1.72938085 0.70400858 0.48306665 0.60561395
7.54994011 1.56881714 1.96030128 0.83502072 0.45134756 0.68648022
6.05000210 1.74232209 2.00414324 0.66912812 0.50126481 0.70183331
6.50769043 1.51557112 2.06426048 0.71974826 0.43602872 0.72288585
7.56527233 1.10453057 1.86812341 0.83671641 0.31777266 0.65420038
8.28229523 0.76249033 1.94488299 0.91601890 0.21936792 0.68108088
7.07946491 1.18164551 2.14426494 0.78298634 0.33995858 0.75090271
7.78191710 0.87507194 2.26003242 0.86067730 0.25175756 0.79144347
7.09280348 1.66999495 1.45856392 0.78446156 0.48045635 0.51077622
6.09165716 1.63639200 2.36437082 0.67373514 0.47078881 0.82798183
6.61842632 1.40285814 2.47664022 0.73199558 0.40360129 0.86729759
5.93473959 1.73941004 2.68422580 0.65638012 0.50042701 0.93999225
6.33979702 1.71494770 1.72523940 0.70117933 0.49338922 0.60416365
7.57213736 1.62303770 1.96881688 0.83747572 0.46694678 0.68946230
5.97512102 1.76126373 1.98257184 0.66084629 0.50671434 0.69427919
6.44790316 1.54458237 2.04807401 0.71313578 0.44437525 0.71721750
8.20180607 0.80726784 1.92682493 0.90711683 0.23225038 0.67475712
7.01159143 1.21547115 2.12567043 0.77547956 0.34969017 0.74439108
7.69428778 0.91442513 2.23584628 0.85098553 0.26307946 0.78297365
7.34453964 2.67851090 1.69568038 0.81230348 0.77060568 0.59381235
7.12790442 1.72546375 1.46819735 0.78834373 0.49641469 0.51414979
6.05604792 1.66760528 2.35441256 0.66979676 0.47976884 0.82449454
6.55816126 1.43336117 2.45714498 0.72533029 0.41237697 0.86047053
5.82559586 1.74689054 2.63912272 0.64430887 0.50257915 0.92419755
6.32331657 1.75318205 1.72368634 0.69935656 0.50438923 0.60361975
7.59016609 1.67677331 1.97633076 0.83946967 0.48240647 0.69209361
6.41211367 1.57875860 2.03968096 0.70917749 0.45420772 0.71427828
8.11721420 0.85066831 1.90784073 0.89776105 0.24473667 0.66810900
6.93792725 1.24745858 2.10533285 0.76733232 0.35889295 0.73726904
7.59885406 0.95177817 2.20940995 0.84043056 0.27382591 0.77371591
7.29641962 2.71311617 1.68833399 0.80698144 0.78056157 0.59123969
7.11692238 1.77021527 1.46819735 0.78712910 0.50928968 0.51414979
5.33097601 2.19861054 2.25403619 0.58960408 0.63253868 0.78934360
7.42968655 1.34490895 1.44049728 0.82172072 0.38692933 0.50444949
8.24431610 1.04922640 1.51258790 0.91181844 0.30186167 0.52969497
6.00136995 1.68285060 2.33591866 0.66374940 0.48415491 0.81801814
6.49091148 1.45093727 2.43416834 0.71789253 0.41743362 0.85242432
5.75957441 1.75650585 2.61254406 0.63700688 0.50534546 0.91488993
7.23152781 1.13768888 2.60121751 0.79980439 0.32731226 0.91092348
7.60863733 1.71842527 1.98334360 0.84151262 0.49438971 0.69454944
5.90269566 1.81050193 1.96469855 0.65283602 0.52088010 0.68802011
6.34163618 1.59334505 2.01929808 0.70138270 0.45840424 0.70714039
8.06668472 0.88394010 1.89672816 0.89217246 0.25430894 0.66421747
6.88494921 1.27131474 2.09080601 0.76147294 0.36575633 0.73218185
7.53526354 0.98006034 2.19197345 0.83339751 0.28196266 0.76760978
7.24697542 2.73378086 1.67969131 0.80151290 0.78650677 0.58821309
7.13130665 1.80945265 1.47301400 0.78872001 0.52057821 0.51583654
5.38893270 2.26253414 2.28504038 0.59601402 0.65092945 0.80020100
5.41862822 1.94954765 2.20906067 0.59929836 0.56088346 0.77359360
7.42687416 1.39266503 1.44164741 0.82140964 0.40066874 0.50485224
8.15178108 1.08975446 1.49648702 0.90158409 0.31352159 0.52405655
5.96734381 1.71374094 2.32667160 0.65998614 0.49304205 0.81477988
6.44144201 1.48256397 2.41885066 0.71242118 0.42653260 0.84706020
7.11844110 1.16547525 2.56258416 0.78729707 0.33530641 0.89739442
7.61089993 1.76923203 1.98685002 0.84176284 0.50900680 0.69577736
6.29451942 1.62374270 2.00730824 0.69617164 0.46714962 0.70294166
7.30574560 1.24245250 1.80968106 0.80801290 0.35745269 0.63373435
7.97204113 0.92452180 1.87542880 0.88170493 0.26598427 0.65675867
6.82422352 1.30433512 2.07453585 0.75475669 0.37525627 0.72648418
7.44144964 1.01568353 2.16609979 0.82302171 0.29221141 0.75854909
7.20228767 2.76882195 1.67320931 0.79657048 0.79658812 0.58594316
7.13497639 1.85813248 1.47622514 0.78912586 0.53458339 0.51696104
5.40533209 2.30960155 2.29832792 0.59782779 0.66447073 0.80485421
5.46232367 2.00389624 2.23230743 0.60413104 0.57651949 0.78173441
7.37368011 1.43058300 1.43282986 0.81552643 0.41157770 0.50176442
8.06685734 1.13023341 1.48184991 0.89219159 0.32516733 0.51893079
5.92779303 1.74267089 2.31529069 0.65561181 0.50136518 0.81079441
6.38635540 1.51234758 2.40144420 0.70632863 0.43510133 0.84096462
7.10726976 1.20953655 2.56122851 0.78606153 0.34798279 0.89691967
8.63036823 2.06062436 2.26085377 0.95451570 0.59284014 0.79173106
6.24727201 1.65361154 1.99531817 0.69094610 0.47574285 0.69874287
6.78211975 1.34040868 2.06407666 0.75010002 0.38563463 0.72282147
7.39500618 1.05682576 2.15428782 0.81788504 0.30404800 0.75441259
7.19020891 2.81614232 1.67450571 0.79523456 0.81020212 0.58639717
7.14210367 1.90793049 1.48023903 0.78991413 0.54891026 0.51836669
5.37539530 2.33679581 2.29168415 0.59451681 0.67229450 0.80252761
5.45661545 2.04076385 2.23521328 0.60349971 0.58712631 0.78275198
7.32992220 1.46984363 1.42592907 0.81068683 0.42287296 0.49934781
7.95450306 1.16576600 1.46208966 0.87976521 0.33539003 0.51201093
5.86486816 1.76409531 2.29466295 0.64865232 0.50752896 0.80357075
6.32385874 1.53974640 2.38125277 0.69941652 0.44298393 0.83389372
6.04533720 1.61602187 2.65988159 0.66861218 0.46492833 0.93146712
7.01248407 1.23853827 2.52937293 0.77557826 0.35632658 0.88576412
6.19437027 1.68146908 1.98152971 0.68509513 0.48375747 0.69391423
6.71922064 1.37173307 2.04722548 0.74314344 0.39464661 0.71692032
7.31795692 1.09297204 2.13347626 0.80936342 0.31444728 0.74712461
7.09066820 2.82891893 1.65505958 0.78422540 0.81387794 0.57958728
7.15266848 1.95891595 1.48505580 0.79108262 0.56357872 0.52005345
5.32496214 2.35461354 2.27618194 0.58893895 0.67742062 0.79709888
5.42102003 2.06645942 2.22576928 0.59956288 0.59451890 0.77944481
7.28980589 1.50941765 1.41979516 0.80624998 0.43425837 0.49719977
7.89841223 1.20841181 1.45294142 0.87356162 0.34765920 0.50880730
6.27583408 1.57001448 2.36663151 0.69410503 0.45169204 0.82877350
6.00492334 1.64581847 2.64642692 0.66414237 0.47350079 0.92675537
6.93241739 1.26915085 2.50293970 0.76672292 0.36513379 0.87650746
6.40583515 1.62018812 1.67477643 0.70848310 0.46612695 0.58649194
6.14688635 1.71024442 1.96953976 0.67984343 0.49203610 0.68971550
8.32159901 1.12344515 1.96386719 0.92036593 0.32321435 0.68772900
6.67116928 1.40552127 2.03502274 0.73782897 0.40436748 0.71264702
7.23316002 1.12703145 2.11041498 0.79998493 0.32424614 0.73904872
7.18741608 2.01692438 1.49509048 0.79492569 0.58026773 0.52356750
5.37945795 2.41952467 2.30644798 0.59496617 0.69609553 0.80769777
5.40097189 2.09780526 2.22286344 0.59734559 0.60353708 0.77842718
7.28209639 1.55560601 1.42017853 0.80539727 0.44754672 0.49733400
7.83627367 1.24948537 1.44269538 0.86668909 0.35947606 0.50521922
5.95552492 1.67271721 2.62901497 0.65867895 0.48123956 0.92065787
6.87811375 1.30378795 2.48599529 0.76071697 0.37509885 0.87057364
7.73915291 1.04324114 2.69342995 0.85594755 0.30013973 0.94321543
6.33550930 1.64501965 1.65874696 0.70070511 0.47327098 0.58087856
6.10296011 1.73952401 1.95874870 0.67498523 0.50045979 0.68593657
8.35677338 1.18159938 1.97405374 0.92425621 0.33994529 0.69129622
6.61735344 1.43752468 2.02107716 0.73187697 0.41357481 0.70776343
7.17286587 1.16399646 2.09466577 0.79331642 0.33488095 0.73353350
7.18213987 2.06418824 1.49669611 0.79434210 0.59386545 0.52412981
5.33421755 2.42932248 2.29168415 0.58996260 0.69891435 0.80252761
5.39449835 2.12458682 2.22431636 0.59662962 0.61124212 0.77893597
7.26893568 1.58863163 1.41902840 0.80394173 0.45704818 0.49693125
7.77206755 1.27698565 1.43171751 0.85958791 0.36738786 0.50137484
6.27634382 1.64361751 2.37359405 0.69416142 0.47286758 0.83121175
5.97762585 1.70924938 2.64246964 0.66112328 0.49174982 0.92536962
6.75559473 1.31322157 2.44329524 0.74716640 0.37781292 0.85562050
7.27772951 1.01719368 2.53244209 0.80491430 0.29264590 0.88683891
6.47005987 1.71206784 1.69681692 0.71558630 0.49256068 0.59421033
6.07085133 1.76142895 1.95095527 0.67143399 0.50676185 0.68320733
8.36844540 1.22345793 1.97822106 0.92554712 0.35198796 0.69275558
6.56756639 1.45901668 2.00771236 0.72637051 0.41975805 0.70308322
7.14268064 1.19374108 2.08735371 0.78997797 0.34343845 0.73097289
7.19679880 2.10509467 1.50191414 0.79596341 0.60563421 0.52595711
5.40473366 2.50292015 2.32933211 0.59776163 0.72008836 0.81571162
5.42087603 2.17425537 2.24102497 0.59954697 0.62553173 0.78478718
7.27220678 1.63732672 1.42171204 0.80430347 0.47105771 0.49787104
7.75613451 1.32448959 1.43025386 0.85782576 0.38105470 0.50086230
6.19159126 1.66331232 2.34504747 0.68478781 0.47853377 0.82121497
5.89795542 1.72687304 2.61160302 0.65231180 0.49682015 0.91456038
6.67899418 1.34172618 2.41821742 0.73869437 0.38601366 0.84683841
7.33660746 1.07227778 2.55553460 0.81142616 0.30849355 0.89492571
6.05050993 1.79685175 1.94795775 0.66918427 0.51695299 0.68215764
8.41061974 1.28352594 1.99025977 0.93021154 0.36926949 0.69697142
6.53030586 1.49376690 1.99899626 0.72224951 0.42975566 0.70003086
7.05368662 1.22470903 2.06316733 0.78013521 0.35234791 0.72250301
7.22851467 2.16363406 1.51154757 0.79947114 0.62247598 0.52933067
5.40569115 2.54480362 2.33671403 0.59786755 0.73213816 0.81829667
5.32073164 2.17334676 2.20470214 0.58847106 0.62527031 0.77206725
7.29044104 1.68971264 1.42746258 0.80632019 0.48612911 0.49988481
7.71279430 1.36710978 1.42366707 0.85303229 0.39331651 0.49855566
6.08513212 1.67610312 2.30814576 0.67301345 0.48221368 0.80829233
5.70030260 1.70863318 2.52770925 0.63045144 0.49157256 0.88518149
6.65201950 1.37978804 2.41143966 0.73571098 0.39696404 0.84446496
7.28491211 1.11164176 2.53969979 0.80570871 0.31981853 0.88938051
6.24278927 2.93469119 1.92472756 0.69045031 0.84430856 0.67402261
5.68184090 2.48007464 2.02175760 0.62840956 0.71351570 0.70800173
5.97879601 1.81672251 1.92817426 0.66125274 0.52266979 0.67522967
8.40431118 1.33664680 1.99072278 0.92951387 0.38455233 0.69713360
6.44260931 1.51611614 1.97459102 0.71255028 0.43618554 0.69148439
6.98159790 1.25761986 2.04404330 0.77216226 0.36181635 0.71580595
5.38122511 2.57467842 2.33302307 0.59516162 0.74073315 0.81700414
7.68857384 1.41274095 1.42073965 0.85035354 0.40644455 0.49753052
5.99320889 1.69165027 2.27681422 0.66284680 0.48668659 0.79732031
6.52737331 1.39640427 2.36873960 0.72192520 0.40174451 0.82951176
7.16399336 1.13961768 2.49945283 0.79233515 0.32786718 0.87528634
6.26583004 2.99388576 1.93784416 0.69299859 0.86133879 0.67861593
5.64008474 2.50425673 2.01230979 0.62379140 0.72047287 0.70469314
7.87919426 2.23994350 2.08452964 0.87143612 0.64443016 0.72998393
6.42923880 1.55565453 1.97342896 0.71107155 0.44756070 0.69107747
6.94524288 1.29626083 2.03560615 0.76814139 0.37293333 0.71285135
5.39498186 2.62317085 2.34631062 0.59668308 0.75468439 0.82165730
7.69307375 1.46355867 1.42330122 0.85085124 0.42106479 0.49842754
5.97885609 1.72824347 2.27542162 0.66125935 0.49721441 0.79683262
5.74154377 1.79969251 2.55620146 0.63501269 0.51777023 0.89515924
6.50194454 1.43369198 2.36263943 0.71911275 0.41247216 0.82737553
7.11942053 1.17854559 2.48625708 0.78740537 0.33906671 0.87066531
6.26590538 3.04249525 1.94385588 0.69300693 0.87532371 0.68072122
5.63463402 2.54429770 2.01608896 0.62318856 0.73199260 0.70601660
7.88729000 2.29584384 2.09054065 0.87233150 0.66051263 0.73208892
6.41377020 1.59461725 1.97168565 0.70936072 0.45877025 0.69046694
6.88793850 1.33055079 2.02098203 0.76180357 0.38279852 0.70773011
5.41499519 2.67525291 2.36255074 0.59889656 0.76966834 0.82734448
7.72812128 1.52048206 1.43171751 0.85472751 0.43744159 0.50137484
5.93188763 1.75525403 2.26149654 0.65606469 0.50498533 0.79195619
5.65657854 1.81244469 2.52296066 0.62561560 0.52143902 0.88351858
7.01879501 1.20751476 2.45326781 0.77627623 0.34740114 0.85911280
6.33108425 3.12375998 1.97063553 0.70021570 0.89870352 0.69009918
5.64445210 2.59144616 2.02553678 0.62427443 0.74555719 0.70932513
7.91542053 2.35796452 2.10206175 0.87544268 0.67838472 0.73612350
6.44623852 1.64590383 1.98505044 0.71295172 0.47352535 0.69514716
6.82671261 1.36343145 2.00523281 0.75503200 0.39225826 0.70221490
7.16626787 2.34279275 1.51034343 0.79258668 0.67401981 0.52890897
5.39900875 2.69906735 2.36107445 0.59712845 0.77651978 0.82682747
7.78258038 1.56916082 1.44342732 0.86075062 0.45144644 0.50547552
5.87682629 1.76928973 2.24339390 0.64997488 0.50902337 0.78561676
5.32606554 2.05404663 2.47481871 0.58906096 0.59094775 0.86665970
6.97396469 1.23378146 2.43941236 0.77131802 0.35495803 0.85426074
6.33348179 3.16220307 1.97610080 0.70048082 0.90976357 0.69201308
5.64424515 2.62357759 2.02994585 0.62425154 0.75480139 0.71086913
8.46430302 1.55124390 2.01341105 0.93614894 0.44629177 0.70507884
6.77317619 1.38610470 1.99117088 0.74911088 0.39878133 0.69729048
7.30589581 2.42615557 1.54285610 0.80802947 0.69800323 0.54029459
5.25785637 2.66939855 2.30570984 0.58151704 0.76798403 0.80743927
7.78604937 1.62079942 1.44598877 0.86113429 0.46630284 0.50637251
5.45650911 2.00225997 2.17587495 0.60348797 0.57604873 0.76197225
5.40323210 2.12327242 2.51750541 0.59759557 0.61086398 0.88160825
6.91033363 1.26751804 2.41961884 0.76428044 0.36466405 0.84732920
6.33062124 3.21068621 1.98156607 0.70016450 0.92371213 0.69392699
5.65687132 2.67267966 2.04065347 0.62564796 0.76892805 0.71461886
6.71172094 1.41768396 1.97542167 0.74231398 0.40786666 0.69177526
7.32950878 2.48512125 1.55128539 0.81064105 0.71496761 0.54324651
5.39764881 2.78384948 2.37583828 0.59697807 0.80091149 0.83199763
7.73916626 1.66193843 1.43903613 0.85594904 0.47813851 0.50393778
5.46829939 2.04575944 2.18583322 0.60479200 0.58856350 0.76545954
5.34396076 2.13865280 2.49575925 0.59104019 0.61528885 0.87399292
6.86511564 1.30397332 2.40642309 0.75927937 0.37515220 0.84270817
5.65881920 2.71714711 2.04758191 0.62586337 0.78172129 0.71704513
5.74395132 2.31051946 1.97024548 0.63527900 0.66473478 0.68996263
6.65576839 1.44975471 1.96135998 0.73612565 0.41709340 0.68685097
7.33784199 2.53939152 1.55650342 0.81156272 0.73058110 0.54507381
5.42114401 2.83940601 2.39429307 0.59957659 0.81689507 0.83846033
7.71704626 1.70801222 1.43684053 0.85350257 0.49139389 0.50316888
5.42917395 2.06999660 2.17516351 0.60046470 0.59553653 0.76172310
6.75854206 1.32807779 2.37145448 0.74749237 0.38208702 0.83046246
6.42788029 2.95079422 1.91805172 0.71092129 0.84894139 0.67168480
5.67410040 2.76835871 2.05954933 0.62755352 0.79645485 0.72123605
5.44622898 2.22953033 1.87101769 0.60235101 0.64143431 0.65521389
6.60717487 1.48283744 1.94954801 0.73075122 0.42661127 0.68271452
7.38461494 2.60746264 1.57015073 0.81673580 0.75016516 0.54985297
5.45889664 2.90327096 2.41939163 0.60375202 0.83526897 0.84724963
7.72918034 1.76165009 1.44123173 0.85484463 0.50682545 0.50470668
5.41780043 2.10475111 2.17587495 0.59920681 0.60553539 0.76197225
5.30822229 2.20209908 2.49173236 0.58708751 0.63354236 0.87258273
6.72414494 1.36533344 2.36221743 0.74368805 0.39280546 0.82722771
6.44070053 3.00570822 1.92763305 0.71233922 0.86474013 0.67504013
5.67022181 2.81065583 2.06458807 0.62712455 0.80862367 0.72300059
5.77233696 2.40686822 1.99058402 0.63841844 0.69245428 0.69708496
6.54907370 1.51323497 1.93492377 0.72432524 0.43535662 0.67759329
7.39576244 2.66369700 1.57617164 0.81796873 0.76634371 0.55196142
5.46803188 2.94136596 2.42972636 0.60476238 0.84622890 0.85086876
7.72845745 1.79981756 1.44269538 0.85476464 0.51780623 0.50521922
5.38177061 2.11989069 2.16520524 0.59522194 0.60989106 0.75823581
5.32811737 2.23996615 2.50622964 0.58928788 0.64443666 0.87765956
6.63070440 1.37919521 2.33120751 0.73335356 0.39679348 0.81636834
6.46661139 3.05485153 1.93987572 0.71520495 0.87887859 0.67932737
5.68580532 2.85171986 2.07529569 0.62884808 0.82043779 0.72675025
5.75217962 2.43031168 1.98750246 0.63618904 0.69919896 0.69600588
8.66168880 1.85554886 2.07360482 0.95797974 0.53384006 0.72615814
6.13594580 1.79381740 1.90602422 0.67863345 0.51607996 0.66747290
6.51756954 1.53842175 1.92761159 0.72084087 0.44260284 0.67503262
7.42917728 2.71521521 1.58620632 0.82166439 0.78116548 0.55547547
5.49178362 2.99896455 2.44891953 0.60738933 0.86279994 0.85759008
7.71317005 1.84743476 1.44196355 0.85307389 0.53150564 0.50496292
5.31810570 2.13330317 2.14457750 0.58818060 0.61374980 0.75101215
5.33242464 2.28138518 2.51508927 0.58976430 0.65635288 0.88076210
5.43797731 1.99122322 2.45885301 0.60143834 0.57287347 0.86106867
6.61636591 1.41965795 2.32922816 0.73176771 0.40843457 0.81567520
6.50123882 3.12113500 1.95637679 0.71903473 0.89794832 0.68510592
5.69149351 2.89937568 2.08411384 0.62947714 0.83414829 0.72983831
5.72457743 2.46110535 1.98318815 0.63313621 0.70805824 0.69449502
8.66696739 1.91367114 2.07777214 0.95856351 0.55056185 0.72761750
6.45924568 1.56772077 1.91298735 0.71439028 0.45103213 0.66991132
7.72433519 1.90144253 1.44635475 0.85430872 0.54704368 0.50650072
5.38408184 2.19947100 2.17729735 0.59547752 0.63278621 0.76247036
5.29452133 2.30453324 2.50381351 0.58557218 0.66301256 0.87681341
5.42018986 2.02344251 2.45647883 0.59947109 0.58214295 0.86023724
6.51507998 1.44109428 2.29623890 0.72056556 0.41460180 0.80412263
6.52487659 3.18293118 1.96968412 0.72164905 0.91572702 0.68976605
5.72213697 2.96021843 2.10237980 0.63286632 0.85165274 0.73623490
5.73859310 2.51008344 1.99366570 0.63468635 0.72214919 0.69816417
8.69463444 1.97705793 2.08749557 0.96162349 0.56879812 0.73102254
6.10377932 1.86795104 1.90311885 0.67507583 0.53740817 0.66645545
6.44740391 1.60781550 1.91242492 0.71308059 0.46256736 0.66971439
7.71795797 1.95136940 1.44745255 0.85360342 0.56140757 0.50688511
5.38566685 2.23977065 2.18369913 0.59565282 0.64438039 0.76471221
5.30834913 2.35045362 2.51750541 0.58710152 0.67622381 0.88160825
5.38846111 2.05033994 2.44777274 0.59596187 0.58988136 0.85718846
6.47642231 1.47538137 2.28568244 0.71629000 0.42446616 0.80042589
5.73203945 3.01103020 2.11308742 0.63396156 0.86627126 0.73998463
5.72618055 2.54764843 1.99489832 0.63331354 0.73295665 0.69859582
6.74484921 1.58299243 1.61428106 0.74597794 0.45542580 0.56530702
7.50003242 2.37291002 1.50222039 0.82950091 0.68268454 0.52606434
7.78172255 2.01938677 1.46208966 0.86065578 0.58097613 0.51201093
5.40586472 2.28825736 2.19792533 0.59788674 0.65833002 0.76969409
5.29847622 2.38603282 2.51992178 0.58600962 0.68645996 0.88245440
5.36689758 2.08086634 2.44381547 0.59357697 0.59866375 0.85580266
6.40632057 1.50200987 2.26390958 0.70853680 0.43212718 0.79280120
5.77608109 1.79817033 2.49308133 0.63883251 0.51733232 0.87305510
6.31500435 1.60649407 2.62122965 0.69843727 0.46218720 0.91793156
5.76333857 3.07362676 2.13198328 0.63742322 0.88428020 0.74660176
5.72910070 2.59226608 2.00167775 0.63363653 0.74579310 0.70096993
6.56064224 1.58385730 1.57168245 0.72560471 0.45567462 0.55038935
7.56708574 2.44676900 1.51908875 0.83691698 0.70393372 0.53197151
7.79359818 2.07475400 1.46684670 0.86196917 0.59690523 0.51367682
5.39138031 2.32217813 2.19792533 0.59628475 0.66808897 0.76969409
5.45283175 2.01442981 2.12294126 0.60308129 0.57955003 0.74343532
5.31162977 2.43233252 2.53361368 0.58746439 0.69978034 0.88724917
5.34003162 2.10919666 2.43748403 0.59060562 0.60681438 0.85358542
6.36736774 1.53524256 2.25335288 0.70422864 0.44168818 0.78910434
5.74007893 1.82651067 2.48228002 0.63485068 0.52548581 0.86927259
6.12186956 1.59899139 2.54419327 0.67707658 0.46002868 0.89095408
5.78738737 3.13314033 2.14835954 0.64008301 0.90140224 0.75233656
5.73513699 2.63862228 2.00969005 0.63430411 0.75912976 0.70377576
6.68284893 1.65744233 1.60409451 0.73912072 0.47684497 0.56173974
6.20822954 1.67375457 1.84942806 0.68662798 0.48153800 0.64765340
7.54783821 2.49302506 1.51832211 0.83478826 0.71724153 0.53170305
7.82786226 2.13650537 1.47599494 0.86575878 0.61467105 0.51688045
5.39548731 2.36432457 2.20574975 0.59673899 0.68021446 0.77243412
5.45412254 2.05388784 2.12851119 0.60322404 0.59090209 0.74538589
5.31281185 2.47344232 2.54166794 0.58759511 0.71160758 0.89006972
5.33520651 2.14610434 2.44144130 0.59007198 0.61743265 0.85497123
6.29157114 1.55907786 2.22960067 0.69584554 0.44854558 0.78078651
5.66538715 1.84178758 2.45450544 0.62658983 0.52988094 0.85954618
6.08305645 1.62984836 2.53210902 0.67278391 0.46890619 0.88672227
5.82924414 3.20307612 2.17166448 0.64471233 0.92152274 0.76049775
5.73565340 2.68272114 2.01585317 0.63436121 0.77181697 0.70593405
5.68428993 2.31108665 1.89280391 0.62868047 0.66489798 0.66284329
6.03465462 1.66825509 1.79993045 0.66743064 0.47995579 0.63031977
7.59922409 2.54995728 1.53135669 0.84047151 0.73362088 0.53626764
7.82718563 2.17597890 1.47782469 0.86568397 0.62602758 0.51752120
5.38599205 2.39048815 2.20646095 0.59568882 0.68774176 0.77268320
5.33581495 2.51496124 2.55858135 0.59013927 0.72355253 0.89599264
5.30459499 2.16297245 2.43194389 0.58668631 0.62228560 0.85164535
6.25484419 1.58139658 2.21904397 0.69178355 0.45496666 0.77708966
6.02881765 1.64596558 2.51247239 0.66678512 0.47354311 0.87984568
5.81242323 3.22959328 2.17103457 0.64285195 0.92915165 0.76027721
5.73325014 2.71463847 2.01955128 0.63409543 0.78099954 0.70722908
5.81819153 2.39697790 1.94196284 0.64348990 0.68960881 0.68005830
6.20054531 1.74499977 1.85280287 0.68577814 0.50203520 0.64883524
7.54408979 2.58419633 1.52330589 0.83437365 0.74347144 0.53344828
7.83228350 2.23045349 1.48148394 0.86624777 0.64169985 0.51880264
5.40318584 2.43900490 2.21997571 0.59759045 0.70169997 0.77741593
5.37100363 2.57313132 2.58354926 0.59403110 0.74028802 0.90473622
5.29429770 2.19765568 2.43352675 0.58554745 0.63226396 0.85219961
6.18259907 1.60473597 2.19661140 0.68379325 0.46168140 0.76923394
6.00407648 1.67986774 2.50643039 0.66404873 0.48329675 0.87772983
5.70067406 2.74313307 2.01400423 0.63049251 0.78919744 0.70528656
5.85235071 2.45398831 1.95874870 0.64726794 0.70601070 0.68593657
7.89691639 2.10009694 1.91015589 0.87339616 0.60419637 0.66891974
6.13777447 1.76920426 1.83705366 0.67883569 0.50899881 0.64332002
7.83889341 2.28562331 1.48550916 0.86697882 0.65757221 0.52021223
5.38775444 2.47290564 2.21997571 0.59588373 0.71145320 0.77741593
5.31935787 2.24717951 2.45173001 0.58831912 0.64651191 0.85857427
6.15778637 1.63971043 2.19133306 0.68104899 0.47174352 0.76738554
5.94885540 1.70494998 2.48754883 0.65794128 0.49051288 0.87111771
6.07671499 3.47585154 2.28755879 0.67208254 1.00000000 0.80108297
6.68349886 3.08618379 1.93800664 0.73919261 0.88789284 0.67867285
5.81924343 2.48327875 1.95275378 0.64360625 0.71443754 0.68383718
7.93428183 2.16336679 1.92265773 0.87752879 0.62239909 0.67329782
6.12653732 1.80773389 1.83705366 0.67759287 0.52008373 0.64332002
7.92053986 2.36326575 1.50417161 0.87600893 0.67990988 0.52674764
5.39240503 2.51626348 2.22851133 0.59639812 0.72392720 0.78040504
5.49222946 2.71723986 2.65925789 0.60743862 0.78174794 0.93124866
6.07809019 1.65969288 2.16626120 0.67223459 0.47749245 0.75860560
5.89889383 1.73095167 2.47093320 0.65241557 0.49799356 0.86529905
5.82105160 2.52733541 1.95874870 0.64380622 0.72711259 0.68593657
7.94303465 2.21940398 1.92821395 0.87849683 0.63852096 0.67524356
6.08563185 1.83741033 1.82805407 0.67306870 0.52862161 0.64016843
7.78696918 2.37711406 1.48111796 0.86123604 0.68389404 0.51867449
5.38491917 2.55412912 2.23206806 0.59557015 0.73482114 0.78165060
5.65957212 2.84520268 2.75026941 0.62594670 0.81856281 0.96312010
6.05844259 1.69533515 2.16296220 0.67006159 0.48774672 0.75745028
5.85949469 1.75955367 2.45884895 0.64805806 0.50622231 0.86106724
6.62851858 3.16239524 1.93334746 0.73311180 0.90981883 0.67704123
5.81903982 2.56998229 1.96354473 0.64358371 0.73938209 0.68761605
7.97572994 2.28253603 1.93978965 0.88211292 0.65668398 0.67929727
7.86400747 2.44096017 1.49831665 0.86975646 0.70226252 0.52469730
5.39301109 2.58925343 2.24060369 0.59646511 0.74492633 0.78463966
5.96678448 1.70033813 2.13261223 0.65992427 0.48918605 0.74682200
5.42518187 1.97276270 2.37735343 0.60002321 0.56756240 0.83252823
5.85291100 1.78768122 2.45960426 0.64732987 0.51431459 0.86133176
7.05391836 2.95358586 1.94377089 0.78016090 0.84974456 0.68069142
5.83302784 2.60897756 1.97253716 0.64513081 0.75060099 0.69076514
5.40179348 2.63546705 2.25127316 0.59743643 0.75822198 0.78837603
5.97049665 1.74197769 2.13789034 0.66033483 0.50116575 0.74867034
5.41786337 2.00875354 2.37966800 0.59921378 0.57791698 0.83333880
5.76193428 1.79984128 2.42561769 0.63726789 0.51781303 0.84942997
7.02273798 2.99256825 1.94026446 0.77671236 0.86095977 0.67946351
5.84608889 2.65891147 1.98272872 0.64657539 0.76496691 0.69433415
5.41187906 2.68272877 2.26265407 0.59855193 0.77181917 0.79236150
5.89605331 1.76075733 2.11479783 0.65210140 0.50656861 0.74058360
5.40513515 2.04275513 2.37966800 0.59780604 0.58769917 0.83333880
6.87574387 2.98151898 1.90419817 0.76045483 0.85778087 0.66683340
5.81886101 2.69081855 1.97913170 0.64356399 0.77414656 0.69307446
5.44658327 2.74291515 2.28470469 0.60239017 0.78913474 0.80008346
5.37671709 2.07065320 2.37272429 0.59466302 0.59572542 0.83090717
6.84445906 3.01922488 1.90069163 0.75699472 0.86862886 0.66560549
5.86236572 2.75554442 2.00011420 0.64837557 0.79276818 0.70042241
5.43588686 2.78050995 2.28754973 0.60120714 0.79995072 0.80107975
5.35673952 2.10167503 2.36963820 0.59245348 0.60465038 0.82982641
6.78997898 3.04641438 1.89067328 0.75096929 0.87645125 0.66209716
5.81217623 2.77679944 1.98872364 0.64282465 0.79888320 0.69643348
5.34000683 2.13390923 2.36809516 0.59060287 0.61392415 0.82928604
6.66487741 3.04108429 1.86061800 0.73713309 0.87491775 0.65157205
5.86165810 2.84555173 2.01210403 0.64829731 0.81866318 0.70462114
5.44628048 2.86198592 2.30533242 0.60235667 0.82339132 0.80730712
5.64973879 2.16502953 2.14371705 0.62485909 0.62287742 0.75071084
5.31452179 2.15276003 2.36115146 0.58778423 0.61934751 0.82685447
5.85675955 2.87732244 2.01510167 0.64775550 0.82780361 0.70567083
5.87941360 2.43596196 1.89730811 0.65026104 0.70082450 0.66442060
5.43312979 2.89880538 2.30746627 0.60090226 0.83398426 0.80805439
5.60626602 2.18875098 2.13219476 0.62005103 0.62970209 0.74667585
5.31111097 2.19036674 2.36578059 0.58740699 0.63016695 0.82847553
5.90353966 2.94624114 2.03788257 0.65292943 0.84763145 0.71364850
5.88336277 2.48109674 1.90369999 0.65069783 0.71380973 0.66665900
5.47879505 2.96781659 2.33520722 0.60595280 0.85383868 0.81776899
5.29894257 2.22441411 2.36655211 0.58606118 0.63996238 0.82874572
5.43791723 1.95623875 2.32063675 0.60143173 0.56280851 0.81266654
5.88661575 2.98413324 2.03848195 0.65105760 0.85853302 0.71385843
5.87643862 2.52181506 1.90660536 0.64993203 0.72552437 0.66767639
5.52870989 3.04023290 2.36508203 0.61147338 0.87467283 0.82823092
5.97019529 2.41926646 2.28469491 0.66030151 0.69602126 0.80008006
5.30180454 2.26497316 2.37426734 0.58637768 0.65163118 0.83144748
5.45337200 2.00047445 2.33272099 0.60314101 0.57553506 0.81689835
5.93061590 3.05318308 2.06066346 0.65592402 0.87839860 0.72162622
7.04165220 2.90753078 1.86136150 0.77880424 0.83649451 0.65183240
5.87799168 2.56640100 1.91241610 0.65010381 0.73835176 0.66971129
5.94445419 2.45239186 2.28062844 0.65745455 0.70555139 0.79865599
5.29253769 2.30046511 2.37658191 0.58535278 0.66184217 0.83225805
5.96042967 3.11587191 2.07804894 0.65922141 0.89643413 0.72771442
6.96069288 2.92523122 1.84445667 0.76985019 0.84158695 0.64591247
5.88620186 2.61423469 1.92055106 0.65101182 0.75211346 0.67256010
5.30662298 2.34645939 2.38969779 0.58691061 0.67507470 0.83685112
5.43473434 2.07145786 2.33574200 0.60107970 0.59595692 0.81795627
5.96267891 3.16482353 2.08584237 0.65947020 0.91051745 0.73044366
6.90830994 2.95431757 1.83527982 0.76405662 0.84995502 0.64269882
5.89752531 2.66385913 1.92984831 0.65226424 0.76639038 0.67581588
5.67288780 3.24926162 2.45186138 0.62741941 0.93481022 0.85862029
5.54787636 2.79548144 2.27124405 0.61359316 0.80425799 0.79536968
5.49868584 2.33800125 2.11660600 0.60815269 0.67264128 0.74121678
5.40761614 2.09042859 2.32818937 0.59808046 0.60141480 0.81531143
5.97127247 3.20545030 2.09423542 0.66042060 0.92220575 0.73338282
6.89431143 2.98683929 1.83527982 0.76250839 0.85931152 0.64269882
5.90576077 2.70123816 1.93682122 0.65317506 0.77714431 0.67825776
5.54190493 2.83622527 2.27611780 0.61293274 0.81597996 0.79707640
5.46319437 2.36346817 2.10847259 0.60422736 0.67996812 0.73836851
5.50684118 2.50869679 2.49385285 0.60905468 0.72175026 0.87332529
5.96779585 3.25198507 2.10023046 0.66003609 0.93559378 0.73548222
6.87363482 3.02931070 1.83479679 0.76022160 0.87153053 0.64252967
5.90426683 2.74560285 1.94205093 0.65300983 0.78990799 0.68008912
5.55730391 2.88817382 2.29004312 0.61463583 0.83092552 0.80195296
5.43275976 2.39087296 2.10237265 0.60086131 0.68785244 0.73623240
5.36057663 2.48232031 2.43367434 0.59287786 0.71416175 0.85225129
5.91108561 2.79417109 1.95018589 0.65376395 0.80388105 0.68293792
6.08819628 2.49499345 1.89330077 0.67335236 0.71780783 0.66301727
5.55565739 2.93173075 2.29700565 0.61445373 0.84345686 0.80439115
5.48450804 2.45517087 2.12880588 0.60658467 0.70635092 0.74548906
5.47321510 2.57690620 2.49308133 0.60533565 0.74137408 0.87305510
5.91924906 2.84376717 1.95890200 0.65466684 0.81814981 0.68599021
6.06530523 2.53026342 1.89105093 0.67082059 0.72795498 0.66222936
5.52884960 2.96217942 2.29352427 0.61148882 0.85221690 0.80317199
5.48949242 2.49900699 2.13693929 0.60713589 0.71896255 0.74833733
5.52006292 2.64172268 2.52239895 0.61051702 0.76002175 0.88332188
5.93904114 2.89948988 1.97168565 0.65685582 0.83418119 0.69046694
6.08466673 2.58321428 1.90230036 0.67296201 0.74318892 0.66616881
5.48561716 2.53902173 2.14168382 0.60670733 0.73047471 0.74999881
5.39235735 2.62191725 2.47070718 0.59639281 0.75432372 0.86521989
7.06162357 2.88074088 1.78050804 0.78101307 0.82878709 0.62351823
5.94467115 2.94872737 1.97982073 0.65747851 0.84834677 0.69331580
6.06655169 2.62063837 1.90173793 0.67095846 0.75395578 0.66597188
5.57658625 3.06680489 2.32764101 0.61676848 0.88231754 0.81511939
5.49910879 2.57690573 2.15185046 0.60819948 0.74137396 0.75355905
5.40969324 2.66206408 2.48459458 0.59831017 0.76587391 0.87008315
7.04617023 2.91324711 1.78004503 0.77930391 0.83813912 0.62335610
5.98023415 3.00175548 1.99667192 0.66141176 0.86360288 0.69921690
6.08934832 2.66447711 1.91298735 0.67347980 0.76656818 0.66991132
5.63756943 3.14630127 2.36175752 0.62351316 0.90518862 0.82706666
5.49298573 2.61629534 2.15591717 0.60752225 0.75270629 0.75498319
5.54263115 2.29382253 2.06069541 0.61301303 0.65993112 0.72163737
5.42251825 2.71095324 2.49848199 0.59972858 0.77993929 0.87494642
6.93975496 2.92071676 1.75735664 0.76753443 0.84028810 0.61541080
5.99530125 3.05675936 2.00829339 0.66307819 0.87942749 0.70328665
6.10409164 2.71663547 1.92311180 0.67511040 0.78157407 0.67345679
5.67325592 3.21290112 2.38543034 0.62746012 0.92434937 0.83535671
5.49842119 2.66148782 2.16472816 0.60812342 0.76570815 0.75806874
5.49500275 2.31478906 2.04815960 0.60774535 0.66596317 0.71724743
5.45793486 2.77188182 2.52317047 0.60364568 0.79746842 0.88359207
6.02687931 3.12092113 2.02572560 0.66657072 0.89788675 0.70939124
6.09740782 2.75965095 1.92648661 0.67437112 0.79394960 0.67463863
5.71972561 3.28657579 2.41397691 0.63259965 0.94554549 0.84535342
5.53384686 2.72190046 2.18573928 0.61204153 0.78308880 0.76542664
5.50120401 2.35812473 2.05607700 0.60843122 0.67843080 0.72002006
5.36837912 2.76866317 2.48922372 0.59374082 0.79654241 0.87170422
6.05450344 3.18380785 2.04199576 0.66962594 0.91597927 0.71508890
6.09740782 2.80587792 1.93211138 0.67437112 0.80724907 0.67660838
5.77847195 3.36847425 2.44809365 0.63909698 0.96910763 0.85730082
5.58217239 2.78963542 2.21217275 0.61738628 0.80257612 0.77468342
5.52094269 2.40762019 2.06927276 0.61061430 0.69267058 0.72464108
5.45530653 2.85747886 2.53860092 0.60335499 0.82209462 0.88899571
6.07314587 3.24263215 2.05536056 0.67168778 0.93290293 0.71976918
6.13188505 2.86837339 1.94898558 0.67818433 0.82522899 0.68251759
5.50570631 2.44226170 2.06927276 0.60892916 0.70263696 0.72464108
5.48115396 2.91523767 2.55943203 0.60621369 0.83871180 0.89629054
6.23406696 3.37975359 2.11811662 0.68948561 0.97235268 0.74174577
6.13804245 2.91830897 1.95686018 0.67886531 0.83959538 0.68527520
5.56787205 2.85949516 2.21895051 0.61580467 0.82267469 0.77705693
5.48896170 2.46587586 2.06729341 0.60707724 0.70943069 0.72394794
5.49979782 2.95862341 2.57486224 0.60827571 0.85119385 0.90169406
6.15539694 2.96208906 1.96698463 0.68078470 0.85219091 0.68882072
5.51979923 2.52133989 2.08510756 0.61048782 0.72538769 0.73018628
6.11939716 2.99232626 1.96135998 0.67680317 0.86089015 0.68685097
5.60454035 2.96821904 2.24877262 0.61986017 0.85395449 0.78750038
5.48326778 2.54649782 2.07719016 0.60644746 0.73262560 0.72741371
6.17277336 3.06636524 1.98498380 0.68270653 0.88219106 0.69512385
5.59074306 3.00606370 2.25080609 0.61833423 0.86484236 0.78821248
5.50649071 2.59930539 2.09236526 0.60901594 0.74781829 0.73272789
6.22889042 3.14291096 2.00973248 0.68891305 0.90421325 0.70379061
5.51733017 2.64682794 2.10292172 0.61021477 0.76149052 0.73642468
6.22612572 3.19068956 2.01535726 0.68860728 0.91795909 0.70576036
5.51928949 2.69048023 2.11017942 0.61043149 0.77404922 0.73896623
6.18549442 3.21917319 2.00860763 0.68411350 0.92615384 0.70339668
5.54725266 2.73637152 2.12601423 0.61352420 0.78725213 0.74451149
5.55700207 2.78461671 2.13657093 0.61460245 0.80113226 0.74820834
5.56021261 2.87404060 2.15174603 0.61495757 0.82685941 0.75352252
5.57218742 2.92461610 2.16362214 0.61628199 0.84140998 0.75768143
5.62213373 2.99575329 2.19067335 0.62180603 0.86187607 0.76715451
5.69619370 3.06940436 2.22564197 0.62999701 0.88306546 0.77940023
5.63365459 3.08171201 2.20848751 0.62308019 0.88660634 0.77339286
5.74977398 3.19177008 2.26258993 0.63592297 0.91826999 0.79233909
5.77409744 3.25271749 2.28040409 0.63861310 0.93580449 0.79857743
5.76996613 3.29825211 2.28700185 0.63815624 0.94890475 0.80088788
5.82805061 3.36769128 2.31669235 0.64458036 0.96888238 0.81128526
9.04162025 0.36190379 2.02045512 1.00000000 0.10411946 0.70754558
8.97488213 0.41558385 2.00583982 0.99261880 0.11956318 0.70242745
8.84745884 0.46512690 1.97749484 0.97852582 0.13381667 0.69250125
8.91809940 0.32486638 2.50021648 0.98633862 0.09346382 0.87555379
8.40493965 0.51204246 2.81708169 0.92958337 0.14731425 0.98651719
8.74313354 0.51451457 1.95446455 0.96698749 0.14802547 0.68443626
8.84861374 0.37786633 2.48108816 0.97865355 0.10871187 0.86885524
8.35809422 0.56181431 2.80232286 0.92440224 0.16163358 0.98134881
8.64826965 0.56326652 1.93364871 0.95649558 0.16205138 0.67714673
8.41391373 0.60555106 2.82221508 0.93057591 0.17421661 0.98831487
8.54436493 0.59670842 1.91061842 0.94500375 0.17167258 0.66908175
8.60957813 0.46200719 2.41441226 0.95221627 0.13291913 0.84550589
8.50812531 0.66632974 2.85558295 0.94099563 0.19170259 1.00000000
8.50156021 0.64732784 1.90176058 0.94026953 0.18623576 0.66597980
8.53929996 0.51190418 2.39528418 0.94444358 0.14727446 0.83880740
8.39626980 0.69215536 1.87873030 0.92862445 0.19913261 0.65791482
8.38236618 0.55500758 2.35156226 0.92708671 0.15967529 0.82349640
8.29658318 0.73621708 1.85702872 0.91759914 0.21180913 0.65031511
8.10628700 0.58724344 2.27395582 0.89655250 0.16894951 0.79631931
8.18105698 0.64455509 2.29636335 0.90482199 0.18543804 0.80416620
8.41277122 0.85351342 1.88581657 0.93044955 0.24555521 0.66039634
8.82305145 0.42217833 1.92039096 0.97582638 0.12146040 0.67250401
8.08975601 0.67551494 2.27122331 0.89472413 0.19434516 0.79536241
7.79348898 0.84333766 2.62008286 0.86195713 0.24262764 0.91752994
8.54649639 0.46271777 2.80467415 0.94523948 0.13312358 0.98217219
8.45712852 0.89841473 1.89688885 0.93535542 0.25847328 0.66427380
8.87557220 0.46649602 1.93249083 0.98163515 0.13421057 0.67674124
8.00489140 0.71889949 2.24826932 0.88533813 0.20682687 0.78732413
8.90973091 0.33044046 2.42692375 0.98541307 0.09506749 0.84988731
7.69208574 0.88104308 2.58735681 0.85074198 0.25347546 0.90606958
8.47519875 0.51244652 2.78199911 0.93735397 0.14743049 0.97423160
8.46681786 0.95331711 1.90043199 0.93642706 0.27426866 0.66551453
8.79448032 0.51784194 1.91520536 0.97266638 0.14898275 0.67068803
7.91023159 0.76029968 2.22258282 0.87486881 0.21873768 0.77832896
7.66571856 0.92680073 2.58029819 0.84782577 0.26663992 0.90359771
8.33542156 0.55690825 2.73664904 0.92189467 0.16022210 0.95835036
8.53810596 1.01589715 1.91814756 0.94431150 0.29227290 0.67171836
8.67801666 0.56598192 1.89014149 0.95978558 0.16283259 0.66191089
7.83450460 0.80254900 2.20236135 0.86649346 0.23089278 0.77124757
8.73541355 0.43434340 2.38008189 0.96613365 0.12496029 0.83348370
7.51134539 0.95566136 2.52960467 0.83075213 0.27494308 0.88584530
8.30524921 0.60739630 2.72783113 0.91855764 0.17474748 0.95526242
8.56637764 1.07397234 1.92611957 0.94743836 0.30898106 0.67451012
8.60805321 0.61591363 1.87544882 0.95204765 0.17719790 0.65676564
7.75473738 0.84345102 2.18104696 0.85767120 0.24266025 0.76378345
8.60353088 0.48229560 2.34441829 0.95154744 0.13875610 0.82099462
7.46953154 0.99797487 2.51741242 0.82612753 0.28711665 0.88157564
8.31830215 0.66087890 2.73349977 0.92000127 0.19013439 0.95724756
8.59812164 1.13296151 1.93497741 0.95094919 0.32595220 0.67761207
8.57091141 0.66748792 1.86810255 0.94793975 0.19203579 0.65419304
7.68241119 0.88428277 2.16191864 0.84967196 0.25440753 0.75708485
8.53682518 0.53253335 2.32685256 0.94416982 0.15320946 0.81484330
7.34309769 1.02775383 2.47634435 0.81214398 0.29568404 0.86719400
8.27426052 0.70982105 2.72027278 0.91513026 0.20421501 0.95261556
8.59276390 1.18723381 1.93542027 0.95035666 0.34156632 0.67776716
7.60559416 0.91158247 2.14115071 0.84117603 0.26226163 0.74981213
8.23602581 0.55345553 2.24434733 0.91090155 0.15922876 0.78595066
8.43155098 0.76295936 2.77381086 0.93252653 0.21950287 0.97136414
7.53293324 0.95074099 2.12202239 0.83313978 0.27352750 0.74311358
8.28623009 0.60901767 2.25925136 0.91645414 0.17521395 0.79116994
7.19093847 1.08680820 2.42821765 0.79531527 0.31267396 0.85034043
7.84452391 0.76097232 2.57981396 0.86760157 0.21893120 0.90342814
8.45310211 0.80572140 1.84476721 0.93491012 0.23180547 0.64602125
7.47724199 0.99134469 2.10781288 0.82698029 0.28520915 0.73813748
8.19382191 0.65422970 2.23476601 0.90623379 0.18822141 0.78259540
7.87925005 0.81424135 2.59304094 0.87144226 0.23425665 0.90806007
8.49450970 0.86344588 1.85513842 0.93948978 0.24841276 0.64965314
7.40991068 1.02966654 2.09032416 0.81953353 0.29623434 0.73201311
8.11654663 0.69959092 2.21453881 0.89768720 0.20127180 0.77551198
7.06460857 1.15837502 2.38971615 0.78134322 0.33326367 0.83685756
7.79848099 0.85564619 2.56784654 0.86250925 0.24616879 0.89923722
8.52581406 0.92069703 1.86334908 0.94295204 0.26488388 0.65252846
7.35191107 1.06859148 2.07556796 0.81311876 0.30743301 0.72684562
8.03326607 0.74348861 2.19271493 0.88847637 0.21390115 0.76786947
7.02546167 1.19723976 2.37880754 0.77701360 0.34444502 0.83303744
7.70430279 0.89457059 2.53824306 0.85209316 0.25736731 0.88887036
8.60931683 0.44752377 2.75728822 0.95218742 0.12875228 0.96557808
8.53732681 0.97620302 1.86723828 0.94422531 0.28085291 0.65389043
8.82631969 0.47140878 1.85615957 0.97618783 0.13562398 0.65001070
7.29751921 1.10741627 2.06190491 0.80710304 0.31860286 0.72206092
7.95359612 0.78673750 2.17195535 0.87966490 0.22634381 0.76059961
6.92831135 1.22526515 2.34800649 0.76626879 0.35250792 0.82225120
7.60617733 0.93189406 2.50738001 0.84124053 0.26810527 0.87806237
9.01919842 0.32202762 2.38373065 0.99752015 0.09264712 0.83476150
8.54935932 0.49815291 2.73879862 0.94555610 0.14331824 0.95910317
8.51163292 1.02753067 1.86291695 0.94138360 0.29561985 0.65237713
8.87198448 0.52988327 1.86661696 0.98123837 0.15244703 0.65367281
7.22382355 1.13089013 2.04223013 0.79895234 0.32535627 0.71517098
7.88458538 0.81761551 2.15385747 0.87203234 0.23522739 0.75426191
6.92804861 1.25893247 2.34993148 0.76623970 0.36219397 0.82292533
7.52258778 0.95786864 2.48092580 0.83199555 0.27557811 0.86879838
8.83808231 0.35686466 2.33558631 0.97748876 0.10266971 0.81790173
8.45578384 0.53247660 2.70921516 0.93520671 0.15319313 0.94874328
8.53576756 1.07120788 1.86939895 0.94405288 0.30818573 0.65464705
8.76791477 0.56491160 1.84486556 0.96972829 0.16252467 0.64605570
7.16912651 1.16838682 2.02856708 0.79290283 0.33614406 0.71038634
7.80453587 0.85910624 2.13309813 0.86317891 0.24716425 0.74699217
