-11.11447144 -1.82077825 1.92859638 -0.81168514 -0.49007654 0.84609485
-10.80665874 -1.82212901 1.87572098 -0.78920573 -0.49044010 0.82289791
-10.46516991 -1.83161569 1.81735194 -0.76426697 -0.49299350 0.79729080
-10.30810833 -1.87066531 1.79160094 -0.75279683 -0.50350404 0.78599358
-13.25696373 -1.85640204 1.49489450 -0.96815050 -0.49966496 0.65582544
-10.19743156 -1.91664064 1.77409029 -0.74471414 -0.51587862 0.77831149
-12.75210476 -1.86670840 1.43407798 -0.93128085 -0.50243902 0.62914461
-10.10592079 -1.96509862 1.76001298 -0.73803115 -0.52892148 0.77213562
-12.29082298 -1.87741220 1.37859201 -0.89759362 -0.50532001 0.60480237
-10.07599640 -2.02502847 1.75692296 -0.73584574 -0.54505205 0.77077997
-11.95442581 -1.88316905 1.33812845 -0.87302667 -0.50686949 0.58705056
-12.37290382 -2.14960289 0.96111012 -0.90358794 -0.57858223 0.42164880
-9.91394711 -2.04079795 1.72979856 -0.72401136 -0.54929656 0.75888026
-11.70732975 -1.91929901 1.30905271 -0.85498136 -0.51659417 0.57429475
-12.45324326 -2.24441504 0.96948296 -0.90945512 -0.60410166 0.42532203
-10.01266479 -2.12701702 1.74971259 -0.73122066 -0.57250309 0.76761669
-11.47157383 -1.81865895 1.92920744 -0.83776420 -0.48950613 0.84636295
-11.55808544 -1.96924150 1.29209197 -0.84408212 -0.53003657 0.56685388
-12.35274601 -2.30638695 0.96180785 -0.90211582 -0.62078190 0.42195490
-9.98948383 -2.18775916 1.74799585 -0.72952777 -0.58885229 0.76686358
-10.82153988 -1.78652596 1.81987703 -0.79029250 -0.48085728 0.79839855
-11.43604183 -2.02227283 1.27852333 -0.83516932 -0.54431033 0.56090117
-12.37321186 -2.39081597 0.96494770 -0.90361047 -0.64350659 0.42333236
-9.99475193 -2.25485563 1.75142932 -0.72991252 -0.60691184 0.76836985
-10.55346012 -1.81094670 1.77587819 -0.77071476 -0.48743030 0.77909583
-11.75106239 -2.15480137 1.31922925 -0.85817516 -0.57998145 0.57875931
-12.82251835 -1.90968406 1.37028515 -0.93642312 -0.51400620 0.60115802
-12.34817982 -2.46654439 0.96407551 -0.90178239 -0.66388947 0.42294973
-9.98422432 -2.31850863 1.75211608 -0.72914368 -0.62404454 0.76867115
-10.42534542 -1.85669768 1.75587869 -0.76135856 -0.49974453 0.77032185
-11.78213692 -2.23718643 1.32480204 -0.86044449 -0.60215604 0.58120412
-12.55304623 -1.95066333 1.33999169 -0.91674370 -0.52503610 0.58786798
-12.36754990 -2.55138350 0.96721536 -0.90319693 -0.68672460 0.42432722
-9.96179771 -2.37934899 1.75074267 -0.72750586 -0.64042020 0.76806861
-10.25633717 -1.89347208 1.72887945 -0.74901599 -0.50964266 0.75847703
-11.79705811 -2.31695962 1.32843649 -0.86153418 -0.62362760 0.58279860
-12.70531464 -2.05589271 1.35941648 -0.92786378 -0.55335939 0.59638983
-13.69308186 -1.85071206 1.87855494 -1.00000000 -0.49813345 0.82414114
-12.35711956 -2.63029408 0.96773863 -0.90243524 -0.70796400 0.42455679
-9.95238876 -2.44331408 1.75177276 -0.72681874 -0.65763688 0.76852053
-10.15704155 -1.94138801 1.71387982 -0.74176449 -0.52253962 0.75189650
-11.78017235 -2.37134075 1.32770967 -0.86030102 -0.63826472 0.58247977
-12.74644756 -2.12415242 1.36542892 -0.93086767 -0.57173204 0.59902757
-13.06304741 -1.82734931 1.78693986 -0.95398885 -0.49184519 0.78394872
-12.34847927 -2.68935037 0.96808749 -0.90180427 -0.72385943 0.42470983
-9.95031548 -2.49259925 1.75348949 -0.72666734 -0.67090237 0.76927370
-10.13035679 -1.98585033 1.71087992 -0.73981571 -0.53450698 0.75058043
-13.60495281 -1.85685778 2.18831897 -0.99356395 -0.49978763 0.96003783
-11.04417133 -2.29420805 1.23781741 -0.80655116 -0.61750382 0.54304308
-12.72110081 -2.20218349 1.36404145 -0.92901665 -0.59273469 0.59841889
-12.46595001 -1.82283092 1.70052695 -0.91038311 -0.49062902 0.74603850
-12.35660076 -2.77259588 0.97035515 -0.90239733 -0.74626559 0.42570469
-9.94399452 -2.55754209 1.75520623 -0.72620571 -0.68838221 0.77002686
-10.08674335 -2.04325843 1.70554674 -0.73663062 -0.54995883 0.74824071
-13.19243908 -1.88445878 2.12281561 -0.96343827 -0.50721663 0.93130082
-10.86460114 -2.32789874 1.21722221 -0.79343724 -0.62657195 0.53400779
-12.71679306 -2.28380895 1.36519778 -0.92870206 -0.61470485 0.59892619
-12.83236790 -1.77019358 1.31817138 -0.93714243 -0.47646129 0.57829517
-11.94377041 -1.82235289 1.62509620 -0.87224853 -0.49050036 0.71294624
-12.34669876 -2.85198545 0.97105289 -0.90167421 -0.76763391 0.42601079
-9.93153667 -2.62098408 1.75589287 -0.72529596 -0.70545810 0.77032804
-10.04473972 -2.10059690 1.70054686 -0.73356313 -0.56539190 0.74604720
-12.65518761 -1.88810766 2.03686237 -0.92420304 -0.50819880 0.89359224
-10.94083500 -2.41640496 1.22861016 -0.79900455 -0.65039408 0.53900379
-11.81915188 -2.20078397 1.26067364 -0.86314768 -0.59235799 0.55307037
-12.78362560 -1.84533238 1.31392443 -0.93358278 -0.49668548 0.57643205
-11.53152943 -1.83297622 1.56584990 -0.84214276 -0.49335971 0.68695426
-12.35760021 -2.93646097 0.97366941 -0.90247035 -0.79037118 0.42715868
-9.94338608 -2.69111109 1.76104307 -0.72616130 -0.72433335 0.77258754
-10.03905678 -2.16531587 1.70188022 -0.73314810 -0.58281147 0.74663216
-11.85708714 -1.84398496 1.90809214 -0.86591810 -0.49632281 0.83709943
-10.96607208 -2.49442077 1.23369837 -0.80084765 -0.67139262 0.54123604
-11.72898865 -2.26046968 1.25165498 -0.85656309 -0.60842288 0.54911375
-12.74427223 -1.92142570 1.31079507 -0.93070883 -0.51716655 0.57505912
-11.18991089 -1.85024202 1.51700783 -0.81719446 -0.49800694 0.66552675
-12.36986160 -3.02166176 0.97646034 -0.90336579 -0.81330359 0.42838308
-9.92628098 -2.75353360 1.76104307 -0.72491211 -0.74113482 0.77258754
-10.00984669 -2.22495747 1.69921362 -0.73101491 -0.59886450 0.74546230
-11.39324284 -1.84445262 1.83396149 -0.83204371 -0.49644867 0.80457759
-12.28146362 -2.87744617 1.40064096 -0.89691013 -0.77448690 0.61447543
-11.78861427 -2.34874535 1.26044250 -0.86091751 -0.63218296 0.55296898
-12.78887081 -2.01050234 1.31727731 -0.93396586 -0.54114223 0.57790297
-10.90508938 -1.87310898 1.47654688 -0.79639411 -0.50416178 0.64777613
-12.33517838 -3.09541965 0.97506487 -0.90083289 -0.83315611 0.42777088
-9.94477367 -2.82615185 1.76756668 -0.72626263 -0.76068062 0.77544951
-9.99759293 -2.28824306 1.69954693 -0.73012000 -0.61589831 0.74560851
-10.90652370 -1.83519304 1.75599647 -0.79649884 -0.49395639 0.77037352
-11.96475410 -2.86227083 1.36260045 -0.87378097 -0.77040231 0.59778666
-11.79104519 -2.40702987 1.26206124 -0.86109507 -0.64787072 0.55367911
-12.76552486 -2.06849885 1.31571257 -0.93226093 -0.55675244 0.57721651
-10.66820049 -1.88378596 1.44273305 -0.77909416 -0.50703555 0.63294166
-13.08016109 -1.82373440 1.72255778 -0.95523864 -0.49087220 0.75570363
-12.36097145 -3.16395283 0.97872800 -0.90271652 -0.85160238 0.42937794
-9.93891144 -2.87518883 1.76894009 -0.72583449 -0.77387929 0.77605200
-9.98861980 -2.33577514 1.69988024 -0.72946471 -0.62869191 0.74575478
-10.55353355 -1.82632601 1.69943976 -0.77072012 -0.49156976 0.74556154
-11.75575542 -2.89014745 1.33861303 -0.85851789 -0.77790552 0.58726317
-10.98618221 -2.31611609 1.16817451 -0.80231625 -0.62340057 0.51249003
-12.85024261 -2.16533089 1.32688892 -0.93844783 -0.58281553 0.58211964
-10.48685360 -1.91945684 1.41758955 -0.76585048 -0.51663667 0.62191099
-12.47844601 -1.82076633 1.63852370 -0.91129565 -0.49007332 0.71883702
-12.34662628 -3.24308372 0.97925133 -0.90166891 -0.87290102 0.42960751
-9.94708443 -2.94546366 1.77374697 -0.72643137 -0.79279429 0.77816087
-10.01403046 -2.40809202 1.70688009 -0.73132044 -0.64815658 0.74882567
-10.44083595 -1.87426603 1.68282425 -0.76248986 -0.50447321 0.73827213
-11.73543930 -2.96346426 1.33837068 -0.85703421 -0.79763931 0.58715683
-10.98694897 -2.38844609 1.17002451 -0.80237228 -0.64286870 0.51330167
-12.75209141 -1.75814784 1.22094464 -0.93127984 -0.47321907 0.53564084
-10.33464050 -1.95850801 1.39678109 -0.75473446 -0.52714759 0.61278206
-11.95564079 -1.82211578 1.56565702 -0.87311542 -0.49043655 0.68686968
-9.93968868 -3.01135421 1.77580702 -0.72589129 -0.81052923 0.77906460
-9.99870205 -2.47096419 1.70688009 -0.73020101 -0.66507912 0.74882567
-10.26586628 -1.90919030 1.65598392 -0.74971187 -0.51387334 0.72649699
-10.97319412 -2.84310722 1.24460173 -0.80136776 -0.76524431 0.54601943
-10.98142147 -2.45958495 1.17118084 -0.80196857 -0.66201627 0.51380897
-12.73208904 -2.31017327 1.31660676 -0.92981911 -0.62180102 0.57760876
-12.77032852 -1.84245002 1.22409558 -0.93261170 -0.49590966 0.53702319
-10.27554035 -2.01417685 1.38984489 -0.75041837 -0.54213125 0.60973912
-11.56832409 -1.83818018 1.51205397 -0.84482986 -0.49476039 0.66335344
-9.97323608 -3.09017801 1.78542066 -0.72834122 -0.83174527 0.78328222
-10.00401592 -2.53903341 1.71054661 -0.73058909 -0.68340045 0.75043422
-10.18390083 -1.96008456 1.64448082 -0.74372602 -0.52757192 0.72145045
-13.54144478 -1.85847449 2.05347204 -0.98892599 -0.50022280 0.90087909
-10.94744301 -2.90994358 1.24363256 -0.79948717 -0.78323382 0.54559427
-10.98705387 -2.53340578 1.17372453 -0.80237991 -0.68188572 0.51492488
-11.84642220 -2.22502828 1.21691442 -0.86513925 -0.59888357 0.53387272
-10.18124962 -2.06204104 1.37770665 -0.74353236 -0.55501431 0.60441393
-11.19692707 -1.85200918 1.46068430 -0.81770688 -0.49848258 0.64081705
-9.97051811 -3.15816784 1.78851080 -0.72814274 -0.85004526 0.78463787
-9.96686268 -2.59641314 1.70688009 -0.72787577 -0.69884467 0.74882567
-10.11138058 -2.01197004 1.63457549 -0.73842984 -0.54153728 0.71710491
-13.02644730 -1.87202060 1.97587538 -0.95131594 -0.50386882 0.86683661
-10.90807724 -1.80524540 2.23084092 -0.79661226 -0.48589575 0.97869259
-10.92894363 -2.97867036 1.24363256 -0.79813617 -0.80173212 0.54559427
-12.69777870 -3.00872493 1.38022888 -0.92731345 -0.80982155 0.60552043
-11.76589680 -2.28641438 1.20931458 -0.85925847 -0.61540610 0.53053862
-12.81298828 -2.01316857 1.23123777 -0.93572712 -0.54185987 0.54015654
-10.14872932 -2.12188244 1.37481654 -0.74115741 -0.57112104 0.60314602
-10.90782928 -1.87518775 1.42104030 -0.79659420 -0.50472128 0.62342483
-9.98045158 -3.23051786 1.79400432 -0.72886819 -0.86951888 0.78704798
-9.97322655 -2.66504931 1.71087992 -0.72834051 -0.71731859 0.75058043
-10.09467316 -2.07465911 1.63393641 -0.73720974 -0.55841053 0.71682453
-12.32800579 -1.85186398 1.86989701 -0.90030909 -0.49844351 0.82034284
-10.63575649 -1.82940030 2.17665315 -0.77672482 -0.49239722 0.95491987
-10.95493698 -3.04136300 1.24872077 -0.80003440 -0.81860638 0.54782653
-11.75499153 -2.34183431 1.20931458 -0.85846210 -0.63032281 0.53053862
-10.12894630 -2.16759372 1.37337148 -0.73971266 -0.58342463 0.60251206
-10.71354389 -1.89415991 1.39451790 -0.78240561 -0.50982779 0.61178917
-13.24607086 -1.83030856 1.67036521 -0.96735495 -0.49264169 0.73280621
-10.00626850 -3.29113650 1.80155802 -0.73075360 -0.88583481 0.79036182
-9.96817207 -2.71407461 1.71221328 -0.72797143 -0.73051417 0.75116539
-10.09830284 -2.12507868 1.63617313 -0.73747480 -0.57198137 0.71780580
-11.75632477 -1.82361937 1.78294039 -0.85855943 -0.49084124 0.78219408
-10.61157799 -1.87679887 2.17344189 -0.77495909 -0.50515491 0.95351106
-11.76517677 -2.92622304 1.27246737 -0.85920590 -0.78761554 0.55824441
-11.77507401 -2.42291570 1.21333802 -0.85992867 -0.65214646 0.53230375
-10.13444424 -2.23549342 1.37626159 -0.74011421 -0.60170031 0.60377997
-10.53774643 -1.93175197 1.37106657 -0.76956719 -0.51994598 0.60150087
-12.65774441 -1.82924056 1.59151661 -0.92438972 -0.49235424 0.69821453
-10.03765583 -3.37160921 1.81117177 -0.73304576 -0.90749466 0.79457951
-9.95662403 -2.77823114 1.71321321 -0.72712809 -0.74778241 0.75160408
-10.07318020 -2.18595076 1.63425589 -0.73564011 -0.58836555 0.71696466
-11.24484444 -1.81758094 1.70564568 -0.82120627 -0.48921597 0.74828410
-10.61307049 -1.94588387 2.17625165 -0.77506804 -0.52374971 0.95474374
-11.28163242 -3.28601074 1.29524183 -0.82389289 -0.88445520 0.56823575
-11.75811195 -3.00301790 1.27385485 -0.85868996 -0.80828547 0.55885309
-10.09704971 -2.29381895 1.37279356 -0.73738331 -0.61739910 0.60225850
-10.36774445 -1.96830785 1.34845281 -0.75715202 -0.52978528 0.59157997
-12.19145107 -1.83938754 1.52929580 -0.89033651 -0.49508536 0.67091763
-9.95604610 -2.84557915 1.71621311 -0.72708583 -0.76590961 0.75292015
-10.06694984 -2.25093722 1.63553405 -0.73518509 -0.60585713 0.71752542
-10.71247005 -1.80162358 1.62502956 -0.78232718 -0.48492092 0.71291703
-10.98190594 -2.08416867 2.25572705 -0.80200398 -0.56097013 0.98961043
-11.27407455 -3.36082315 1.29693794 -0.82334089 -0.90459150 0.56897986
-10.97961807 -2.87915611 1.18251193 -0.80183691 -0.77494711 0.51877999
-10.98485374 -2.40323424 1.12593973 -0.80221921 -0.64684910 0.49396122
-10.11518288 -2.36493826 1.37770665 -0.73870754 -0.63654143 0.60441393
-10.25991440 -2.01489615 1.33477283 -0.74927723 -0.54232490 0.58557844
-11.76665211 -1.85028541 1.47270715 -0.85931367 -0.49801862 0.64609164
-9.96258926 -2.91522980 1.72054636 -0.72756368 -0.78465664 0.75482118
-10.04491615 -2.31235814 1.63425589 -0.73357600 -0.62238908 0.71696466
-10.59963036 -1.85139811 1.60932910 -0.77408653 -0.49831811 0.70602906
-10.97474670 -2.95167351 1.18413067 -0.80148113 -0.79446572 0.51949018
-10.98116493 -2.47484899 1.12728083 -0.80194986 -0.66612476 0.49454957
-10.05973530 -2.41865230 1.37163746 -0.73465824 -0.65099895 0.60175133
-10.20433712 -2.07073951 1.32863081 -0.74521846 -0.55735552 0.58288383
-11.36763382 -1.86012590 1.41960502 -0.83017349 -0.50066727 0.62279516
-9.95730686 -2.98170257 1.72287965 -0.72717792 -0.80254829 0.75584483
-10.03787041 -2.37726116 1.63553405 -0.73306143 -0.63985819 0.71752542
-10.36982822 -1.87890267 1.57551265 -0.75730419 -0.50572115 0.69119346
-10.96939659 -3.02424312 1.18574941 -0.80109042 -0.81399840 0.52020031
-12.54262066 -2.91269088 1.30945385 -0.91598231 -0.78397328 0.57447070
-11.78080273 -2.29134893 1.12893724 -0.86034703 -0.61673427 0.49527627
-10.08658695 -2.49233794 1.37799561 -0.73661917 -0.67083204 0.60454071
-10.16979408 -2.13038921 1.32555974 -0.74269575 -0.57341075 0.58153653
-11.10570240 -1.88853288 1.38527632 -0.81104475 -0.50831324 0.60773480
-9.96667671 -3.05281496 1.72787952 -0.72786218 -0.82168877 0.75803834
-10.02081776 -2.43981290 1.63521445 -0.73181611 -0.65669447 0.71738523
-10.22952366 -1.92019796 1.55558503 -0.74705780 -0.51683611 0.68245101
-10.86009693 -2.27407241 2.23886871 -0.79310828 -0.61208415 0.98221451
-10.96267796 -3.07803583 1.18667436 -0.80059975 -0.82847714 0.52060610
-12.75685978 -3.02624989 1.33582985 -0.93162811 -0.81453854 0.58604217
-11.77182579 -2.34722471 1.12914729 -0.85969150 -0.63177365 0.49536842
-10.07856560 -2.54081702 1.37857366 -0.73603338 -0.68388057 0.60479426
-10.17513943 -2.18158054 1.32779324 -0.74308616 -0.58718926 0.58251643
-12.66569901 -2.03359556 1.15295994 -0.92497069 -0.54735798 0.50581527
-10.87418747 -1.90151751 1.35470235 -0.79413736 -0.51180816 0.59432173
-13.22699738 -1.82800627 1.57330680 -0.96596205 -0.49202201 0.69022572
-9.98420715 -3.10965466 1.73354602 -0.72914243 -0.83698761 0.76052427
-10.01686954 -2.48892713 1.63649261 -0.73152775 -0.66991395 0.71794593
-10.18734550 -1.96209013 1.55045223 -0.74397755 -0.52811170 0.68019915
-11.91535091 -2.90446949 1.24060810 -0.87017304 -0.78176039 0.54426742
-11.77243519 -2.42432547 1.13082778 -0.85973597 -0.65252596 0.49610567
-10.12368011 -2.62007809 1.38782191 -0.73932809 -0.70521426 0.60885161
-10.20185852 -2.25436378 1.33365607 -0.74503744 -0.60677946 0.58508849
-12.64482307 -2.11181211 1.15215862 -0.92344612 -0.56841058 0.50546372
-10.70996666 -1.94193900 1.33378339 -0.78214437 -0.52268791 0.58514434
-12.72823811 -1.84140682 1.51021886 -0.92953789 -0.49562886 0.66254836
-9.99267578 -3.18124413 1.73854589 -0.72976089 -0.85625643 0.76271778
-9.99720955 -2.55083156 1.63585353 -0.73009199 -0.68657601 0.71766561
-10.06231022 -2.00388622 1.53294015 -0.73484629 -0.53936148 0.67251647
-10.07643032 -2.67544937 1.38319778 -0.73587745 -0.72011787 0.60682297
-10.12567139 -2.30447674 1.32472229 -0.73947352 -0.62026775 0.58116913
-10.53593636 -1.97852564 1.31152332 -0.76943499 -0.53253549 0.57537866
-12.22788906 -1.84832132 1.44687665 -0.89299756 -0.49748996 0.63475949
-10.01377296 -3.25730729 1.74587905 -0.73130161 -0.87672943 0.76593488
-10.00198364 -2.61913800 1.63936841 -0.73044068 -0.70496124 0.71920758
-10.31493378 -2.12111402 1.57430494 -0.75329524 -0.57091421 0.69066358
-10.90137005 -2.47991133 2.25612855 -0.79612249 -0.66748732 0.98978657
-10.94127083 -1.79534745 2.13133574 -0.79903638 -0.48323163 0.93503869
-11.75284958 -3.02159238 1.22607899 -0.85830563 -0.81328493 0.53789335
-10.09568214 -2.74865651 1.38868892 -0.73728341 -0.73982215 0.60923195
-10.13221264 -2.37297845 1.32779324 -0.73995119 -0.63870549 0.58251643
-10.44744873 -2.02979851 1.30106390 -0.76297277 -0.54633594 0.57078999
-11.81421852 -1.86246967 1.39472747 -0.86278743 -0.50129813 0.61188114
-10.01932526 -3.32881522 1.75054550 -0.73170710 -0.89597636 0.76798213
-9.98914051 -2.68296194 1.64000738 -0.72950274 -0.72213995 0.71948791
-10.14468384 -2.15294385 1.54984832 -0.74086201 -0.57948148 0.67993420
-10.21376801 -2.39237356 2.11483884 -0.74590719 -0.64392585 0.92780131
-10.06106663 -2.80721474 1.38608778 -0.73475546 -0.75558352 0.60809082
-10.09784031 -2.43199444 1.32500148 -0.73744100 -0.65459007 0.58129162
-10.41895008 -2.09224987 1.29891837 -0.76089156 -0.56314522 0.56984872
-11.48898411 -1.88580036 1.35402560 -0.83903569 -0.50757772 0.59402484
-10.10286045 -3.42697763 1.76921177 -0.73780763 -0.92239749 0.77617121
-9.99681759 -2.75253391 1.64416134 -0.73006338 -0.74086577 0.72131032
-10.23722744 -2.23967552 1.56645465 -0.74762040 -0.60282600 0.68721962
-10.26142311 -2.47151971 2.12808466 -0.74938738 -0.66522861 0.93361241
-10.52753544 -1.86286211 2.05389428 -0.76882148 -0.50140375 0.90106434
-10.97182941 -2.96693468 1.13957477 -0.80126810 -0.79857337 0.49994305
-10.03752422 -2.86873198 1.38522077 -0.73303616 -0.77214140 0.60771042
-10.09582329 -2.49869680 1.32695568 -0.73729372 -0.67254359 0.58214897
-11.84550667 -2.28446531 1.07602727 -0.86507237 -0.61488152 0.47206411
-10.39589882 -2.15564179 1.29757738 -0.75920808 -0.58020765 0.56926042
-11.25782681 -1.92096877 1.32553422 -0.82215434 -0.51704359 0.58152533
-9.98122501 -2.81583095 1.64448082 -0.72892463 -0.75790268 0.72145045
-10.07244968 -2.27034092 1.54290390 -0.73558676 -0.61107981 0.67688763
-10.23808002 -2.53407669 2.12647915 -0.74768269 -0.68206632 0.93290806
-10.35068035 -1.88158309 2.02054095 -0.75590581 -0.50644261 0.88643187
-10.99219894 -3.02816772 1.14359820 -0.80275565 -0.81505477 0.50170815
-12.69769478 -3.01067162 1.23964024 -0.92730731 -0.81034553 0.54384279
-10.04098701 -2.92100906 1.38782191 -0.73328906 -0.78621215 0.60885161
-10.08393669 -2.54624438 1.32695568 -0.73642564 -0.68534136 0.58214897
-11.83460999 -2.34026051 1.07602727 -0.86427659 -0.62989920 0.47206411
-10.37593555 -2.20253086 1.29623640 -0.75775021 -0.59282821 0.56867212
-11.05906296 -1.94107616 1.30085874 -0.80763870 -0.52245563 0.57069999
-9.98491383 -2.86777329 1.64735663 -0.72919405 -0.77188337 0.72271210
-10.20620060 -2.35078216 1.56554890 -0.74535453 -0.63273120 0.68682224
-10.30775070 -2.60276413 2.14373899 -0.75277066 -0.70055407 0.94048011
-10.21524143 -1.92309737 1.99600506 -0.74601477 -0.51761651 0.87566775
-12.81972694 -3.62199306 1.35952353 -0.93621927 -0.97488743 0.59643680
-11.94201851 -2.91208529 1.15960634 -0.87212056 -0.78381026 0.50873113
-10.05466080 -2.99370337 1.39273500 -0.73428762 -0.80577838 0.61100703
-10.08691978 -2.61448431 1.32974756 -0.73664349 -0.70370865 0.58337379
-11.82551861 -2.41577744 1.07662833 -0.86361265 -0.65022516 0.47232780
-12.43994427 -2.07623005 1.03414094 -0.90848386 -0.55883336 0.45368814
-10.36382771 -2.26810837 1.29650462 -0.75686598 -0.61047888 0.56878978
-10.92169857 -1.98801613 1.28457808 -0.79760706 -0.53508991 0.56355751
-9.99509335 -2.93886280 1.65214956 -0.72993743 -0.79101765 0.72481483
-10.03725338 -2.37869334 1.54139423 -0.73301637 -0.64024371 0.67622536
-10.32534981 -2.67626143 2.15096402 -0.75405598 -0.72033644 0.94364983
-10.12977028 -1.97283983 1.98143685 -0.73977286 -0.53100508 0.86927652
-12.72420025 -3.68136859 1.35102963 -0.92924297 -0.99086881 0.59271044
-10.06214046 -3.06494355 1.39678109 -0.73483390 -0.82495326 0.61278206
-10.08561230 -2.68185186 1.33198094 -0.73654801 -0.72184116 0.58435357
-12.32459354 -2.13682699 1.02451324 -0.90005988 -0.57514352 0.44946438
-10.33777618 -2.33054352 1.29489541 -0.75496346 -0.62728381 0.56808382
-10.81538773 -2.03913045 1.27236748 -0.78984320 -0.54884773 0.55820054
-10.00666237 -3.01076555 1.65726197 -0.73078233 -0.81037080 0.72705770
-10.02979755 -2.44356871 1.54260194 -0.73247188 -0.65770543 0.67675519
-10.89372063 -2.89555025 2.27499390 -0.79556382 -0.77935976 0.99806297
-10.10178566 -2.03331876 1.97836983 -0.73772913 -0.54728347 0.86793101
-11.75417233 -3.02352333 1.14322150 -0.85840225 -0.81380469 0.50154293
-10.08800507 -3.14231730 1.40371728 -0.73672277 -0.84577900 0.61582506
-10.08959198 -2.75085759 1.33505201 -0.73683864 -0.74041456 0.58570093
-10.31713963 -2.39409614 1.29409087 -0.75345635 -0.64438945 0.56773084
-10.76535511 -2.09989738 1.26753414 -0.78618938 -0.56520361 0.55608010
-10.00452042 -3.07883883 1.66013777 -0.73062593 -0.82869327 0.72831935
-10.02767754 -2.50987291 1.54471552 -0.73231709 -0.67555171 0.67768240
-10.05807400 -2.09029818 1.97223592 -0.73453689 -0.56261992 0.86523998
-11.76572609 -3.10538650 1.14658248 -0.85924602 -0.83583879 0.50301743
-10.12648392 -3.22436500 1.41267645 -0.73953283 -0.86786276 0.61975557
-10.07974243 -2.81631470 1.33616877 -0.73611933 -0.75803286 0.58619082
-10.31538200 -2.46211982 1.29596817 -0.75332803 -0.66269857 0.56855440
-10.71498680 -2.16011643 1.26270080 -0.78251100 -0.58141202 0.55395967
-10.03391361 -3.15713930 1.66844547 -0.73277247 -0.84976846 0.73196399
-10.02703667 -2.57673526 1.54713094 -0.73227024 -0.69354820 0.67874211
-10.03706741 -2.15179229 1.97070241 -0.73300278 -0.57917154 0.86456722
-12.72362900 -3.44211483 1.25350440 -0.92920125 -0.92647183 0.54992515
-10.11542797 -3.29100680 1.41412151 -0.73872542 -0.88579994 0.62038952
-10.05422783 -2.87742662 1.33505201 -0.73425603 -0.77448159 0.58570093
-10.29393673 -2.52545643 1.29516363 -0.75176185 -0.67974609 0.56820148
-10.67983150 -2.22299051 1.25990260 -0.77994359 -0.59833509 0.55273211
-10.00824451 -3.21829748 1.66748691 -0.73089790 -0.86622965 0.73154348
-10.02021217 -2.64218736 1.54864061 -0.73177189 -0.71116513 0.67940438
-9.99615192 -2.19227767 1.96456838 -0.73001474 -0.59006846 0.86187613
-10.94766331 -1.79000294 2.03037810 -0.79950327 -0.48179314 0.89074755
-10.21435452 -3.37674618 1.43175089 -0.74594998 -0.90887731 0.62812370
-10.07670307 -2.93522716 1.34035647 -0.73589736 -0.79003906 0.58802801
-10.28576469 -2.57490730 1.29569995 -0.75116509 -0.69305623 0.56843674
-10.66341400 -2.27206397 1.25913942 -0.77874464 -0.61154360 0.55239725
-10.03422737 -3.27899551 1.67451656 -0.73279542 -0.88256699 0.73462743
-10.01720142 -2.69192386 1.55015028 -0.73155200 -0.72455209 0.68006670
-10.00897408 -2.26115060 1.96993566 -0.73095119 -0.60860616 0.86423081
-10.59105110 -1.80074143 1.96524262 -0.77345997 -0.48468348 0.86217195
-12.73097134 -3.59470797 1.25854588 -0.92973745 -0.96754342 0.55213690
-10.08274841 -3.00579000 1.34398580 -0.73633885 -0.80903161 0.58962023
-12.65740299 -2.58510661 1.06265378 -0.92436481 -0.69580144 0.46619701
-10.27705765 -2.64147162 1.29677272 -0.75052917 -0.71097249 0.56890738
-10.65668106 -2.34070659 1.26015699 -0.77825290 -0.63001925 0.55284369
-10.05834389 -3.35706472 1.68218529 -0.73455662 -0.90357989 0.73799181
-9.99436855 -2.75324607 1.54924452 -0.72988451 -0.74105746 0.67966932
-9.99839115 -2.32489038 1.97070241 -0.73017830 -0.62576222 0.86456722
-10.39939022 -1.83580899 1.93121111 -0.75946307 -0.49412218 0.84724200
-12.84958553 -3.71529365 1.27409053 -0.93839979 -1.00000000 0.55895650
-10.10725784 -3.08228493 1.35040700 -0.73812878 -0.82962084 0.59243727
-11.90162086 -2.96240997 1.09626222 -0.86917037 -0.79735553 0.48094139
-13.04050350 -2.74815750 1.10060918 -0.95234245 -0.73968786 0.48284844
-10.27366638 -2.70955539 1.29865015 -0.75028151 -0.72929776 0.56973106
-10.01875591 -2.82772088 1.55588698 -0.73166555 -0.76110291 0.68258345
-9.98358631 -2.38766575 1.97070241 -0.72909713 -0.64265871 0.86456722
-10.26962852 -1.87974846 1.90888953 -0.74998665 -0.50594884 0.83744925
-10.12931061 -3.15861988 1.35654902 -0.73973930 -0.85016698 0.59513187
-11.79990482 -3.01580453 1.08764732 -0.86174208 -0.81172711 0.47716194
-13.19817638 -2.86783099 1.11727262 -0.96385723 -0.77189887 0.49015886
-10.27556133 -2.77926397 1.30133200 -0.75041991 -0.74806041 0.57090759
-10.61869526 -2.47264886 1.25913942 -0.77547884 -0.66553253 0.55239725
-10.00649261 -2.89225006 1.55679286 -0.73076993 -0.77847147 0.68298090
-10.78174400 -3.36120462 2.27940917 -0.78738624 -0.90469420 1.00000000
-9.96457672 -2.44940233 1.96993566 -0.72770882 -0.65927559 0.86423081
-10.17064953 -1.92792892 1.89242268 -0.74275827 -0.51891696 0.83022511
-10.10171223 -3.21981025 1.35543239 -0.73772377 -0.86663681 0.59464198
-11.78264809 -3.09039354 1.08784771 -0.86048180 -0.83180332 0.47724986
-10.26934910 -2.84697080 1.30294120 -0.74996626 -0.76628417 0.57161355
-10.62417984 -2.54436159 1.26193762 -0.77587938 -0.68483460 0.55362487
-10.00709152 -2.96063733 1.55981219 -0.73081368 -0.79687840 0.68430549
-10.63526344 -3.38925004 2.25251603 -0.77668881 -0.91224283 0.98820168
-9.95279408 -2.51293159 1.97070241 -0.72684836 -0.67637497 0.86456722
-10.10814953 -1.98205662 1.88290846 -0.73819393 -0.53348583 0.82605112
-10.12838840 -3.29845858 1.36241198 -0.73967195 -0.88780564 0.59770399
-10.27031326 -2.91688943 1.30562317 -0.75003666 -0.78510332 0.57279015
-10.60412979 -2.61012363 1.26142883 -0.77441514 -0.70253497 0.55340165
-10.05456161 -3.04337358 1.57037973 -0.73428041 -0.81914753 0.68894160
-10.64731312 -3.46686435 2.25974107 -0.77756882 -0.93313336 0.99137139
-9.95034122 -2.56227112 1.97261930 -0.72666925 -0.68965507 0.86540818
-10.07941246 -2.02583170 1.87924922 -0.73609525 -0.54526824 0.82444578
-12.41949749 -2.92538214 1.04784191 -0.90699065 -0.78738922 0.45969892
-10.26596832 -2.96802497 1.30696404 -0.74971932 -0.79886687 0.57337844
-10.61673546 -2.66630030 1.26473594 -0.77533573 -0.71765536 0.55485255
-10.21405220 -3.14389849 1.59815764 -0.74592793 -0.84620458 0.70112801
-10.69786358 -3.53903246 2.27419114 -0.78126049 -0.95255792 0.99771082
-9.93973637 -2.62625551 1.97376943 -0.72589475 -0.70687699 0.86591274
-10.04722500 -2.08516479 1.87558985 -0.73374462 -0.56123823 0.82284033
-12.39893532 -3.00289226 1.04765677 -0.90548903 -0.80825168 0.45961767
-10.28700447 -3.04435539 1.31259620 -0.75125563 -0.81941175 0.57584929
-10.58824253 -2.73000383 1.26320958 -0.77325487 -0.73480165 0.55418289
-10.22428894 -3.21745110 1.60298848 -0.74667549 -0.86600184 0.70324737
-9.94765568 -2.69537854 1.97875321 -0.72647309 -0.72548199 0.86809915
-10.03200150 -2.14784384 1.87522399 -0.73263282 -0.57810879 0.82267988
-12.40302181 -3.08647108 1.04987860 -0.90578747 -0.83074754 0.46059242
-10.29990196 -3.11875534 1.31715548 -0.75219750 -0.83943713 0.57784951
-10.60733604 -2.80604911 1.26804292 -0.77464926 -0.75526983 0.55630332
-10.10970783 -3.25154138 1.58789194 -0.73830771 -0.87517750 0.69662434
-9.93808460 -2.75994396 1.98028672 -0.72577411 -0.74286026 0.86877191
-10.00870419 -2.20873451 1.87339437 -0.73093146 -0.59449798 0.82187718
-12.38724422 -3.16531992 1.05024886 -0.90463525 -0.85197031 0.46075487
-10.29524040 -3.18812823 1.31930101 -0.75185704 -0.85810935 0.57879078
-10.65270805 -2.88966322 1.27643764 -0.77796280 -0.77777517 0.55998617
-10.29393959 -3.38187551 1.62080252 -0.75176209 -0.91025794 0.71106255
-9.95262527 -2.83152628 1.98680413 -0.72683603 -0.76212716 0.87163121
-9.99462891 -2.27157712 1.87339437 -0.72990352 -0.61141253 0.82187718
-12.42877865 -3.25915456 1.05617356 -0.90766847 -0.87722665 0.46335408
-10.30521965 -3.26237941 1.32359207 -0.75258583 -0.87809461 0.58067334
-10.61139488 -2.95020461 1.27338505 -0.77494568 -0.79407036 0.55864698
-10.10931301 -3.39208150 1.59453440 -0.73827887 -0.91300493 0.69953847
-9.94405556 -2.89676762 1.98872089 -0.72621018 -0.77968740 0.87247211
-9.98207474 -2.33477402 1.87376022 -0.72898674 -0.62842250 0.82203770
-12.30031776 -3.30838847 1.04580534 -0.89828700 -0.89047831 0.45880544
-10.35047817 -3.34853959 1.33297884 -0.75589108 -0.90128529 0.58479136
-10.60219288 -3.01951838 1.27465701 -0.77427369 -0.81272674 0.55920500
-9.96415043 -2.95370340 1.99562168 -0.72767770 -0.79501212 0.87549955
-9.99583435 -2.38767672 1.87851739 -0.72999156 -0.64266163 0.82412469
-10.61834717 -3.07822776 1.27872717 -0.77545345 -0.82852882 0.56099063
-9.98669624 -3.02886534 2.00405598 -0.72932422 -0.81524253 0.87919974
-9.99591923 -2.45415521 1.88144481 -0.72999775 -0.66055483 0.82540900
-10.63495064 -3.15553880 1.28356051 -0.77666599 -0.84933764 0.56311107
-9.99932003 -3.10150099 2.01057315 -0.73024613 -0.83479297 0.88205892
-9.96122646 -2.51214218 1.87778544 -0.72746420 -0.67616248 0.82380360
-10.64150429 -3.23031592 1.28712189 -0.77714455 -0.86946452 0.56467348
-10.04134369 -3.18396497 2.02322459 -0.73331511 -0.85698879 0.88760924
-10.16425896 -2.63091707 1.91986740 -0.74229157 -0.70813167 0.84226537
-10.71009254 -3.32459402 1.29907811 -0.78215355 -0.89484018 0.56991881
-10.08272362 -3.26707888 2.03587580 -0.73633707 -0.87935954 0.89315945
-10.16273785 -2.69873643 1.92279482 -0.74218047 -0.72638577 0.84354967
-10.46239281 -3.46374321 2.11830115 -0.76406413 -0.93229324 0.92932028
-10.15317345 -2.76458883 1.92425847 -0.74148196 -0.74411047 0.84419179
-10.14572048 -2.81396914 1.92535627 -0.74093771 -0.75740153 0.84467340
-9.93292141 -2.82268453 1.88766563 -0.72539705 -0.75974739 0.82813811
-9.96977139 -2.90086198 1.89827752 -0.72808820 -0.78078943 0.83279365
-9.95700455 -2.96511865 1.89937532 -0.72715586 -0.79808462 0.83327526
-9.95511627 -3.03274536 1.90266871 -0.72701794 -0.81628686 0.83472013
-9.98845959 -3.11150670 1.91291475 -0.72945297 -0.83748609 0.83921516
-10.00182056 -3.16739130 1.91840363 -0.73042876 -0.85252786 0.84162319
-10.02103233 -3.24280858 1.92608821 -0.73183179 -0.87282699 0.84499449
-10.03221607 -3.31613755 1.93230891 -0.73264849 -0.89256406 0.84772360
-10.11184883 -3.41286850 1.95206916 -0.73846406 -0.91859996 0.85639262
