-20.62628365 3.16995668 1.68867576 -0.88949698 0.95053691 0.82937473
-20.54328156 3.02530217 1.67960513 -0.88591754 0.90716106 0.82491976
-20.58556175 2.89947772 1.68169844 -0.88774085 0.86943161 0.82594788
-20.76167107 3.08625579 0.98039436 -0.89533550 0.92543852 0.48151001
-20.56980133 2.76559806 1.67873299 -0.88706124 0.82928669 0.82449144
-20.58655739 2.66914320 1.67908192 -0.88778383 0.80036396 0.82466280
-20.56336784 2.53490591 1.67559314 -0.88678378 0.76011181 0.82294935
-20.61055565 2.40932345 1.67838418 -0.88881874 0.72245491 0.82432014
-20.57991600 3.18553424 1.57858551 -0.88749743 0.95520794 0.77530509
-20.54804611 2.27131581 1.67158115 -0.88612306 0.68107224 0.82097888
-20.50095558 3.04144287 1.57036901 -0.88409227 0.91200101 0.77126962
-21.73712730 2.57003260 1.02828264 -0.93740147 0.77064484 0.50502986
-20.56389427 2.14236903 1.67175567 -0.88680649 0.64240652 0.82106459
-20.55912399 2.91821337 1.57365561 -0.88660079 0.87504965 0.77288383
-20.84800911 3.13444114 0.86698771 -0.89905876 0.93988729 0.42581159
-20.56306648 2.01177645 1.67053461 -0.88677078 0.60324728 0.82046491
-20.55730438 2.78628325 1.57201231 -0.88652229 0.83548933 0.77207673
-20.57430267 1.91503608 1.67070901 -0.88725531 0.57423890 0.82055056
-20.54649353 2.68625450 1.57004035 -0.88605607 0.80549490 0.77110821
-22.87347031 3.18414521 0.96288580 -0.98640567 0.95479143 0.47291088
-20.58592987 1.78572702 1.67070901 -0.88775676 0.53546453 0.82055056
-20.55703163 2.55636120 1.56954730 -0.88651055 0.76654536 0.77086610
-20.73135948 3.33491182 1.47533011 -0.89402831 1.00000000 0.72459233
-20.93857765 1.97746527 0.98262912 -0.90296447 0.59295881 0.48260760
-20.64838219 1.66044891 1.67524433 -0.89045000 0.49789891 0.82277805
-20.55487442 2.42502856 1.56806839 -0.88641751 0.72716421 0.77013969
-20.52917480 3.17041421 1.45801425 -0.88530922 0.95067406 0.71608782
-20.78544998 1.83147728 0.97379643 -0.89636093 0.54918313 0.47826952
-20.56772423 2.29560852 1.56790400 -0.88697165 0.68835658 0.77005899
-20.60590363 3.04977465 1.46245813 -0.88861811 0.91449934 0.71827042
-20.84034157 1.70438206 0.97613764 -0.89872813 0.51107258 0.47941938
-20.56192207 2.16422725 1.56626070 -0.88672143 0.64896089 0.76925188
-20.61676025 2.91913414 1.46184516 -0.88908631 0.87532574 0.71796936
-20.58701515 2.03617978 1.56724668 -0.88780355 0.61056483 0.76973617
-20.79478455 2.81102109 1.47425747 -0.89676350 0.84290719 0.72406554
-20.55272675 1.93499029 1.56363142 -0.88632488 0.58022231 0.76796055
-20.87805748 3.03219080 0.76966035 -0.90035462 0.90922666 0.37801030
-20.62783432 2.68971014 1.46031284 -0.88956386 0.80653113 0.71721679
-20.60021591 1.80899000 1.56658936 -0.88837284 0.54244012 0.76941329
-20.64630699 2.56029296 1.46046603 -0.89036047 0.76772434 0.71729201
-21.02736282 2.02112412 0.86898756 -0.90679330 0.60605025 0.42679378
-20.59925652 1.67853713 1.56560338 -0.88833147 0.50332278 0.76892906
-20.61246872 2.42474294 1.45663512 -0.88890123 0.72707856 0.71541047
-20.54076958 3.20609546 1.33022094 -0.88580924 0.96137339 0.65332353
-20.84069061 1.87091064 0.85946441 -0.89874315 0.56100756 0.42211658
-20.82947159 2.31747913 1.47226536 -0.89825934 0.69491464 0.72308713
-20.58615494 3.08083510 1.33205271 -0.88776648 0.92381305 0.65422320
-20.82378769 2.18449759 1.47073305 -0.89801425 0.65503907 0.72233450
-20.61892700 2.95342231 1.33303916 -0.88917977 0.88560730 0.65470767
-20.81725502 2.05167913 1.46920061 -0.89773250 0.61521238 0.72158188
-20.62521935 2.82217789 1.33219373 -0.88945109 0.84625262 0.65429246
-20.80683517 1.95171463 1.46766829 -0.89728320 0.58523726 0.72082931
-20.62642288 2.72337437 1.33134818 -0.88950300 0.81662560 0.65387720
-20.63988495 1.80547976 1.45387685 -0.89008355 0.54138756 0.71405578
-20.61541939 2.59021282 1.32937539 -0.88902849 0.77669603 0.65290827
-21.34300423 2.85456800 0.65028220 -0.92040515 0.85596508 0.31937903
-20.62100410 1.67337072 1.45157826 -0.88926929 0.50177360 0.71292686
-20.61544037 2.45872641 1.32824814 -0.88902938 0.73726881 0.65235460
-20.54325676 3.21402383 1.21930230 -0.88591647 0.96375078 0.59884703
-20.86385345 1.86714351 0.76321304 -0.89974207 0.55987793 0.37484378
-21.06910515 2.68301725 0.63952750 -0.90859342 0.80452418 0.31409696
-20.61858940 2.32779360 1.32740259 -0.88916516 0.69800752 0.65193933
-20.65582085 3.09870982 1.22542584 -0.89077079 0.92917293 0.60185456
-21.10935593 2.55348706 0.64040548 -0.91032922 0.76568353 0.31452817
-20.64867592 2.19990444 1.32852995 -0.89046264 0.65965897 0.65249300
-20.66895676 2.96801972 1.22503507 -0.89133722 0.88998449 0.60166264
-21.10115623 2.41805005 0.63952750 -0.90997559 0.72507167 0.31409696
-20.64025688 2.06791329 1.32697988 -0.89009959 0.62008035 0.65173173
-20.62985039 2.83028460 1.22125661 -0.88965082 0.84868348 0.59980690
-21.09443855 2.31660604 0.63886905 -0.90968591 0.69465286 0.31377357
-20.63984299 1.96966839 1.32627535 -0.89008170 0.59062082 0.65138572
-20.62119102 2.73017764 1.21982348 -0.88927740 0.81866562 0.59910303
-21.11255455 2.18443608 0.63901538 -0.91046715 0.65502065 0.31384546
-20.63989067 1.83887243 1.32542980 -0.89008379 0.55140060 0.65097040
-20.62407684 2.59882474 1.21891141 -0.88940179 0.77927840 0.59865505
-21.19150352 2.05817819 0.64142972 -0.91387177 0.61716121 0.31503123
-20.67886925 1.71148384 1.32740259 -0.89176470 0.51320213 0.65193933
-20.60036087 2.46448684 1.21630561 -0.88837910 0.73899609 0.59737527
-20.62138939 2.33567119 1.21669650 -0.88928592 0.70036972 0.59756726
-20.58926010 3.11011124 1.10247672 -0.88790035 0.93259174 0.54146945
-22.91635704 1.93698454 0.70390946 -0.98825514 0.58082032 0.34571746
-21.90468597 1.53725171 1.41279638 -0.94462740 0.46095723 0.69387954
-20.64161110 2.20668864 1.21708739 -0.89015800 0.66169327 0.59775925
-22.88111115 2.63904953 0.59380668 -0.98673517 0.79134011 0.29164168
-20.64712524 2.07615995 1.21656621 -0.89039576 0.62255317 0.59750324
-21.37028503 3.21788669 1.87082648 -0.92158163 0.96490908 0.91883606
-22.98668671 2.54143834 0.59679139 -0.99128807 0.76207066 0.29310760
-20.66860008 1.97997010 1.21734798 -0.89132184 0.59370989 0.59788722
-20.64585876 2.75470567 1.10283351 -0.89034116 0.82602054 0.54164469
-22.98828316 2.39552140 0.59634686 -0.99135691 0.71831626 0.29288927
-20.67665672 1.84971547 1.21708739 -0.89166927 0.55465198 0.59775925
-20.62117386 2.61960626 1.10033572 -0.88927662 0.78550988 0.54041791
-20.72566223 1.72286892 1.21956289 -0.89378262 0.51661605 0.59897506
-20.62731743 2.48878312 1.09974098 -0.88954157 0.74628156 0.54012579
-21.03229904 2.76227689 1.83379686 -0.90700620 0.82829082 0.90064937
-20.94702339 1.60860646 1.23337352 -0.90332872 0.48235351 0.60575801
-20.76353073 2.37307620 1.10699654 -0.89541566 0.71158588 0.54368931
-21.02948189 2.62758541 1.83194530 -0.90688467 0.78790253 0.89973998
-23.18870544 1.97523630 0.60142732 -1.00000000 0.59229040 0.29538450
-20.66490173 2.23024774 1.10021675 -0.89116240 0.66875762 0.54035950
-21.52964020 1.73661721 2.03608298 -0.92845374 0.52073854 1.00000000
-21.08116722 2.49965715 1.83527803 -0.90911359 0.74954218 0.90137684
-20.66261864 2.09873366 1.09926522 -0.89106393 0.62932211 0.53989214
-21.49789810 1.63216674 2.03207612 -0.92708486 0.48941827 0.99803209
-21.11447525 2.40278482 1.83731461 -0.91055000 0.72049427 0.90237707
-23.09007835 2.56622624 0.44267485 -0.99574679 0.76950347 0.21741493
-20.67029190 2.00114608 1.09914625 -0.89139479 0.60005969 0.53983372
-21.01036835 2.25719452 1.82620573 -0.90606040 0.67683786 0.89692110
-20.60491943 1.86414027 1.09450746 -0.88857567 0.55897737 0.53755540
-22.07809258 2.23269868 1.92470467 -0.95210546 0.66949254 0.94529778
-20.71568871 1.74310708 1.10045469 -0.89335251 0.52268463 0.54047632
-21.10868454 1.86609912 1.83176017 -0.91030025 0.55956477 0.89964908
-21.45340347 1.76112020 1.86286509 -0.92516607 0.52808601 0.91492593
-21.41778564 1.65658438 1.85879183 -0.92363006 0.49674007 0.91292536
