-12.36987591 3.60394311 2.21117091 -0.79487073 0.96171933 0.98576474
-12.56296539 3.59575915 2.24310207 -0.80727839 0.95953542 1.00000000
-11.63949203 3.53131843 1.34563959 -0.74793732 0.94233930 0.59990120
-11.63506603 3.47022295 1.34297431 -0.74765289 0.92603582 0.59871298
-12.21194553 3.71505952 2.12353563 -0.78472239 0.99137098 0.94669592
-11.60133934 3.38103414 1.33594775 -0.74548566 0.90223563 0.59558046
-12.74876785 3.49710894 1.01902235 -0.81921780 0.93321043 0.45429155
-12.22182083 3.63430119 2.12120223 -0.78535694 0.96982044 0.94565570
-11.59751987 3.30105114 1.33279788 -0.74524027 0.88089198 0.59417623
-12.69732094 3.39748120 1.01239383 -0.81591189 0.90662456 0.45133650
-12.45830631 3.61995101 2.15886784 -0.80055314 0.96599108 0.96244740
-11.58932590 3.22019315 1.32916343 -0.74471372 0.85931486 0.59255594
-12.75007629 3.61846828 2.20619988 -0.81930190 0.96559536 0.98354858
-11.60933018 3.14731216 1.32916343 -0.74599916 0.83986646 0.59255594
-11.72015762 3.24500728 2.02153826 -0.75312078 0.86593658 0.90122437
-11.58087158 3.06170297 1.32310593 -0.74417043 0.81702149 0.58985543
-11.71557713 3.16457725 2.01720500 -0.75282645 0.84447366 0.89929253
-11.57594585 3.00214458 1.32068300 -0.74385393 0.80112821 0.58877528
-11.92426491 3.52200031 1.30854201 -0.76623642 0.93985271 0.58336270
-11.70368481 3.10221529 2.01253843 -0.75206226 0.82783228 0.89721215
-11.57724953 2.92500472 1.31850231 -0.74393773 0.78054327 0.58780307
-11.91181850 3.43703938 1.30437958 -0.76543665 0.91718072 0.58150703
-11.61239052 3.68457055 1.63983560 -0.74619579 0.98323488 0.73105705
-11.69813442 3.02216387 2.00820518 -0.75170559 0.80647039 0.89528036
-11.58961296 2.85079265 1.31777549 -0.74473214 0.76073962 0.58747905
-11.89304256 3.35074854 1.29952335 -0.76423013 0.89415383 0.57934207
-11.59560013 3.59928179 1.63376641 -0.74511689 0.96047544 0.72835135
-11.69395351 2.94278932 2.00420547 -0.75143695 0.78528911 0.89349723
-11.50829601 3.61526322 1.91831708 -0.73950684 0.96474010 0.85520720
-11.58798122 2.77332926 1.31535244 -0.74462730 0.74006838 0.58639884
-11.88705635 3.26853871 1.29628587 -0.76384544 0.87221599 0.57789874
-11.58009243 3.51492167 1.62798631 -0.74412036 0.93796378 0.72577453
-12.83340645 3.34691668 0.95511448 -0.82465655 0.89313132 0.42580071
-11.68923759 2.86358690 2.00020552 -0.75113392 0.76415378 0.89171398
-11.48735523 3.52961993 1.91096795 -0.73816121 0.94188601 0.85193092
-11.59744072 2.69867921 1.31438327 -0.74523515 0.72014785 0.58596677
-11.88050747 3.18653655 1.29304838 -0.76342463 0.85033357 0.57645541
-11.56778145 3.43201828 1.62278414 -0.74332929 0.91584086 0.72345531
-12.80011177 3.25238895 0.95051324 -0.82251710 0.86790639 0.42374945
-11.71850395 2.79284787 2.00220537 -0.75301450 0.74527693 0.89260554
-11.48660374 3.45059586 1.90713358 -0.73811293 0.92079830 0.85022151
-11.59092140 2.62054372 1.31147575 -0.74481624 0.69929725 0.58467054
-11.87531948 3.10525203 1.29004216 -0.76309127 0.82864261 0.57511520
-11.57200146 3.35433865 1.62018311 -0.74360049 0.89511186 0.72229576
-12.77967644 3.16178417 0.94706225 -0.82120395 0.84372830 0.42221096
-11.80111313 2.73440814 2.01353836 -0.75832283 0.72968221 0.89765793
-11.47773266 3.36950922 1.90202117 -0.73754287 0.89916015 0.84794229
-11.58568954 2.56206584 1.30929506 -0.74448007 0.68369234 0.58369839
-11.85904503 3.04130936 1.28634226 -0.76204550 0.81157941 0.57346576
-12.22939491 3.67296386 1.29738355 -0.78584367 0.98013765 0.57838809
-11.53245640 3.28414488 1.61180186 -0.74105936 0.87638050 0.71855932
-12.76345158 3.09396529 0.94443297 -0.82016134 0.82563072 0.42103878
-11.76965141 2.66866231 2.00587201 -0.75630116 0.71213782 0.89424020
-11.45742321 3.30504918 1.89595008 -0.73623782 0.88195890 0.84523576
-11.59184933 2.48715496 1.30808353 -0.74487585 0.66370219 0.58315825
-11.85672760 2.96140671 1.28379846 -0.76189655 0.79025722 0.57233173
-11.55477142 3.21214700 1.61209095 -0.74249327 0.85716778 0.71868819
-11.58704472 3.67895341 1.57459092 -0.74456716 0.98173594 0.70197022
-13.41958332 2.65629768 1.05931664 -0.86232346 0.70883828 0.47225520
-12.73609543 3.00266004 0.94048905 -0.81840348 0.80126572 0.41928053
-11.68030071 2.57116199 1.98753917 -0.75055963 0.68611962 0.88606721
-11.44754314 3.22448277 1.89083767 -0.73560297 0.86045957 0.84295660
-11.60919285 2.41467357 1.30832589 -0.74599034 0.64436042 0.58326632
-11.88474846 2.88921309 1.28495467 -0.76369715 0.77099222 0.57284719
-11.55179501 3.13330531 1.60862279 -0.74230200 0.83612871 0.71714205
-11.46437740 3.56060147 1.55309379 -0.73668468 0.95015353 0.69238657
-13.42622089 2.57006955 1.05844450 -0.86274999 0.68582815 0.47186640
-12.74694157 2.92078519 0.93983173 -0.81910044 0.77941728 0.41898751
-11.78490543 2.51681757 2.00287199 -0.75728136 0.67161775 0.89290273
-11.44662666 3.14677167 1.88732278 -0.73554409 0.83972222 0.84138960
-11.65917778 2.34868050 1.31268728 -0.74920231 0.62674999 0.58521068
-11.86981487 2.80665660 1.28102350 -0.76273751 0.74896187 0.57109463
-11.58273792 3.06367874 1.61035693 -0.74429035 0.81754869 0.71791512
-11.59447956 3.52148557 1.56900716 -0.74504489 0.93971539 0.69948095
-12.76992607 2.36239767 0.99861354 -0.82057738 0.63041049 0.44519308
-12.75920677 2.83932853 0.93933874 -0.81988859 0.75768042 0.41876772
-11.81399918 2.44554281 2.00520539 -0.75915092 0.65259790 0.89394301
-11.43373966 3.06615114 1.88189077 -0.73471594 0.81820846 0.83896798
-11.75167465 2.29043698 1.32237911 -0.75514603 0.61120760 0.58953142
-11.89302063 2.73336601 1.28171730 -0.76422870 0.72940409 0.57140392
-11.57683563 2.98446226 1.60659981 -0.74391109 0.79640961 0.71624017
-11.62396717 3.45083332 1.57012391 -0.74693972 0.92086166 0.69997883
-12.95324326 2.31196165 1.01361489 -0.83235711 0.61695153 0.45188087
-12.77484703 2.75868082 0.93917441 -0.82089365 0.73615938 0.41869447
-13.33304214 3.39797688 0.91907513 -0.85676247 0.90675682 0.40973398
-11.81366920 2.36813855 2.00253868 -0.75912970 0.63194245 0.89275414
-11.44895744 2.99325848 1.88125169 -0.73569381 0.79875690 0.83868307
-11.49730206 3.67679119 1.80951047 -0.73880041 0.98115897 0.80669999
-11.86731625 2.23549390 1.33497858 -0.76257700 0.59654593 0.59514838
-11.97391891 2.67297554 1.28934848 -0.76942712 0.71328878 0.57480597
-11.59151840 2.91070700 1.60602176 -0.74485457 0.77672791 0.71598250
-11.56747437 3.35498047 1.55867743 -0.74330956 0.89528316 0.69487584
-13.43888855 2.31085968 1.05547917 -0.86356401 0.61665744 0.47054443
-12.79972935 2.68000627 0.93983173 -0.82249254 0.71516496 0.41898751
-13.22828102 3.28310180 0.90911466 -0.85003066 0.87610221 0.40529349
-11.43117142 2.91206646 1.87518072 -0.73455095 0.77709067 0.83597654
-11.47868729 3.59142113 1.80286801 -0.73760426 0.95837778 0.80373871
-12.02812004 2.20688272 1.35363543 -0.77291000 0.58891100 0.60346580
-11.88161278 2.59346795 1.27686107 -0.76349568 0.69207203 0.56923896
-12.12708950 3.16989517 1.27100754 -0.77926964 0.84589279 0.56662941
-11.57242393 2.84806705 1.60110867 -0.74362761 0.76001233 0.71379215
-11.55079365 3.29115272 1.55393136 -0.74223769 0.87825060 0.69275999
-12.78293324 2.61362457 0.93736678 -0.82141322 0.69745088 0.41788861
-13.15250301 3.19871736 0.90191245 -0.84516126 0.85358405 0.40208265
-11.42752075 2.85389066 1.87230492 -0.73431635 0.76156634 0.83469450
-11.45393372 3.52442694 1.79622543 -0.73601359 0.94050026 0.80077738
-12.20796299 2.16039777 1.37423062 -0.78446645 0.57650638 0.61264741
-11.86464500 2.51171303 1.27292979 -0.76240534 0.67025554 0.56748635
-12.00803852 3.05854344 1.25491381 -0.77161962 0.81617832 0.55945462
-11.74198055 3.74739599 1.52875948 -0.75452310 1.00000000 0.68153811
-12.84992504 2.54339719 0.94163936 -0.82571805 0.67871052 0.41979337
-13.11992836 3.10369945 0.89777499 -0.84306806 0.82822829 0.40023813
-12.17863560 2.22371364 2.05853724 -0.78258193 0.59340239 0.91771895
-11.43179131 2.77879238 1.87006819 -0.73459077 0.74152625 0.83369732
-11.43800640 3.44093513 1.79018676 -0.73499012 0.91822034 0.79808527
-12.45424747 2.12297440 1.40306401 -0.80029237 0.56651992 0.62550163
-11.87046528 2.43510389 1.27177358 -0.76277936 0.64981228 0.56697088
-12.08298302 2.99681807 1.26139593 -0.77643543 0.79970682 0.56234443
-11.53788376 2.68638587 1.59070444 -0.74140811 0.71686739 0.70915383
-11.45942020 3.10973144 1.53466773 -0.73636615 0.82983798 0.68417203
-11.72175980 3.66003108 1.52259099 -0.75322372 0.97668648 0.67878813
-12.86760902 2.46298695 0.94180369 -0.82685441 0.65725291 0.41986662
-13.11389732 3.01543260 0.89578289 -0.84268051 0.80467415 0.39935005
-12.20401669 2.14922094 2.06053710 -0.78421289 0.57352382 0.91861051
-11.44518089 2.70600796 1.86942923 -0.73545116 0.72210354 0.83341247
-11.43665028 3.36227012 1.78656363 -0.73490298 0.89722842 0.79647005
-12.79459572 2.09781051 1.44352758 -0.82216263 0.55980486 0.64354074
-11.89137554 2.36164260 1.27246737 -0.76412302 0.63020897 0.56728017
-12.13636398 2.92917657 1.26541948 -0.77986562 0.78165656 0.56413817
-11.59122372 2.62207222 1.59619558 -0.74483567 0.69970512 0.71160185
-11.78108883 3.11823702 1.57877862 -0.75703615 0.83210766 0.70383716
-11.60039139 3.54255772 1.50220835 -0.74542475 0.94533849 0.66970128
-12.92985725 2.39086032 0.94574761 -0.83085436 0.63800579 0.42162487
-13.10143566 2.92606926 0.89333111 -0.84187973 0.78082734 0.39825702
-12.32223988 2.09048128 2.07853675 -0.79180974 0.55784905 0.92663491
-11.44270802 2.62965441 1.86623383 -0.73529226 0.70172846 0.83198792
-11.42905998 3.28211117 1.78203464 -0.73441523 0.87583780 0.79445100
-13.16256809 2.07273316 1.48738337 -0.84580803 0.55311292 0.66309214
-11.95863724 2.29708695 1.27871108 -0.76844513 0.61298215 0.57006371
-11.55912781 2.53866100 1.58897042 -0.74277323 0.67744666 0.70838082
-11.78894806 3.04116583 1.57710350 -0.75754118 0.81154108 0.70309037
-13.06107616 2.83110929 0.88873392 -0.83928633 0.75548708 0.39620751
-12.63477898 2.06241894 2.12986875 -0.81189305 0.55036056 0.94951934
-11.46093273 2.55813313 1.86655343 -0.73646337 0.68264288 0.83213037
-11.43233204 3.20540285 1.77931726 -0.73462552 0.85536808 0.79323953
-13.66619492 2.06336331 1.54795754 -0.87817037 0.55061257 0.69009680
-12.05874920 2.23799634 1.28888595 -0.77487820 0.59721375 0.57459980
-12.08110809 2.75581431 1.25491381 -0.77631491 0.73539448 0.55945462
-11.58065891 2.46721053 1.58983743 -0.74415678 0.65837997 0.70876729
-11.74830627 2.95197320 1.56844890 -0.75492954 0.78773987 0.69923204
-11.59449863 3.38216019 1.49523532 -0.74504608 0.90253609 0.66659266
-13.52447891 2.32634640 0.99307489 -0.86906391 0.62079012 0.44272390
-13.09031963 2.75143194 0.88965338 -0.84116542 0.73422503 0.39661744
-11.45168591 2.48068166 1.86239958 -0.73586917 0.66197479 0.83027858
-11.41221809 3.12248254 1.77297664 -0.73333299 0.83324063 0.79041284
-12.23528004 2.21145177 1.30854201 -0.78622180 0.59013027 0.58336270
-12.09784126 2.69971251 1.25536084 -0.77739018 0.72042358 0.55965394
-13.52558708 3.53757882 1.33794951 -0.86913514 0.94400990 0.59647286
-11.56696033 2.40741181 1.58608031 -0.74327654 0.64242256 0.70709234
-11.76593113 2.89753151 1.56900716 -0.75606209 0.77321202 0.69948095
-13.10118580 2.68931699 0.88950014 -0.84186369 0.71764952 0.39654911
-11.45938396 2.42587829 1.86176050 -0.73636383 0.64735037 0.82999367
-11.41535473 3.06557298 1.77116501 -0.73353457 0.81805420 0.78960520
-14.75983334 2.06115246 1.68000937 -0.94844604 0.55002260 0.74896699
-12.43675995 2.16757989 1.33074176 -0.79916865 0.57842296 0.59325957
-12.07375908 2.61487961 1.25066674 -0.77584273 0.69778579 0.55756122
-13.51864815 3.44511604 1.33479857 -0.86868924 0.91933602 0.59506816
-11.61678982 2.34166646 1.59128249 -0.74647850 0.62487829 0.70941156
-11.57599068 2.77335978 1.53885543 -0.74385679 0.74007654 0.68603897
-11.53169060 3.22686648 1.48128939 -0.74101013 0.86109567 0.66037536
-14.23787022 2.28921628 1.05059063 -0.91490543 0.61088187 0.46836507
-13.11586857 2.60656142 0.88934690 -0.84280717 0.69556606 0.39648080
-11.48600864 2.35618973 1.86367762 -0.73807472 0.62875384 0.83084834
-11.41336155 2.98824358 1.76784372 -0.73340648 0.79741871 0.78812450
-15.47318363 2.06076455 1.76626706 -0.99428493 0.54991907 0.78742164
-12.69888306 2.13155270 1.36011028 -0.81601226 0.56880903 0.60635239
-12.09967899 2.54099321 1.25178444 -0.77750826 0.67806906 0.55805951
-13.51301193 3.35336256 1.33185780 -0.86832708 0.89485139 0.59375709
-11.60407066 2.26337290 1.58723640 -0.74566120 0.60398549 0.70760775
-11.58161926 2.69785595 1.53718042 -0.74421847 0.71992815 0.68529224
-11.61103535 3.17043114 1.48960328 -0.74610871 0.84603578 0.66408181
-11.51616192 3.59175539 1.40795553 -0.74001229 0.95846701 0.62768233
-13.15745163 2.52895570 0.89133900 -0.84547925 0.67485678 0.39736891
-11.49864864 2.28359389 1.86335814 -0.73888689 0.60938156 0.83070588
-11.41467762 2.91204453 1.76512635 -0.73349106 0.77708483 0.78691310
-13.03162003 2.10382247 1.39780366 -0.83739352 0.56140918 0.62315649
-12.10566425 2.46295381 1.25066674 -0.77789289 0.65724409 0.55756122
-12.73562050 3.07439518 1.24510193 -0.81837296 0.82040840 0.55508035
-11.64275074 2.63516450 1.54360151 -0.74814671 0.70319885 0.68815482
-11.61539841 3.09336042 1.48745775 -0.74638909 0.82546932 0.66312534
-11.54419136 3.52107263 1.40871871 -0.74181342 0.93960518 0.62802255
-13.21622753 2.45418000 0.89471024 -0.84925610 0.65490276 0.39887184
-11.53022575 2.21462250 1.86623383 -0.74091601 0.59097636 0.83198792
-11.42315960 2.83786702 1.76361668 -0.73403609 0.75729042 0.78624004
-13.40571308 2.07844639 1.44035327 -0.86143219 0.55463749 0.64212561
-12.10334492 2.38341641 1.24865508 -0.77774388 0.63601935 0.55666441
-12.70629597 2.98287535 1.23985028 -0.81648862 0.79598618 0.55273914
-11.77572060 2.14335680 1.60862279 -0.75669116 0.57195896 0.71714205
-11.60880566 2.55082273 1.53634286 -0.74596548 0.68069208 0.68491882
-11.62308979 3.01734972 1.48584867 -0.74688333 0.80518574 0.66240793
-11.53568554 3.43934917 1.40464854 -0.74126685 0.91779709 0.62620801
-13.34722614 2.39166999 0.90375131 -0.85767388 0.63822186 0.40290245
-11.41771412 2.76042247 1.75999355 -0.73368621 0.73662418 0.78462481
-13.84088898 2.05759454 1.49007154 -0.88939595 0.54907316 0.66429055
-12.14542389 2.31248164 1.25178444 -0.78044778 0.61709028 0.55805951
-12.68601894 2.89407277 1.23564911 -0.81518567 0.77228904 0.55086619
-11.97418499 2.10151505 1.63607848 -0.76944423 0.56079346 0.72938210
-11.53553867 2.45868874 1.52350044 -0.74125743 0.65610594 0.67919356
-13.58698654 3.63820434 1.27757490 -0.87308055 0.97086197 0.56955719
-11.61875153 2.93846822 1.48263037 -0.74660456 0.78413606 0.66097319
-11.53803062 3.36122036 1.40210462 -0.74141753 0.89694828 0.62507391
-13.64699268 2.35654306 0.92597085 -0.87693650 0.62884814 0.41280818
-12.13062382 2.17122722 1.96049488 -0.77949673 0.57939625 0.87401056
-11.42136669 2.68543792 1.75787997 -0.73392087 0.71661443 0.78368258
-14.35960865 2.06634760 1.54996479 -0.92272818 0.55140895 0.69099164
-12.19528008 2.26240849 1.25625491 -0.78365147 0.60372818 0.56005251
-12.67234898 2.82815194 1.23270822 -0.81430727 0.75469792 0.54955512
-12.24348545 2.08890724 1.67451632 -0.78674906 0.55742902 0.74651814
-11.73112011 2.44297099 1.55002272 -0.75382519 0.65191162 0.69101745
-11.60937595 2.87800026 1.47941196 -0.74600208 0.76800007 0.65953839
-11.51942921 3.29692793 1.39752567 -0.74022228 0.87979174 0.62303257
-14.01595783 2.35175180 0.95386022 -0.90064567 0.62756962 0.42524156
-12.13877487 2.11370373 1.96017540 -0.78002053 0.56404603 0.87386811
-11.41078281 2.62622499 1.75425684 -0.73324078 0.70081329 0.78206730
-14.98032475 2.06054950 1.62142038 -0.96261454 0.54986167 0.72284734
-12.38537884 2.21697164 1.27637219 -0.79586697 0.59160322 0.56902099
-12.75010777 2.76161981 1.23922014 -0.81930393 0.73694366 0.55245823
-12.88340855 2.11381578 1.76728737 -0.82786965 0.56407589 0.78787649
-11.72683144 2.36526585 1.54723096 -0.75354964 0.63117588 0.68977284
-13.47960472 3.45129299 1.26234865 -0.86618036 0.92098433 0.56276917
-11.60988235 2.80084658 1.47699833 -0.74603462 0.74741143 0.65846241
-11.52082062 3.21911359 1.39498186 -0.74031168 0.85902679 0.62189853
-12.34463501 2.06939363 1.99180877 -0.79324883 0.55222178 0.88797063
-11.42127228 2.55317354 1.75335097 -0.73391485 0.68131942 0.78166348
-15.56212234 2.04181004 1.68825102 -1.00000000 0.54486102 0.75264120
-12.61064529 2.17525887 1.30051291 -0.81034225 0.58047211 0.57978320
-12.57846165 2.64150548 1.21884406 -0.80827415 0.70489097 0.54337430
-11.66373730 2.27623129 1.53606367 -0.74949527 0.60741681 0.68479437
-13.48170853 3.36174417 1.26034522 -0.86631554 0.89708805 0.56187600
-11.62532043 2.72739530 1.47673011 -0.74702668 0.72781080 0.65834278
-11.53316784 3.14456272 1.39396429 -0.74110508 0.83913273 0.62144488
-12.75317478 2.05492282 2.05667305 -0.81950098 0.54836023 0.91688788
-11.43515778 2.48093891 1.75304902 -0.73480707 0.66204345 0.78152889
-12.56753349 2.55682659 1.21590316 -0.80757195 0.68229419 0.54206324
-13.67031574 2.06565571 1.87971091 -0.87843519 0.55122429 0.83799613
-13.48708820 3.27323842 1.25874245 -0.86666125 0.87347013 0.56116146
-11.56877041 2.63768196 1.46653879 -0.74339283 0.70387065 0.65379941
-11.53353500 3.06690574 1.39142036 -0.74112868 0.81840986 0.62031078
-11.46599197 2.41232443 1.75546455 -0.73678845 0.64373350 0.78260577
-13.23377609 2.11088538 1.36846459 -0.85038376 0.56329393 0.61007684
-12.55798912 2.47277665 1.21317232 -0.80695862 0.65986532 0.54084581
-14.80750751 2.14072919 2.04560065 -0.95150954 0.57125777 0.91195166
-13.55776024 3.20024490 1.26395142 -0.87120253 0.85399163 0.56348366
-11.50574684 2.54751205 1.45554280 -0.73934305 0.67980862 0.64889729
-11.51610756 2.98485923 1.38658702 -0.74000883 0.79651558 0.61815602
-11.46543026 2.33704853 1.75304902 -0.73675233 0.62364602 0.78152889
-13.67712116 2.09289885 1.41741657 -0.87887251 0.55849415 0.63190019
-13.44637966 2.56149220 1.30707037 -0.86404538 0.68353921 0.58270657
-14.93438911 2.06320405 2.06236315 -0.95966274 0.55057007 0.91942459
-11.98926353 2.10649467 1.57682431 -0.77041316 0.56212223 0.70296592
-13.52019119 3.62621593 1.16300428 -0.86878836 0.96766287 0.51848030
-11.62232494 2.49664235 1.46948886 -0.74683416 0.66623396 0.65511459
-11.54040241 2.91390967 1.38735020 -0.74156994 0.77758253 0.61849624
-11.51091194 2.27114058 1.75787997 -0.73967493 0.60605836 0.78368258
-12.38109970 2.29649544 1.19132590 -0.79559195 0.61282432 0.53110641
-15.29514313 2.03915548 2.11409521 -0.98284429 0.54415268 0.94248730
-12.23129463 2.09004951 1.61004710 -0.78596574 0.55773383 0.71777701
-11.55052471 2.42448258 1.45795655 -0.74222040 0.64697796 0.64997333
-11.54053116 2.85613561 1.38556945 -0.74157822 0.76216543 0.61770236
-11.51178265 2.21498680 1.75637031 -0.73973089 0.59107357 0.78300953
-14.64207268 2.07464647 1.52448511 -0.94087893 0.55362350 0.67963254
-12.53424931 2.24376321 1.20624030 -0.80543315 0.59875262 0.53775543
-12.78534698 2.10304475 1.68738067 -0.82156831 0.56120163 0.75225317
-11.63741684 2.36635017 1.46787977 -0.74780399 0.63146520 0.65439725
-11.54089928 2.77935839 1.38328004 -0.74160188 0.74167728 0.61668169
-15.50975227 2.09707165 1.62149513 -0.99663478 0.55960768 0.72288066
-13.48812199 3.36877608 1.15411711 -0.86672765 0.89896452 0.51451832
-11.64621925 2.29204583 1.46707511 -0.74836957 0.61163694 0.65403849
-11.56199551 2.70770168 1.38378882 -0.74295747 0.72255552 0.61690855
-11.82273579 2.12162066 1.80045247 -0.75971228 0.56615865 0.80266184
-13.60358143 2.06368852 1.80044973 -0.87414694 0.55069935 0.80266064
-13.49354744 3.28017592 1.15263593 -0.86707628 0.87532139 0.51385802
-11.54204273 2.62657619 1.37895548 -0.74167538 0.70090705 0.61475378
-12.08317471 2.09051013 1.83879793 -0.77644771 0.55785674 0.81975669
-13.50504684 2.15720224 1.30580997 -0.86781526 0.57565367 0.58214468
-13.39896393 2.65621352 1.23670447 -0.86099851 0.70881581 0.55133671
-11.80084515 2.16858697 1.48450768 -0.75830567 0.57869172 0.66181016
-11.56025505 2.55443525 1.37920988 -0.74284565 0.68165606 0.61486721
-12.39632130 2.06506586 1.88529563 -0.79657012 0.55106688 0.84048587
-13.97040462 2.14229417 1.35412443 -0.89771849 0.57167542 0.60368383
-14.79730892 2.05666494 1.96684277 -0.95085418 0.54882509 0.87684053
-13.39974880 2.56899905 1.23510170 -0.86104894 0.68554246 0.55062217
-11.98211765 2.12386560 1.50757229 -0.76995397 0.56675774 0.67209262
-11.55862522 2.47797751 1.37692034 -0.74274093 0.66125315 0.61384648
-12.78182602 2.04745054 1.94296467 -0.82134211 0.54636621 0.86619538
-14.23407936 2.11449599 1.38122249 -0.91466182 0.56425744 0.61576444
-15.10513115 2.02735281 2.00927854 -0.97063440 0.54100311 0.89575887
-12.48426247 2.33397388 1.14013791 -0.80222106 0.62282550 0.50828624
-12.21080589 2.10472393 1.53760982 -0.78464913 0.56164974 0.68548363
-11.57405663 2.42430162 1.37742913 -0.74373251 0.64692968 0.61407334
-14.70186424 2.09031582 1.42974699 -0.94472104 0.55780488 0.63739723
-12.58878899 2.27159929 1.14935374 -0.80893779 0.60618073 0.51239479
-12.62862778 2.09444141 1.59312570 -0.81149781 0.55890584 0.71023327
-11.58128643 2.34994102 1.37641156 -0.74419713 0.62708640 0.61361969
-15.25856209 2.07250166 1.48772418 -0.98049366 0.55305117 0.66324407
-13.58333015 2.36142802 1.24952650 -0.87284559 0.63015169 0.55705291
-12.95868874 2.06508970 1.63657296 -0.83270705 0.55107325 0.72960252
-13.49778080 2.25942898 1.23930895 -0.86734831 0.60293305 0.55249780
-13.41624260 2.05094767 1.69745266 -0.86210883 0.54729944 0.75674337
-11.68004036 2.21766591 1.38556945 -0.75054288 0.59178853 0.61770236
-13.58049011 2.18554044 1.24632096 -0.87266314 0.58321577 0.55562383
-13.44084072 2.66916347 1.13560224 -0.86368942 0.71227151 0.50626421
-13.96433926 2.04420996 1.77066934 -0.89732873 0.54550147 0.78938419
-11.78152084 2.16048551 1.39701688 -0.75706387 0.57652980 0.62280577
-14.76611233 2.06573987 1.87848270 -0.94884950 0.55124676 0.83744860
-12.03506184 2.12932801 1.42830646 -0.77335608 0.56821537 0.63675499
-14.44029140 2.16003561 1.33146787 -0.92791271 0.57640976 0.59358329
-12.65923309 2.36832666 1.05895078 -0.81346446 0.63199264 0.47209209
-15.14303589 2.04525137 1.92863476 -0.97307009 0.54577935 0.85980695
-12.28340721 2.11402869 1.45934165 -0.78931439 0.56413269 0.65059084
-12.76594353 2.30551863 1.06765282 -0.82032150 0.61523217 0.47597158
-12.57623482 2.08362222 1.49571884 -0.80813110 0.55601871 0.66680819
-12.95337391 2.06316590 1.54303479 -0.83236551 0.55055988 0.68790215
-13.37582874 2.04501343 1.59620154 -0.85951185 0.54571587 0.71160448
-13.88685894 2.03470087 1.66081572 -0.89234996 0.54296392 0.74041021
-14.46701336 2.02777767 1.73433340 -0.92962986 0.54111648 0.77318525
-15.11124992 2.04641604 1.81650031 -0.97102755 0.54609013 0.80981618
-14.42234612 1.97997630 1.21503091 -0.92675960 0.52836055 0.54167438
