-0.90273225 3.69484663 1.11983013 -0.28657672 0.94088441 0.61664933
-1.29505789 2.65526867 1.13714826 -0.41112238 0.67615819 0.62618583
-1.17108357 2.70617414 1.11355960 -0.37176612 0.68912119 0.61319637
-0.97134215 2.78405595 1.08615506 -0.30835727 0.70895362 0.59810573
-0.86099136 2.89020157 1.08412480 -0.27332586 0.73598337 0.59698772
-1.04646409 2.79299808 1.27556050 -0.33220509 0.71123070 0.70240432
-1.09327912 3.40477109 1.50436401 -0.34706673 0.86701733 0.82839805
-0.66967005 3.02098656 1.07892704 -0.21258999 0.76928747 0.59412551
-0.55436736 3.18852973 1.09542930 -0.17598660 0.81195194 0.60321271
-0.65441537 2.71501517 1.13135016 -0.20774733 0.69137251 0.62299299
-0.53964961 2.77896166 1.11826611 -0.17131437 0.70765638 0.61578810
-1.53827167 2.96910954 1.09735298 -0.48833176 0.75607711 0.60427201
-1.41527009 3.07435989 1.08767474 -0.44928432 0.78287888 0.59894258
-1.20551455 3.19544101 1.07103205 -0.38269642 0.81371188 0.58977801
-1.11020815 3.41290689 1.09247315 -0.35244095 0.86908907 0.60158485
-0.92497814 3.68539453 1.11866796 -0.29363877 0.93847746 0.61600935
-1.31589949 2.65537810 1.14083922 -0.41773865 0.67618608 0.62821829
-1.19028068 2.70389438 1.11573899 -0.37786034 0.68854064 0.61439651
-0.98945457 2.77965474 1.08686638 -0.31410712 0.70783287 0.59849739
-0.87966841 2.88653183 1.08482099 -0.27925497 0.73504889 0.59737110
-1.06000412 2.77613354 1.27072799 -0.33650342 0.70693618 0.69974327
-1.10733652 3.37510467 1.49407518 -0.35152933 0.85946286 0.82273233
-0.68691492 3.00939274 1.07621598 -0.21806446 0.76633513 0.59263265
-0.56792229 3.14778113 1.08223355 -0.18028967 0.80157542 0.59594631
-0.66917795 2.70191097 1.12749267 -0.21243377 0.68803555 0.62086880
-0.55463988 2.76278806 1.11297929 -0.17607310 0.70353776 0.61287683
-1.55689669 2.95938587 1.09735298 -0.49424437 0.75360096 0.60427201
-1.44488394 3.08782005 1.09586287 -0.45868540 0.78630644 0.60345143
-1.22418141 3.18425989 1.06979942 -0.38862231 0.81086463 0.58909929
-1.12571657 3.38772321 1.08647823 -0.35736415 0.86267614 0.59828371
-0.94567853 3.67025685 1.11576259 -0.30021021 0.93462270 0.61440951
-1.33764076 2.65698481 1.14526844 -0.42464051 0.67659521 0.63065732
-1.20799589 2.69806814 1.11646545 -0.38348413 0.68705702 0.61479652
-1.01275003 2.78915620 1.09326804 -0.32150239 0.71025240 0.60202259
-0.89778751 2.88094783 1.08482099 -0.28500697 0.73362690 0.59737110
-1.51981747 3.88390803 1.79827273 -0.48247340 0.98902845 0.99024278
-1.13827145 3.39774346 1.50752974 -0.36134976 0.86522776 0.83014131
-0.70580977 3.00501728 1.07621598 -0.22406273 0.76522094 0.59263265
-0.58768904 3.14415050 1.08223355 -0.18656473 0.80065089 0.59594631
-0.68801278 2.70479274 1.13057876 -0.21841298 0.68876940 0.62256819
-0.57162511 2.75743270 1.11222410 -0.18146515 0.70217407 0.61246097
-1.56733668 2.93455672 1.09157777 -0.49755859 0.74727827 0.60109180
-1.46023130 3.07008529 1.09271359 -0.46355748 0.78179032 0.60171729
-1.25050449 3.19241238 1.07534623 -0.39697868 0.81294066 0.59215367
-1.14697981 3.38058329 1.08647823 -0.36411428 0.86085796 0.59828371
-0.96273202 3.64207244 1.10878968 -0.30562392 0.92744559 0.61056978
-1.35173583 2.64358020 1.14305389 -0.42911506 0.67318177 0.62943780
-1.22872663 2.69893074 1.12009776 -0.39006519 0.68727666 0.61679673
-1.02959371 2.78098941 1.09255683 -0.32684949 0.70817274 0.60163093
-0.91420025 2.86987925 1.08273220 -0.29021728 0.73080832 0.59622085
-1.55036533 3.88955712 1.80552149 -0.49217096 0.99046701 0.99423438
-0.99885738 2.91168046 1.28988099 -0.31709209 0.74145293 0.71029013
-0.72649199 3.00782776 1.07892704 -0.23062839 0.76593661 0.59412551
-0.60639232 3.13482833 1.08025420 -0.19250217 0.79827702 0.59485632
-0.70451474 2.69863439 1.12980723 -0.22365160 0.68720120 0.62214339
-0.58856493 2.75197291 1.11146879 -0.18684278 0.70078373 0.61204505
-1.58209181 2.91801214 1.08901107 -0.50224268 0.74306524 0.59967840
-1.48357153 3.06941962 1.09586287 -0.47096694 0.78162080 0.60345143
-1.26481390 3.17038846 1.07041574 -0.40152130 0.80733234 0.58943868
-1.16819787 3.37330985 1.08647823 -0.37085006 0.85900581 0.59828371
-0.98406476 3.63041854 1.10704648 -0.31239611 0.92447793 0.60960984
-1.24604201 2.70329595 1.12445652 -0.39556205 0.68838823 0.61919695
-1.04201806 2.77436137 1.09184551 -0.33079368 0.70648491 0.60123926
-0.92941028 2.87090206 1.08482099 -0.29504579 0.73106879 0.59737110
-1.57284164 3.89237189 1.81035388 -0.49930617 0.99118376 0.99689543
-1.00071299 2.87217164 1.27405190 -0.31768116 0.73139209 0.70157361
-0.73603398 2.98613119 1.07214928 -0.23365754 0.76041162 0.59039325
-0.62115806 3.13193583 1.08025420 -0.19718963 0.79754043 0.59485632
-0.71381146 2.68282700 1.12440658 -0.22660290 0.68317586 0.61916941
-0.60190946 2.75098085 1.11222410 -0.19107907 0.70053113 0.61246097
-1.60871708 2.93369961 1.09799469 -0.51069498 0.74706000 0.60462534
-1.50213885 3.07094502 1.09901214 -0.47686124 0.78200924 0.60518563
-1.28697836 3.18198895 1.07657886 -0.40855750 0.81028634 0.59283245
-1.18657160 3.37498188 1.08887613 -0.37668288 0.85943156 0.59960413
-0.99804568 3.61468935 1.10355997 -0.31683442 0.92047256 0.60768998
-1.26144445 2.69202805 1.12300360 -0.40045163 0.68551892 0.61839688
-1.06010938 2.76950049 1.09255683 -0.33653685 0.70524710 0.60163093
-0.94858354 2.86857390 1.08621359 -0.30113244 0.73047590 0.59813797
-1.60079038 3.89086080 1.81438100 -0.50817865 0.99079901 0.99911302
-1.01209974 2.84674549 1.26534593 -0.32129595 0.72491735 0.69677955
-0.75336021 2.97598481 1.07011592 -0.23915784 0.75782788 0.58927357
-0.63274711 3.08722734 1.06573892 -0.20086862 0.78615552 0.58686328
-0.73364592 2.68894839 1.12903571 -0.23289944 0.68473470 0.62171853
-0.61484694 2.72724032 1.10391629 -0.19518614 0.69448566 0.60788620
-1.63270569 2.93343115 1.10184491 -0.51831031 0.74699169 0.60674554
-1.51723123 3.05292177 1.09586287 -0.48165238 0.77741969 0.60345143
-1.30400634 3.16681981 1.07411361 -0.41396311 0.80642354 0.59147495
-1.20141447 3.34946322 1.08288121 -0.38139483 0.85293329 0.59630293
-1.01967585 3.60467005 1.10239780 -0.32370102 0.91792113 0.60705000
-1.28544140 2.69923925 1.12954175 -0.40806958 0.68735522 0.62199718
-1.08094513 2.77146888 1.09611332 -0.34315124 0.70574832 0.60358936
-0.96541280 2.85899639 1.08482099 -0.30647495 0.72803700 0.59737110
-1.62663627 3.88409615 1.81599176 -0.51638353 0.98907638 1.00000000
-1.03242433 2.84725356 1.26851177 -0.32774809 0.72504675 0.69852287
-0.77204388 2.97119260 1.07011592 -0.24508905 0.75660753 0.58927357
-0.65857124 3.11463475 1.07695532 -0.20906661 0.79313475 0.59303975
-0.75460500 2.69847274 1.13520777 -0.23955300 0.68716002 0.62511724
-0.63561988 2.73958611 1.11071360 -0.20178060 0.69762945 0.61162919
-1.65675426 2.93297672 1.10569501 -0.52594465 0.74687594 0.60886568
-1.54399133 3.05862498 1.10153162 -0.49014750 0.77887201 0.60657305
-1.33282888 3.17956829 1.08150947 -0.42311296 0.80966991 0.59554756
-1.23017859 3.36339617 1.09007514 -0.39052615 0.85648131 0.60026437
-1.04393160 3.60369778 1.10414112 -0.33140114 0.91767359 0.60800999
-1.29837418 2.68269539 1.12590945 -0.41217515 0.68314236 0.61999702
-1.08429730 2.72997427 1.08188725 -0.34421542 0.69518185 0.59575558
-0.97736698 2.83510804 1.07785845 -0.31026986 0.72195393 0.59353709
-1.64447558 3.85867381 1.80874312 -0.52204669 0.98260266 0.99600846
-1.41988778 3.86136556 1.73625898 -0.45075023 0.98328811 0.95609409
-0.78871036 2.95902324 1.06740487 -0.25037992 0.75350863 0.58778065
-0.67461449 3.09381032 1.07101727 -0.21415962 0.78783184 0.58976990
-0.76998216 2.68836761 1.13289320 -0.24443455 0.68458676 0.62384272
-0.64906901 2.71929884 1.10391629 -0.20605010 0.69246334 0.60788620
-1.68086123 2.93233538 1.10954511 -0.53359753 0.74671263 0.61098576
-1.56917059 3.06072330 1.10594058 -0.49814078 0.77940631 0.60900086
-1.34975278 3.16414857 1.07904422 -0.42848554 0.80574334 0.59419006
-1.25194347 3.35739183 1.09067464 -0.39743549 0.85495234 0.60059446
-1.06433773 3.58974028 1.10181677 -0.33787915 0.91411930 0.60673004
-1.32655644 2.69797277 1.13607991 -0.42112175 0.68703270 0.62559748
-1.11212182 2.74902701 1.09255683 -0.35304844 0.70003355 0.60163093
-0.99760181 2.83600235 1.08064353 -0.31669351 0.72218162 0.59507072
-1.11857796 2.59629011 1.20710051 -0.35509798 0.66113943 0.66470593
-1.46575236 3.91095114 1.76316822 -0.46531016 0.99591494 0.97091204
-0.80931908 2.96125627 1.07011592 -0.25692225 0.75407726 0.58927357
-0.69524598 3.09504485 1.07299662 -0.22070919 0.78814626 0.59085983
-0.78579426 2.67994308 1.13135016 -0.24945419 0.68244147 0.62299299
-0.66871095 2.72597718 1.10844779 -0.21228552 0.69416398 0.61038148
-1.68866849 2.90376782 1.10248649 -0.53607595 0.73943800 0.60709882
-1.58837056 3.05080366 1.10594058 -0.50423592 0.77688032 0.60900086
-1.37805307 3.17475486 1.08582377 -0.43746960 0.80844420 0.59792328
-1.27368152 3.35124683 1.09127414 -0.40433636 0.85338748 0.60092461
-1.08913350 3.59029531 1.10414112 -0.34575069 0.91426063 0.60800999
-1.33855367 2.67954898 1.13172114 -0.42493033 0.68234116 0.62319732
-1.12575376 2.73336792 1.08900023 -0.35737598 0.69604599 0.59967244
-1.01850760 2.83852315 1.08412480 -0.32333016 0.72282356 0.59698772
-1.12964022 2.57751131 1.20146263 -0.35860974 0.65635747 0.66160136
-1.48576736 3.88963151 1.75762808 -0.47166401 0.99048597 0.96786129
-0.82427293 2.94345307 1.06537151 -0.26166943 0.74954373 0.58666098
-0.71261102 3.08140445 1.06969762 -0.22622181 0.78467274 0.58904320
-0.80424666 2.68024325 1.13366473 -0.25531200 0.68251795 0.62426758
-0.68494654 2.71812391 1.10693729 -0.21743959 0.69216418 0.60954976
-1.72146606 2.91748452 1.11211193 -0.54648769 0.74293089 0.61239922
-1.61628008 3.05759716 1.11223924 -0.51309592 0.77861029 0.61246932
-1.39641583 3.16256166 1.08459115 -0.44329894 0.80533922 0.59724456
-1.30150223 3.36100936 1.09726918 -0.41316816 0.85587353 0.60422587
-1.10820866 3.57243299 1.10065460 -0.35180619 0.90971208 0.60609007
-1.35614145 2.68322372 1.13607991 -0.43051365 0.68327689 0.62559748
-1.13496280 2.71943259 1.08544374 -0.36029941 0.69249743 0.59771401
-1.02998364 2.82839394 1.08203602 -0.32697329 0.72024417 0.59583753
-1.51390696 3.90832567 1.76949990 -0.48059708 0.99524635 0.97439861
-0.84130222 2.95037246 1.06943822 -0.26707545 0.75130576 0.58890039
-0.73176849 3.09825444 1.07695532 -0.23230344 0.78896356 0.59303975
-0.81962532 2.68522787 1.13752234 -0.26019400 0.68378729 0.62639177
-0.69953954 2.72205353 1.10995829 -0.22207220 0.69316483 0.61121327
-1.76753712 2.96283388 1.13328767 -0.56111318 0.75447899 0.62405992
-1.64129245 3.07009745 1.11979759 -0.52103621 0.78179342 0.61663145
-1.41130352 3.15594625 1.08459115 -0.44802511 0.80365461 0.59724456
-1.32213759 3.36729836 1.10146570 -0.41971895 0.85747498 0.60653675
-1.12386000 3.56352711 1.09949243 -0.35677478 0.90744418 0.60545009
-1.37213397 2.67298627 1.13535345 -0.43559057 0.68066996 0.62519747
-1.15425491 2.71739388 1.08757770 -0.36642379 0.69197828 0.59888911
-1.04901588 2.82539058 1.08342850 -0.33301514 0.71947938 0.59660429
-1.15408611 2.55661941 1.19743550 -0.36637020 0.65103740 0.65938377
-1.54176307 3.90729547 1.77345717 -0.48944014 0.99498403 0.97657776
-0.85604805 2.93240929 1.06469369 -0.27175659 0.74673146 0.58628774
-0.74384630 3.06235766 1.06573892 -0.23613760 0.77982253 0.58686328
-0.83591831 2.67826772 1.13675082 -0.26536632 0.68201488 0.62596697
-0.71525109 2.71222234 1.10769248 -0.22705992 0.69066131 0.60996556
-1.79106915 2.95974398 1.13649607 -0.56858355 0.75369215 0.62582666
-1.66144562 3.06139803 1.12042737 -0.52743393 0.77957815 0.61697823
-1.43270051 3.15047121 1.08582377 -0.45481771 0.80226046 0.59792328
-1.33069539 3.32696438 1.09067464 -0.42243567 0.84720403 0.60059446
-1.14622796 3.55639553 1.09949243 -0.36387560 0.90562814 0.60545009
-1.39485288 2.67591929 1.14043868 -0.44280279 0.68141687 0.62799770
-1.17733300 2.72377348 1.09326804 -0.37375006 0.69360280 0.60202259
-1.06935453 2.82577562 1.08621359 -0.33947176 0.71957743 0.59813797
-1.17865980 2.56755781 1.20629501 -0.37417126 0.65382284 0.66426235
-1.57034254 3.90777659 1.77820587 -0.49851283 0.99510658 0.97919267
-0.88106346 2.94856429 1.07282710 -0.27969787 0.75084531 0.59076649
-0.76752615 3.07597113 1.07233679 -0.24365488 0.78328913 0.59049648
-0.85330325 2.67471647 1.13752234 -0.27088523 0.68111056 0.62639177
-0.73745370 2.72737741 1.11600041 -0.23410824 0.69452053 0.61454046
-1.81463206 2.95647478 1.13970459 -0.57606369 0.75285965 0.62759346
-1.69424069 3.07591796 1.12987530 -0.53784490 0.78327560 0.62218088
-1.45731890 3.15174079 1.08952165 -0.46263292 0.80258375 0.59995955
-1.35654044 3.33093596 1.09487116 -0.43064031 0.84821540 0.60290533
-1.16733384 3.54549432 1.09833038 -0.37057576 0.90285218 0.60481024
-1.41508079 2.67371368 1.14334452 -0.44922423 0.68085521 0.62959784
-1.19136715 2.70949864 1.09042287 -0.37820527 0.68996775 0.60045582
-1.08244860 2.80672407 1.08133972 -0.34362853 0.71472597 0.59545410
-1.19634104 2.56340790 1.20790589 -0.37978423 0.65276605 0.66514945
-1.60036337 3.91145897 1.78453743 -0.50804311 0.99604428 0.98267925
-0.89395308 2.92501211 1.06604934 -0.28378972 0.74484777 0.58703423
-0.78501040 3.06376028 1.06969762 -0.24920534 0.78017968 0.58904320
-0.87184566 2.67455268 1.13983691 -0.27677161 0.68106884 0.62766635
-0.75457567 2.72269011 1.11600041 -0.23954369 0.69332695 0.61454046
-1.71811688 3.07352328 1.13302457 -0.54542452 0.78266579 0.62391502
-1.47709298 3.14252210 1.08952165 -0.46891031 0.80023623 0.59995955
-1.37960482 3.32764673 1.09666967 -0.43796220 0.84737778 0.60389572
-1.19206679 3.54533219 1.10065460 -0.37842736 0.90281087 0.60609007
-1.43707776 2.67465377 1.14770317 -0.45620728 0.68109459 0.63199800
-1.22076499 2.72917700 1.10180378 -0.38753775 0.69497883 0.60672289
-1.10680032 2.81736374 1.08830237 -0.35135910 0.71743536 0.59928817
-0.91861886 2.93905210 1.07350481 -0.29161999 0.74842304 0.59113967
-0.80846012 3.07522869 1.07563567 -0.25664955 0.78310007 0.59231305
-0.89101517 2.67600775 1.14292300 -0.28285706 0.68143940 0.62936574
-0.77117485 2.71611023 1.11524510 -0.24481317 0.69165140 0.61412454
-1.74388385 3.07426262 1.13743365 -0.55360436 0.78285408 0.62634295
-1.49929941 3.13831520 1.09137058 -0.47595984 0.79916495 0.60097772
-1.39975381 3.31715083 1.09607017 -0.44435862 0.84470505 0.60356563
-1.21179450 3.53054571 1.09833038 -0.38469002 0.89904553 0.60481024
-1.45561719 2.66885519 1.14915609 -0.46209270 0.67961800 0.63279808
-1.23081923 2.70618725 1.09540200 -0.39072952 0.68912452 0.60319769
-1.11694777 2.79115510 1.08064353 -0.35458046 0.71076137 0.59507072
-1.23168576 2.55474544 1.21112752 -0.39100459 0.65056020 0.66692346
-1.12637401 2.64049196 1.20044708 -0.35757285 0.67239535 0.66104215
-0.93356055 2.92249084 1.06943822 -0.29636329 0.74420571 0.58890039
-0.82344776 3.05365372 1.06969762 -0.26140746 0.77760607 0.58904320
-0.91084379 2.67907000 1.14678061 -0.28915176 0.68221915 0.63148999
-0.78872949 2.71299314 1.11600041 -0.25038600 0.69085765 0.61454046
-1.76597786 3.06819654 1.13932323 -0.56061822 0.78130937 0.62738347
-1.52235210 3.13565993 1.09383595 -0.48327804 0.79848880 0.60233533
-1.42502582 3.31883526 1.09966719 -0.45238134 0.84513396 0.60554636
-1.23009872 3.51204610 1.09484386 -0.39050078 0.89433467 0.60289031
-1.47884572 2.68161821 1.15787363 -0.46946672 0.68286806 0.63759851
-1.24752557 2.70881939 1.09895849 -0.39603302 0.68979478 0.60515612
-1.13771141 2.80502391 1.08830237 -0.36117199 0.71429306 0.59928817
-1.26244581 2.58662033 1.22965193 -0.40076953 0.65867704 0.67712420
-1.13880444 2.63515472 1.20044708 -0.36151898 0.67103624 0.66104215
-0.95028633 2.92698812 1.07282710 -0.30167300 0.74535096 0.59076649
-0.83978230 3.05703449 1.07233679 -0.26659295 0.77846700 0.59049648
-0.92530257 2.67996740 1.14909518 -0.29374176 0.68244767 0.63276452
-0.79894257 2.70034838 1.11222410 -0.25362816 0.68763769 0.61246097
-1.78608811 3.06971765 1.14310241 -0.56700230 0.78169674 0.62946451
-1.53796053 3.13015389 1.09445226 -0.48823300 0.79708666 0.60267466
-1.43539119 3.29980540 1.09547067 -0.45567188 0.84028804 0.60323548
-1.24728608 3.50801015 1.09542501 -0.39595699 0.89330691 0.60321033
-1.49656475 2.67390537 1.15860009 -0.47509170 0.68090403 0.63799852
-1.27577817 2.72455168 1.10891676 -0.40500194 0.69380099 0.61063975
-1.15531325 2.79782009 1.08830237 -0.36675978 0.71245861 0.59928817
-1.27702332 2.57536840 1.22804117 -0.40539721 0.65581179 0.67623717
-1.15752089 2.63300729 1.20282137 -0.36746061 0.67048943 0.66234958
-0.96684605 2.91561341 1.07079375 -0.30692995 0.74245441 0.58964682
-0.85497445 3.03713250 1.06705856 -0.27141577 0.77339900 0.58758998
-0.82270205 2.71836734 1.12204242 -0.26117074 0.69222617 0.61786759
-2.12525129 3.23712516 1.27638447 -0.67467129 0.82432669 0.70285809
-1.83209562 3.10435987 1.16073847 -0.58160758 0.79051828 0.63917607
-1.55931675 3.12382364 1.09568489 -0.49501264 0.79547471 0.60335344
-1.45914483 3.29771829 1.09786868 -0.46321258 0.83975655 0.60455596
-1.27128959 3.50549054 1.09716821 -0.40357703 0.89266533 0.60417026
-1.51697373 2.67095494 1.16150594 -0.48157063 0.68015271 0.63959867
-1.29205716 2.71479964 1.10820556 -0.41016978 0.69131762 0.61024815
-1.17572892 2.79743886 1.09108734 -0.37324083 0.71236151 0.60082173
-1.18068242 2.64082050 1.20994449 -0.37481335 0.67247903 0.66627198
-0.97899365 2.89169884 1.06401598 -0.31078628 0.73636460 0.58591455
-0.87608552 3.03897047 1.06969762 -0.27811757 0.77386701 0.58904320
-0.93726468 2.60924244 1.12286353 -0.29753920 0.66443771 0.61831975
-0.83388191 2.69364166 1.11373460 -0.26471984 0.68592983 0.61329275
-1.58935726 3.13426805 1.10308075 -0.50454915 0.79813433 0.60742605
-1.48524833 3.30069590 1.10206521 -0.47149926 0.84051484 0.60686684
-1.29261649 3.49564219 1.09658706 -0.41034734 0.89015746 0.60385025
-1.53648496 2.66623282 1.16368532 -0.48776457 0.67895019 0.64079881
-1.30826390 2.70495081 1.10749424 -0.41531470 0.68880963 0.60985643
-1.19545960 2.79518270 1.09317613 -0.37950441 0.71178699 0.60197198
-1.19201279 2.62160873 1.20440435 -0.37841022 0.66758680 0.66322124
-1.00403380 2.90500808 1.07147157 -0.31873539 0.73975378 0.59002006
-0.89359438 3.02796340 1.06771827 -0.28367585 0.77106410 0.58795327
-0.96982497 2.64649963 1.14215147 -0.30787563 0.67392522 0.62894088
-0.85079002 2.68834901 1.11373460 -0.27008739 0.68458205 0.61329275
-1.60901892 3.12421989 1.10308075 -0.51079082 0.79557562 0.60742605
-1.51223063 3.30521441 1.10686111 -0.48006493 0.84166545 0.60950780
-1.31592405 3.49102569 1.09774923 -0.41774645 0.88898188 0.60449022
-1.55413675 2.65814090 1.16441178 -0.49336821 0.67688960 0.64119881
-1.31854749 2.68330145 1.10180378 -0.41857928 0.68329668 0.60672289
-1.21152544 2.78416800 1.09178364 -0.38460460 0.70898217 0.60120517
-1.20997906 2.61741257 1.20598722 -0.38411370 0.66651827 0.66409290
-1.01844132 2.88802004 1.06740487 -0.32330912 0.73542786 0.58778065
-0.90939718 3.01142335 1.06375957 -0.28869253 0.76685220 0.58577335
-0.86655027 2.67941809 1.11222410 -0.27509058 0.68230784 0.61246097
-1.99778855 3.24606133 1.22939324 -0.63420761 0.82660222 0.67698175
-1.63396609 3.12413383 1.10677862 -0.51871043 0.79555368 0.60946238
-1.53773808 3.30605459 1.11045814 -0.48816237 0.84187937 0.61148852
-1.34270453 3.49516749 1.10181677 -0.42624804 0.89003658 0.60673004
-1.58396757 2.67084861 1.17458224 -0.50283813 0.68012559 0.64679933
-1.34807479 2.69996428 1.11247337 -0.42795286 0.68753988 0.61259824
-1.23198438 2.78337884 1.09456861 -0.39109939 0.70878118 0.60273874
-1.24025071 2.63977885 1.22023332 -0.39372358 0.67221379 0.67193770
-1.03981042 2.89039564 1.07079375 -0.33009285 0.73603278 0.58964682
-0.92611849 2.99842000 1.06112039 -0.29400077 0.76354092 0.58432007
-0.88393652 2.67568302 1.11297929 -0.28060991 0.68135667 0.61287683
-2.06896424 3.31584311 1.26151609 -0.65680271 0.84437203 0.69467062
-1.66709411 3.13893437 1.11602354 -0.52922708 0.79932261 0.61455321
-1.56573343 3.31189299 1.11585367 -0.49704963 0.84336615 0.61445963
-1.36605299 3.49021864 1.10297894 -0.43366012 0.88877636 0.60737002
-1.59179819 2.65533233 1.17094994 -0.50532401 0.67617440 0.64479917
-1.35907495 2.69025636 1.11105072 -0.43144491 0.68506777 0.61181486
-1.23979867 2.76553059 1.08969486 -0.39358008 0.70423615 0.60005498
-1.24956739 2.62724853 1.21706748 -0.39668119 0.66902298 0.67019439
-1.05144846 2.88017392 1.06876040 -0.33378738 0.73342985 0.58852714
-0.94854778 3.02109647 1.07101727 -0.30112109 0.76931542 0.58976990
-1.52732325 3.92699313 1.72541988 -0.48485613 1.00000000 0.95012540
-0.89826506 2.67676759 1.11524510 -0.28515857 0.68163288 0.61412454
-1.68277729 3.13271451 1.11663985 -0.53420579 0.79773873 0.61489260
-1.57318234 3.28722119 1.10985863 -0.49941432 0.83708352 0.61115843
-1.38248503 3.48374248 1.10297894 -0.43887654 0.88712722 0.60737002
-1.28246939 3.75043392 1.12665164 -0.40712610 0.95503962 0.62040567
-1.61323881 2.65327096 1.17458224 -0.51213044 0.67564952 0.64679933
-1.37422228 2.67834949 1.10962808 -0.43625349 0.68203568 0.61103147
-1.26481283 2.77479792 1.09665740 -0.40152094 0.70659608 0.60388899
-1.26841331 2.62432313 1.21944189 -0.40266392 0.66827798 0.67150187
-1.06752014 2.86823344 1.06672704 -0.33888942 0.73038924 0.58740741
-0.95903122 2.98805571 1.06112039 -0.30444908 0.76090169 0.58432007
-1.54302406 3.89506102 1.71539009 -0.48984045 0.99186856 0.94460237
-0.91741610 2.67809582 1.11826611 -0.29123816 0.68197107 0.61578810
-1.70150697 3.12041450 1.11602354 -0.54015160 0.79460657 0.61455321
-1.61030304 3.31168199 1.12184858 -0.51119846 0.84331238 0.61776084
-1.41015995 3.48915052 1.10762751 -0.44766209 0.88850439 0.60992980
-1.31348574 3.76408577 1.13340127 -0.41697240 0.95851600 0.62412250
-1.63665140 2.65422940 1.17966747 -0.51956290 0.67589355 0.64959955
-1.39539826 2.67792130 1.11318469 -0.44297591 0.68192667 0.61298996
-1.27833748 2.75826454 1.09317613 -0.40581441 0.70238590 0.60197198
-1.08755791 2.86673403 1.06876040 -0.34525052 0.73000741 0.58852714
-0.98585945 3.00714064 1.07035744 -0.31296584 0.76576161 0.58940655
-1.56746686 3.88528919 1.71539009 -0.49759993 0.98938018 0.94460237
-0.93063337 2.66176367 1.11373460 -0.29543406 0.67781216 0.61329275
-1.73876584 3.14119077 1.12773359 -0.55197960 0.79989719 0.62100148
-1.63442171 3.30836010 1.12424660 -0.51885504 0.84246647 0.61908132
-1.43131721 3.47845554 1.10704648 -0.45437858 0.88578093 0.60960984
-1.34599280 3.78111792 1.14127588 -0.42729193 0.96285319 0.62845874
-1.65134072 2.64072108 1.17821455 -0.52422607 0.67245370 0.64879948
-1.41396701 2.67239356 1.11460721 -0.44887066 0.68051904 0.61377329
-1.29879355 2.75698376 1.09596109 -0.41230828 0.70205975 0.60350555
-1.10554850 2.85984397 1.06876040 -0.35096171 0.72825283 0.58852714
-0.99944311 2.98473954 1.06441939 -0.31727806 0.76005721 0.58613670
-1.59681344 3.88728762 1.72079074 -0.50691617 0.98988909 0.94757628
-0.95526373 2.67859697 1.12355292 -0.30325308 0.68209869 0.61869937
-1.76976335 3.15004611 1.13512945 -0.56181991 0.80215216 0.62507415
-1.65940845 3.30657554 1.12724411 -0.52678722 0.84201205 0.62073195
-1.45614004 3.47643828 1.10937071 -0.46225870 0.88526720 0.61088973
-1.37553620 3.78885221 1.14633822 -0.43667060 0.96482271 0.63124639
-1.82152891 2.59878564 1.22425520 -0.57825315 0.66177493 0.67415237
-1.67975128 2.64925528 1.18693209 -0.53324515 0.67462695 0.65359992
-1.43252134 2.66673803 1.11602986 -0.45476082 0.67907888 0.61455667
-1.32247734 2.76234007 1.10153127 -0.41982681 0.70342368 0.60657281
-1.12489760 2.85633373 1.07011592 -0.35710418 0.72735900 0.58927357
-1.02177191 2.98914361 1.06837809 -0.32436642 0.76117873 0.58831662
-0.97207493 2.67254210 1.12355292 -0.30858988 0.68055683 0.61869937
-1.79998863 3.15698767 1.14190900 -0.57141507 0.80391985 0.62880737
-1.68958020 3.31483531 1.13383853 -0.53636539 0.84411538 0.62436324
-1.48479342 3.48302794 1.11460042 -0.47135484 0.88694525 0.61376953
-1.40325820 3.79095435 1.14971304 -0.44547111 0.96535802 0.63310474
-1.84759653 2.60086560 1.23089898 -0.58652842 0.66230458 0.67781091
-1.70334625 2.64966631 1.19201732 -0.54073548 0.67473161 0.65640020
-1.46374309 2.68384552 1.12741077 -0.46467233 0.68343526 0.62082374
-1.33980739 2.75397635 1.10153127 -0.42532831 0.70129389 0.60657281
-1.14495838 2.85443449 1.07214928 -0.36347258 0.72687536 0.59039325
-1.03748095 2.97373152 1.06507909 -0.32935333 0.75725406 0.58649999
-1.11868584 2.64529204 1.16452551 -0.35513222 0.67361766 0.64126146
-0.99074221 2.67160439 1.12581873 -0.31451589 0.68031806 0.61994708
-1.70516729 3.29395843 1.13024163 -0.54131359 0.83879912 0.62238258
-1.50433564 3.46837521 1.11285722 -0.47755861 0.88321400 0.61280960
-1.42437553 3.77486610 1.14746308 -0.45217490 0.96126121 0.63186580
-1.86420500 2.59814334 1.23385179 -0.59180087 0.66161138 0.67943686
-1.71480870 2.64004087 1.19129086 -0.54437429 0.67228049 0.65600014
-1.48185575 2.68670249 1.13167858 -0.47042227 0.68416280 0.62317383
-1.35848904 2.75944495 1.10640502 -0.43125892 0.70268649 0.60925663
-1.15911698 2.85074568 1.07282710 -0.36796728 0.72593600 0.59076649
-1.05767107 2.98664689 1.07167697 -0.33576280 0.76054293 0.59013319
-1.12522948 2.62646389 1.15835333 -0.35720953 0.66882312 0.63786268
-1.00843847 2.68080926 1.13186085 -0.32013366 0.68266207 0.62327421
-1.74256718 3.32826495 1.14522910 -0.55318636 0.84753519 0.63063562
-1.52300084 3.46649146 1.11460042 -0.48348397 0.88273430 0.61376953
-1.45636487 3.80582643 1.15927505 -0.46233007 0.96914518 0.63837022
-1.89372432 2.60433602 1.24271011 -0.60117191 0.66318834 0.68431485
-1.74049532 2.64328027 1.19782889 -0.55252862 0.67310542 0.65960038
-1.49316442 2.66758871 1.12741077 -0.47401226 0.67929548 0.62082374
-1.37331760 2.74580765 1.10431623 -0.43596631 0.69921374 0.60810643
-1.17554343 2.83993888 1.07147157 -0.37318194 0.72318405 0.59002006
-1.06696534 2.95324516 1.06178021 -0.33871329 0.75203729 0.58468336
-1.12897146 2.59067655 1.14523757 -0.35839745 0.65970999 0.63064027
-1.01810575 2.65534782 1.12355292 -0.32320258 0.67617840 0.61869937
-1.54791176 3.46382594 1.11692476 -0.49139208 0.88205552 0.61504948
-1.47198963 3.77510118 1.15252542 -0.46729022 0.96132106 0.63465345
-1.91005039 2.59238625 1.24271011 -0.60635471 0.66014534 0.68431485
-1.76936364 2.65096974 1.20654643 -0.56169301 0.67506349 0.66440082
-1.52110398 2.67758417 1.13594639 -0.48288181 0.68184084 0.62552398
-1.39557135 2.74718761 1.10849380 -0.44303086 0.69956517 0.61040688
-1.19855821 2.84460092 1.07621598 -0.38048810 0.72437125 0.59263265
-1.10024738 2.98732686 1.07695532 -0.34927884 0.76071608 0.59303975
-1.15586519 2.60707235 1.15603888 -0.36693498 0.66388512 0.63658816
-1.04667640 2.68003392 1.13714755 -0.33227247 0.68246466 0.62618542
-1.58406436 3.48531556 1.12738407 -0.50286889 0.88752782 0.62080902
-1.51106906 3.80509782 1.16489971 -0.47969618 0.96895963 0.64146751
-1.93639314 2.59367585 1.24935377 -0.61471736 0.66047376 0.68797326
-1.78391647 2.63670039 1.20509350 -0.56631291 0.67142987 0.66360074
-1.54356265 2.67765355 1.14021420 -0.49001142 0.68185848 0.62787414
-1.41025889 2.73334932 1.10640502 -0.44769350 0.69604129 0.60925663
-2.02168751 3.31979346 1.67343390 -0.64179444 0.84537798 0.92149860
-1.21565473 2.83528972 1.07553816 -0.38591546 0.72200018 0.59225941
-1.10986269 2.95555019 1.06771827 -0.35233128 0.75262421 0.58795327
-1.17761600 2.61149526 1.16143942 -0.37383988 0.66501141 0.63956207
-1.06215012 2.66995335 1.13563704 -0.33718470 0.67989761 0.62535363
-1.60430789 3.47182798 1.12622190 -0.50929528 0.88409323 0.62016904
-1.53068292 3.78483152 1.16152489 -0.48592269 0.96379888 0.63960910
-1.96169639 2.59326100 1.25525939 -0.62274998 0.66036808 0.69122529
-1.81610835 2.64859152 1.21599042 -0.57653236 0.67445791 0.66960126
-1.56035626 2.66790223 1.14021420 -0.49534264 0.67937535 0.62787414
-1.43427801 2.73776627 1.11197507 -0.45531848 0.69716603 0.61232388
-1.23955488 2.84135318 1.08096039 -0.39350268 0.72354424 0.59524518
-1.13305521 2.96089196 1.07233679 -0.35969386 0.75398451 0.59049648
-1.19556308 2.60738802 1.16298246 -0.37953728 0.66396552 0.64041173
-1.08095431 2.66839099 1.13790286 -0.34315416 0.67949980 0.62660134
-1.63102734 3.47204614 1.12970841 -0.51777750 0.88414878 0.62208897
-1.56093049 3.79114437 1.16658711 -0.49552491 0.96540642 0.64239669
-1.98593068 2.59116197 1.26042676 -0.63044327 0.65983361 0.69407076
-1.83587515 2.64173889 1.21816981 -0.58280742 0.67271286 0.67080140
-1.58287454 2.66765332 1.14448214 -0.50249118 0.67931193 0.63022429
-1.46101677 2.74697185 1.11963391 -0.46380684 0.69951022 0.61654127
-1.25583398 2.83007908 1.07960486 -0.39867055 0.72067332 0.59449875
-1.14691472 2.94137025 1.06771827 -0.36409363 0.74901336 0.58795327
-1.21667075 2.60982585 1.16761160 -0.38623801 0.66458631 0.64296085
-1.09492302 2.65467858 1.13488185 -0.34758860 0.67600793 0.62493777
-1.59131742 3.79722571 1.17164946 -0.50517142 0.96695501 0.64518434
-1.99926603 2.58323765 1.26116490 -0.63467664 0.65781569 0.69447720
-1.85573018 2.64378166 1.22325504 -0.58911049 0.67323309 0.67360163
-1.59834373 2.66495466 1.14661598 -0.50740194 0.67862475 0.63139933
-1.47043574 2.73342896 1.11684883 -0.46679693 0.69606155 0.61500764
-1.26915646 2.82412958 1.07960486 -0.40289983 0.71915829 0.59449875
-1.17237127 2.96585679 1.07893467 -0.37217492 0.75524879 0.59412974
-1.23375142 2.61404204 1.17224073 -0.39166033 0.66565996 0.64550996
-1.10250628 2.63749361 1.12959504 -0.34999594 0.67163181 0.62202650
-1.68594122 3.48827529 1.14132988 -0.53521019 0.88828146 0.62848848
-1.60326242 3.77552247 1.16714966 -0.50896341 0.96142834 0.64270645
-2.02932882 2.58809233 1.27002323 -0.64422023 0.65905190 0.69935519
-1.87337530 2.63359475 1.22398150 -0.59471202 0.67063898 0.67400169
-1.61996603 2.66281223 1.15017247 -0.51426601 0.67807919 0.63335776
-1.48758125 2.72413588 1.11684883 -0.47223985 0.69369507 0.61500764
-1.28528929 2.81268716 1.07824934 -0.40802130 0.71624446 0.59375232
-1.17641115 2.92155814 1.06507909 -0.37345740 0.74396825 0.58649999
-1.26715565 2.64105749 1.18844259 -0.40226468 0.67253935 0.65443170
-1.11834335 2.62880516 1.12883973 -0.35502350 0.66941935 0.62161058
-1.63748825 3.79009271 1.17502427 -0.51982856 0.96513861 0.64704275
-2.05487084 2.58687735 1.27592885 -0.65232867 0.65874255 0.70260715
-1.89852631 2.63391948 1.22979319 -0.60269636 0.67072171 0.67720199
-1.63964057 2.65733409 1.15230644 -0.52051181 0.67668414 0.63453287
-1.50197363 2.70979810 1.11476016 -0.47680879 0.69004399 0.61385751
-1.30695641 2.81306219 1.08163822 -0.41489962 0.71634001 0.59561849
-1.20320344 2.93512702 1.07299662 -0.38196275 0.74742353 0.59085983
-1.26076126 2.58676171 1.16684008 -0.40023476 0.65871310 0.64253598
-1.13483846 2.62172651 1.12883973 -0.36025995 0.66761678 0.62161058
-1.76072192 3.52829957 1.16224849 -0.55894965 0.89847356 0.64000756
-2.07812905 2.58256102 1.28035796 -0.65971208 0.65764338 0.70504612
-1.92375505 2.63403177 1.23560488 -0.61070532 0.67075026 0.68040228
-1.66131377 2.65487003 1.15586293 -0.52739209 0.67605668 0.63649130
-1.52623773 2.71342826 1.12033021 -0.48451152 0.69096845 0.61692470
-1.32297611 2.80140257 1.08028269 -0.41998515 0.71337086 0.59487200
-1.21804202 2.91877389 1.06969762 -0.38667333 0.74325925 0.58904320
-1.15936542 2.63324594 1.13714755 -0.36804616 0.67055017 0.62618542
-1.80995154 3.56994367 1.18026185 -0.57457787 0.90907818 0.64992690
-2.11679530 2.59669065 1.29438365 -0.67198688 0.66124147 0.71276957
-1.95785260 2.64596844 1.24722815 -0.62152976 0.67378992 0.68680274
-1.68099701 2.64909482 1.15799689 -0.53364062 0.67458606 0.63766640
-1.54233766 2.70215082 1.11963391 -0.48962253 0.68809664 0.61654127
-1.34302759 2.79810762 1.08231592 -0.42635059 0.71253186 0.59599167
-1.24144518 2.92326069 1.07431614 -0.39410278 0.74440181 0.59158647
-1.17290795 2.61912775 1.13412654 -0.37234530 0.66695499 0.62452185
-2.14804721 2.60953450 1.30619478 -0.68190795 0.66451210 0.71927351
-1.96476877 2.62921524 1.24359584 -0.62372535 0.66952378 0.68480259
-1.69651926 2.64584470 1.16013074 -0.53856826 0.67375845 0.63884139
-1.55875993 2.70137286 1.12241900 -0.49483585 0.68789852 0.61807495
-2.02564073 3.34684801 1.64919937 -0.64304942 0.85226732 0.90815353
-1.35953152 2.79849625 1.08502710 -0.43158984 0.71263081 0.59748459
-1.25153148 2.90868282 1.07101727 -0.39730471 0.74068958 0.58976990
-1.20104778 2.64910269 1.14998698 -0.38127843 0.67458808 0.63325560
-2.17399192 2.60735035 1.31210029 -0.69014424 0.66395593 0.72252548
-2.00021458 2.64219213 1.25594568 -0.63497776 0.67282832 0.69160318
-1.72854424 2.65854144 1.17080033 -0.54873472 0.67699164 0.64471674
-1.58787882 2.71263957 1.13147032 -0.50407982 0.69076759 0.62305915
-1.37877572 2.79326248 1.08638263 -0.43769902 0.71129805 0.59823102
-1.27575040 2.91463709 1.07629550 -0.40499312 0.74220580 0.59267640
-1.21079731 2.62631917 1.14318967 -0.38437346 0.66878629 0.62951261
-2.01790118 2.63105774 1.25667214 -0.64059246 0.66999298 0.69200319
-1.74313664 2.64452004 1.16937780 -0.55336714 0.67342108 0.64393342
-1.60583830 2.70422745 1.13216650 -0.50978112 0.68862545 0.62344253
-1.40057099 2.79292655 1.08977151 -0.44461802 0.71121252 0.60009718
-1.29025388 2.89791536 1.07299662 -0.40959734 0.73794764 0.59085983
-1.24043441 2.64726019 1.15602911 -0.39378190 0.67411888 0.63658279
-2.04913783 2.63754678 1.26611614 -0.65050870 0.67164540 0.69720370
-1.76810598 2.64589548 1.17506826 -0.56129378 0.67377138 0.64706695
-1.63045359 2.70698237 1.13773656 -0.51759535 0.68932700 0.62650979
-1.42155147 2.79075599 1.09248269 -0.45127839 0.71065974 0.60159010
-1.31611371 2.90700054 1.07959437 -0.41780666 0.74026120 0.59449297
-1.24448872 2.61257434 1.14394498 -0.39506894 0.66528618 0.62992853
-2.05309081 2.60843563 1.25812507 -0.65176362 0.66423231 0.69280326
-1.78787005 2.63935661 1.17720211 -0.56756800 0.67210627 0.64824200
-1.65129828 2.70310950 1.14052165 -0.52421260 0.68834078 0.62804341
-1.43643188 2.77677202 1.09044933 -0.45600224 0.70709878 0.60047042
-1.33046007 2.89007354 1.07629550 -0.42236099 0.73595077 0.59267640
-1.26326489 2.60972095 1.14621067 -0.40102953 0.66455960 0.63117611
-2.53503656 2.88546991 1.48926699 -0.80475962 0.73477846 0.82008469
-2.09710503 2.63062167 1.27556014 -0.66573614 0.66988194 0.70240414
-1.81189311 2.63881040 1.18218124 -0.57519424 0.67196715 0.65098381
-1.67118120 2.69748116 1.14261043 -0.53052455 0.68690753 0.62919360
-1.46448064 2.78761292 1.09858263 -0.46490645 0.70985937 0.60494912
-1.35727525 2.90052319 1.08355319 -0.43087357 0.73861176 0.59667295
-2.57093906 2.89840508 1.50255442 -0.81615704 0.73807234 0.82740158
-2.15702248 2.68051314 1.30534494 -0.68475717 0.68258667 0.71880555
-1.83398354 2.64400506 1.18858302 -0.58220690 0.67328995 0.65450901
-1.69470608 2.70712614 1.15026927 -0.53799266 0.68936360 0.63341105
-1.47760069 2.78068089 1.09858263 -0.46907148 0.70809418 0.60494912
-1.37013113 2.89238381 1.08289337 -0.43495473 0.73653907 0.59630960
-1.89225185 3.82346010 1.70359111 -0.60070449 0.97363555 0.93810511
-2.25563478 2.76849818 1.35619712 -0.71606213 0.70499188 0.74680799
-1.86357570 2.65069818 1.19711864 -0.59160113 0.67499435 0.65920931
-1.72859204 2.72344232 1.16210568 -0.54874986 0.69351846 0.63992894
-1.49685109 2.77464247 1.09993827 -0.47518259 0.70655650 0.60569561
-1.39393437 2.89566231 1.08751190 -0.44251120 0.73737389 0.59885287
-2.32952189 2.82357955 1.39106727 -0.73951799 0.71901822 0.76600969
-1.89441812 2.65863848 1.20636570 -0.60139221 0.67701632 0.66430134
-1.74366033 2.70936155 1.16071308 -0.55353338 0.68993282 0.63916206
-1.52157021 2.77833891 1.10536039 -0.48302981 0.70749778 0.60868138
-1.40882528 2.88004184 1.08487272 -0.44723839 0.73339617 0.59739959
-2.49914026 2.99275875 1.48405409 -0.79336417 0.76209933 0.81721413
-1.90777421 2.64215732 1.20423174 -0.60563213 0.67281944 0.66312623
-1.74745929 2.67785597 1.15166175 -0.55473942 0.68191004 0.63417786
-1.53252387 2.75725269 1.10061598 -0.48650712 0.70212823 0.60606879
-1.43850660 2.89487791 1.09410965 -0.45666087 0.73717415 0.60248601
-2.58247375 3.05416369 1.52328289 -0.81981879 0.77773595 0.83881599
-1.95439255 2.67066288 1.22343695 -0.62043136 0.68007833 0.67370182
-1.78371561 2.69665813 1.16489065 -0.56624913 0.68669796 0.64146250
-1.56384289 2.77206278 1.11078262 -0.49644947 0.70589960 0.61166722
-1.44994581 2.87225604 1.08883142 -0.46029231 0.73141354 0.59957951
-2.59679294 3.03219151 1.52037704 -0.82436448 0.77214080 0.83721584
-1.80269253 2.68852496 1.16628313 -0.57227343 0.68462688 0.64222932
-1.57839346 2.75730133 1.10874939 -0.50106865 0.70214063 0.61054760
-1.47136712 2.86983109 1.09147060 -0.46709260 0.73079604 0.60103279
-1.59613395 2.75794530 1.11213827 -0.50670046 0.70230460 0.61241370
-1.47972226 2.85277677 1.08751190 -0.46974498 0.72645319 0.59885287
-2.77071238 2.86793709 1.54758430 -0.87957603 0.73031378 0.85219789
-1.61920941 2.75756121 1.11620486 -0.51402587 0.70220679 0.61465305
-1.50717914 2.86185956 1.09476948 -0.47846130 0.72876614 0.60284936
-2.79390407 2.85575986 1.55053711 -0.88693833 0.72721285 0.85382384
-1.64136970 2.75538516 1.11959374 -0.52106076 0.70165265 0.61651915
-1.52689040 2.85567427 1.09608912 -0.48471874 0.72719103 0.60357606
-2.83414555 2.86048365 1.56308639 -0.89971322 0.72841573 0.86073428
-1.66749954 2.75945640 1.12569380 -0.52935576 0.70268941 0.61987823
-1.54925418 2.85434914 1.09938800 -0.49181822 0.72685361 0.60539263
-2.86264753 2.85306382 1.56899190 -0.90876126 0.72652632 0.86398625
-1.69076490 2.75851321 1.12976050 -0.53674150 0.70244920 0.62211764
-1.56535649 2.84123993 1.09806848 -0.49692997 0.72351539 0.60466599
-2.90581250 2.85966730 1.58301759 -0.92246419 0.72820789 0.87170970
-2.77618122 3.01490569 1.56178522 -0.88131213 0.76773900 0.86001778
-2.30573344 2.88183069 1.36854327 -0.73196620 0.73385173 0.75360656
-2.07729435 2.48262072 1.38751268 -0.65944713 0.63219380 0.76405233
-1.71207726 2.75420260 1.13247156 -0.54350722 0.70135152 0.62361050
-1.59593284 2.85449958 1.10730541 -0.50663656 0.72689193 0.60975242
-2.94332957 2.86917830 1.59630513 -0.93437421 0.73062980 0.87902665
-2.77142954 2.98122358 1.55088830 -0.87980372 0.75916189 0.85401726
-2.42217827 2.99687004 1.43042684 -0.76893216 0.76314622 0.78768355
-1.73312414 2.75880051 1.13789380 -0.55018860 0.70252234 0.62659633
-1.60936666 2.84694719 1.10730541 -0.51090121 0.72496873 0.60975242
-3.00031853 2.88781929 1.61771274 -0.95246559 0.73537672 0.89081502
-2.81043386 2.98556161 1.56251168 -0.89218581 0.76026660 0.86041784
-2.56370711 3.12992096 1.50369132 -0.81386119 0.79702735 0.82802761
-2.17999411 2.54679012 1.43825364 -0.69204968 0.64853442 0.79199350
-1.76165307 2.76524377 1.14534938 -0.55924529 0.70416313 0.63070184
-1.63930249 2.85814524 1.11588264 -0.52040452 0.72782028 0.61447561
-3.02246451 2.87273288 1.61992729 -0.95949596 0.73153502 0.89203447
-2.84192729 2.98139548 1.56977630 -0.90218353 0.75920570 0.86441821
-2.58572364 3.11661625 1.50511384 -0.82085043 0.79363936 0.82881093
-1.65065157 2.83632517 1.11126411 -0.52400732 0.72226387 0.61193234
-3.09083056 2.90050697 1.64724052 -0.98119909 0.73860759 0.90707487
-2.87862897 2.98233914 1.57994676 -0.91383469 0.75944597 0.87001866
-2.60525489 3.10030818 1.50511384 -0.82705075 0.78948653 0.82881093
-2.18020535 2.48361874 1.41731298 -0.69211674 0.63244796 0.78046221
-1.70073342 2.88137674 1.13369679 -0.53990602 0.73373616 0.62428522
-3.13501334 2.90491009 1.66126621 -0.99522513 0.73972887 0.91479832
-2.91286206 2.98026085 1.58866429 -0.92470211 0.75891674 0.87481910
-2.50614452 3.26067758 1.49143553 -0.79558766 0.83032423 0.82127881
-2.19944143 2.47395325 1.41972911 -0.69822329 0.62998664 0.78179270
-1.70248330 2.84299660 1.12248051 -0.54046154 0.72396272 0.61810881
-2.96674705 2.99783111 1.60827863 -0.94180816 0.76339096 0.88562000
-2.66119313 3.08706117 1.51507223 -0.84480864 0.78611320 0.83429468
-2.23344088 2.48037887 1.43181038 -0.70901662 0.63162291 0.78844541
-2.07435751 2.53875017 1.37614906 -0.65851480 0.64648706 0.75779480
-1.73971725 2.86463690 1.13567615 -0.55228162 0.72947335 0.62537515
-2.99263620 2.99573898 1.61481678 -0.95002681 0.76285821 0.88922030
-2.25874019 2.48464465 1.44066989 -0.71704799 0.63270921 0.79332405
-1.74439657 2.84187102 1.12973809 -0.55376714 0.72367609 0.62210530
-3.04041529 3.00583649 1.63079894 -0.96519452 0.76542950 0.89802110
-2.75960946 3.13021135 1.55206001 -0.87605137 0.79710132 0.85466248
-2.21315265 2.40477848 1.40120471 -0.70257598 0.61237144 0.77159202
-3.08843851 3.01545048 1.64678097 -0.98043972 0.76787770 0.90682185
-2.78297758 3.11697531 1.55419397 -0.88346970 0.79373080 0.85583758
-2.21188474 2.37351704 1.39073431 -0.70217347 0.60441077 0.76582634
-2.00883126 2.87391710 1.22736061 -0.63771319 0.73183656 0.67586243
-3.15005445 3.03757572 1.67002773 -1.00000000 0.77351183 0.91962296
-2.81259036 3.11047077 1.55988443 -0.89287037 0.79207438 0.85897112
-2.35196733 2.49059892 1.47047007 -0.74664336 0.63422543 0.80973387
-2.16207385 2.52282071 1.39514387 -0.68636078 0.64243066 0.76825452
-2.07290435 2.92546082 1.25582731 -0.65805352 0.74496204 0.69153798
-2.81938767 3.07901335 1.55277133 -0.89502823 0.78406388 0.85505420
-2.37393522 2.48234963 1.47449720 -0.75361723 0.63212478 0.81195146
-2.16592813 2.49524164 1.38722932 -0.68758434 0.63540769 0.76389629
-2.13327837 2.97022176 1.28158283 -0.67721951 0.75636029 0.70572060
-2.86423087 3.08852649 1.56699741 -0.90926391 0.78648633 0.86288798
-2.40870476 2.48699737 1.48657835 -0.76465493 0.63330829 0.81860411
-2.10810781 2.39698172 1.33895087 -0.66922903 0.61038601 0.73731107
-2.22107148 3.05070210 1.32360506 -0.70508987 0.77685446 0.72886074
-2.88902593 3.08586192 1.57268786 -0.91713524 0.78580785 0.86602145
-2.79183364 3.29995108 1.56941640 -0.88628107 0.84032512 0.86422002
-2.42426014 2.47952342 1.48899460 -0.76959306 0.63140506 0.81993467
-2.22350097 2.50580645 1.40701556 -0.70586109 0.63809800 0.77479184
-2.36679292 3.21686363 1.40290523 -0.75134987 0.81916714 0.77252841
-2.93420935 3.09465480 1.58691406 -0.93147892 0.78804690 0.87385529
-2.80401993 3.27233839 1.56454253 -0.89014965 0.83329362 0.86153615
-2.46699929 2.49140239 1.50590825 -0.78316087 0.63443005 0.82924837
-2.26480794 2.52063179 1.42363608 -0.71897423 0.64187324 0.78394413
-2.64398718 3.54307508 1.55676091 -0.83934653 0.90223610 0.85725111
-2.97831511 3.10165834 1.60042882 -0.94548053 0.78983033 0.88129741
-2.85263515 3.28735709 1.58055651 -0.90558279 0.83711809 0.87035447
-2.48912287 2.48227859 1.50993526 -0.79018408 0.63210666 0.83146590
-2.29165244 2.51864505 1.43075907 -0.72749615 0.64136732 0.78786647
-2.65135455 3.50694847 1.54794979 -0.84168530 0.89303654 0.85239911
-2.10332870 3.08392787 1.26895285 -0.66771185 0.78531533 0.69876575
-3.01083899 3.09622359 1.60754192 -0.95580536 0.78844643 0.88521433
-2.87569594 3.27219677 1.58194900 -0.91290355 0.83325756 0.87112123
-2.52828193 2.48957515 1.52443266 -0.80261528 0.63396472 0.83944911
-2.32103419 2.51913643 1.43946505 -0.73682350 0.64149243 0.79266053
-2.63765335 3.44407701 1.52693868 -0.83733577 0.87702650 0.84082907
-2.20680904 3.19380522 1.32107592 -0.70056218 0.81329536 0.72746801
-3.06713176 3.11436415 1.62745845 -0.97367579 0.79306585 0.89618164
-2.90859842 3.26812696 1.58891153 -0.92334861 0.83222121 0.87495524
-2.55047321 2.47998381 1.52845979 -0.80966002 0.63152230 0.84166670
-2.34055138 2.50855446 1.44183946 -0.74301934 0.63879776 0.79396808
-2.65924096 3.42743635 1.52693868 -0.84418887 0.87278897 0.84082907
-2.03599572 2.53133011 1.32191539 -0.64633667 0.64459753 0.72793031
-1.87506378 2.56716633 1.26025462 -0.59524804 0.65372318 0.69397599
-3.11979175 3.12796617 1.64524102 -0.99039298 0.79652959 0.90597385
-2.94905519 3.27216339 1.60005176 -0.93619180 0.83324909 0.88108975
-2.59786987 2.49415874 1.54778969 -0.82470632 0.63513196 0.85231096
-2.38384390 2.52333426 1.45925128 -0.75676274 0.64256144 0.80355614
-2.75441432 3.50351691 1.56963873 -0.87440211 0.89216274 0.86434245
-2.05068588 2.51706433 1.32114387 -0.65100014 0.64096481 0.72750545
-1.90317011 2.57178593 1.26856244 -0.60417056 0.65489954 0.69855076
-3.00461292 3.30279350 1.62233198 -0.95382887 0.84104896 0.89335865
-2.62026334 2.49192166 1.55423295 -0.83181524 0.63456225 0.85585904
-2.39696813 2.51340914 1.46004272 -0.76092911 0.64003402 0.80399191
-2.80383921 3.53161311 1.58861649 -0.89009231 0.89931738 0.87479281
-1.95268142 2.37553096 1.24939263 -0.61988813 0.60492361 0.68799466
-1.92516065 2.57620311 1.27535987 -0.61115152 0.65602434 0.70229387
-2.66269827 2.50032282 1.57034123 -0.84528643 0.63670158 0.86472929
-2.43554020 2.52221489 1.47428882 -0.77317399 0.64227635 0.81183672
-2.86984921 3.56798220 1.61369431 -0.91104752 0.90857869 0.88860220
-2.10917759 2.53102946 1.34120345 -0.66956860 0.64452100 0.73855150
-1.94352627 2.56702304 1.27687037 -0.61698180 0.65368664 0.70312566
-2.69319773 2.49715304 1.57920074 -0.85496861 0.63589442 0.86960787
-2.90894055 3.57022905 1.62318325 -0.92345721 0.90915084 0.89382744
-2.14781642 2.54437876 1.35586226 -0.68183470 0.64792037 0.74662358
-1.97973752 2.58133817 1.29046500 -0.62847722 0.65733200 0.71061170
-2.72104788 2.49124050 1.58644938 -0.86380976 0.63438880 0.87359947
-2.51586366 2.54128981 1.50436401 -0.79867309 0.64713377 0.82839805
-2.96743822 3.59525967 1.64351654 -0.94202757 0.91552484 0.90502423
-2.16979885 2.53780913 1.35971987 -0.68881315 0.64624739 0.74874783
-1.99704444 2.57031775 1.29122019 -0.63397139 0.65452564 0.71102756
-2.75575304 2.49117732 1.59772515 -0.87482709 0.63437271 0.87980860
-2.56410646 2.55804491 1.52415025 -0.81398797 0.65140039 0.83929360
-2.20151424 2.54216361 1.36974955 -0.69888133 0.64735627 0.75427079
-2.02678990 2.57526755 1.30028331 -0.64341426 0.65578610 0.71601826
-2.76609135 2.47694969 1.59691978 -0.87810904 0.63074970 0.87936509
-2.60601234 2.57579684 1.54235363 -0.82729119 0.65592092 0.84931755
-2.22447538 2.54419708 1.37669325 -0.70617044 0.64787406 0.75809443
-2.03776002 2.56423092 1.29952812 -0.64689678 0.65297568 0.71560246
-2.55286002 2.49099064 1.50040674 -0.81041777 0.63432521 0.82621890
-2.25026917 2.54116273 1.38286543 -0.71435881 0.64710140 0.76149321
-2.06074476 2.56007528 1.30405962 -0.65419340 0.65191746 0.71809775
-2.67631936 2.58002377 1.56530571 -0.84961051 0.65699726 0.86195642
-2.28355360 2.54610205 1.39366674 -0.72492510 0.64835918 0.76744109
-2.09653282 2.57159925 1.31689894 -0.66555446 0.65485197 0.72516793
-2.91537523 2.51226234 1.65652025 -0.92549998 0.63974196 0.91218489
-2.69777060 2.56825185 1.56847143 -0.85642028 0.65399957 0.86369962
-2.31449056 2.54800558 1.40292490 -0.73474622 0.64884388 0.77253926
-2.11850119 2.56555176 1.32067525 -0.67252845 0.65331203 0.72724736
-2.95491147 2.51393676 1.67021227 -0.93805093 0.64016837 0.91972458
-2.72184229 2.55884266 1.57322013 -0.86406195 0.65160352 0.86631459
-2.33422589 2.53746486 1.40523946 -0.74101126 0.64615977 0.77381378
-2.14637303 2.56646800 1.32822788 -0.68137646 0.65354532 0.73140633
-2.95938516 2.48596025 1.66376901 -0.93947113 0.63304418 0.91617650
-2.77000880 2.57185745 1.59221494 -0.87935269 0.65491772 0.87677431
-2.17790484 2.57139611 1.33804619 -0.69138640 0.65480024 0.73681295
-2.96258664 2.46500611 1.65893650 -0.94048744 0.62770826 0.91351545
-2.79689455 2.57253265 1.60092092 -0.88788766 0.65508968 0.88156837
-2.53497672 2.69343781 1.51016605 -0.80474061 0.68587792 0.83159304
-2.19358325 2.56534863 1.34031200 -0.69636357 0.65326029 0.73806059
-2.82518005 2.56608796 1.60804403 -0.89686704 0.65344852 0.88549083
-2.61074710 2.73857665 1.54565597 -0.82879430 0.69737238 0.85113603
-2.22892070 2.57403064 1.35239613 -0.70758164 0.65547115 0.74471492
-2.59053040 2.68382096 1.52328193 -0.82237637 0.68342900 0.83881545
-2.25596404 2.57257152 1.35919344 -0.71616668 0.65509957 0.74845791
-2.90099525 2.56958580 1.63337040 -0.92093498 0.65433925 0.89943713
-2.61512375 2.67536640 1.52791095 -0.83018368 0.68127608 0.84136444
-2.34415126 2.64047194 1.40375364 -0.74416214 0.67239028 0.77299559
-3.02855420 2.64983869 1.69747794 -0.96142918 0.67477548 0.93473881
-2.64232326 2.66931677 1.53408313 -0.83881825 0.67973554 0.84476328
-2.49970889 2.78211236 1.48909783 -0.79354465 0.70845866 0.81999153
-3.03268957 2.61988783 1.69035482 -0.96274197 0.66714859 0.93081635
