-7.28805828 16.08680534 1.40783644 -0.61773145 0.98537034 0.65426868
-7.33100367 16.04749489 2.01437926 -0.62137145 0.98296249 0.93614942
-7.23777199 15.64898872 1.96543515 -0.61346918 0.95855266 0.91340345
-7.27159643 15.46673775 1.94702065 -0.61633617 0.94738919 0.90484565
-7.29655457 15.27036285 1.92666769 -0.61845160 0.93536055 0.89538693
-7.33585215 15.10820198 1.91091835 -0.62178242 0.92542768 0.88806766
-7.61029863 14.83427525 1.32131708 -0.64504433 0.90864873 0.61406022
-7.75432587 14.71447086 1.31782830 -0.65725201 0.90131032 0.61243892
-7.44538927 15.48214722 1.27802455 -0.63106674 0.94833302 0.59394079
-7.41548729 14.96409893 1.80526233 -0.62853223 0.91660088 0.83896577
-7.74878454 14.72478771 1.23349082 -0.65678233 0.90194225 0.57324445
-8.23770332 14.66789341 1.91431057 -0.69822282 0.89845729 0.88964415
-7.25972176 15.52167988 1.78846836 -0.61532968 0.95075452 0.83116108
-8.31742191 16.12940979 0.72709262 -0.70497972 0.98798001 0.33790427
-8.35925388 14.66755390 1.92157948 -0.70852536 0.89843649 0.89302224
-7.32630730 15.41117764 1.78042150 -0.62097341 0.94398594 0.82742143
-8.57183552 14.97769356 0.78149825 -0.72654366 0.91743356 0.36318839
-8.36589050 15.97589493 0.72166443 -0.70908785 0.97857672 0.33538160
-8.46917343 14.64565563 1.92594075 -0.71784204 0.89709514 0.89504910
-7.37879133 15.27362537 1.76902175 -0.62542194 0.93556041 0.82212359
-8.62947941 14.70850945 1.94241703 -0.73142952 0.90094513 0.90270615
-7.41579151 15.10749722 1.75404549 -0.62855804 0.92538446 0.81516361
-8.77361202 14.74094200 1.95477414 -0.74364609 0.90293175 0.90844893
-7.47233582 14.98417187 1.74443388 -0.63335073 0.91783041 0.81069678
-8.92706299 14.83882999 1.97464252 -0.75665253 0.90892774 0.91768241
-7.49529791 14.85480881 1.73258710 -0.63529694 0.90990651 0.80519116
-7.26859570 15.83485317 1.70156801 -0.61608183 0.96993744 0.79077560
-7.66538143 15.99297333 1.11448193 -0.64971316 0.97962284 0.51793706
-8.24754143 14.62483215 1.81566858 -0.69905668 0.89581966 0.84380192
-7.52033997 14.67484951 1.71582270 -0.63741952 0.89888334 0.79740024
-7.29663229 15.63558769 1.68371272 -0.61845815 0.95773178 0.78247762
-8.59214878 14.77267361 1.27062964 -0.72826540 0.90487540 0.59050411
-7.87084103 14.73628521 1.14556134 -0.66712779 0.90264654 0.53238070
-8.41016006 14.69695377 1.83231843 -0.71284014 0.90023732 0.85153967
-7.63170910 14.66430759 1.72051668 -0.64685911 0.89823765 0.79958165
-8.53120422 14.69367790 1.83902454 -0.72309977 0.90003669 0.85465622
-7.73579597 14.63889599 1.72342253 -0.65568143 0.89668107 0.80093211
-8.66964436 14.71857929 1.84966195 -0.73483384 0.90156198 0.85959977
-8.26400566 16.18642044 1.14548302 -0.70045215 0.99147213 0.53234428
-8.91754532 14.92491913 1.88504291 -0.75584579 0.91420096 0.87604249
-7.43795729 14.94485188 1.62447500 -0.63043678 0.91542190 0.75494790
-7.32903910 16.18922234 1.65061831 -0.62120497 0.99164373 0.76709753
-9.13382912 14.83403969 1.29790854 -0.77417785 0.90863431 0.60318154
-8.91295433 14.75850296 1.86816180 -0.75545669 0.90400743 0.86819726
-8.07597733 14.66310692 1.74398685 -0.68451500 0.89816409 0.81048906
-9.24252129 14.85349560 1.30398881 -0.78339058 0.90982604 0.60600722
-8.18738556 14.64674854 1.74845743 -0.69395787 0.89716208 0.81256664
-7.60725307 14.87279606 1.62573540 -0.64478618 0.91100824 0.75553364
-8.61696625 14.81790733 1.17896724 -0.73036891 0.90764612 0.54790550
-7.79424191 16.03113747 1.02556276 -0.66063529 0.98196054 0.47661331
-8.30381966 14.63820457 1.75404549 -0.70382679 0.89663875 0.81516361
-7.63835287 14.70460796 1.61145115 -0.64742219 0.90070617 0.74889529
-7.35233164 15.52275276 1.59071493 -0.62317920 0.95082027 0.73925847
-8.51982498 14.80090332 1.78198612 -0.72213525 0.90660459 0.82814854
-7.70467234 14.60703468 1.60556936 -0.65304339 0.89472950 0.74616182
-7.37703991 15.32572269 1.57388592 -0.62527347 0.93875152 0.73143744
-8.92048550 14.90509319 1.19658971 -0.75609499 0.91298658 0.55609524
-8.70806599 14.91000748 1.80322111 -0.73809046 0.91328758 0.83801717
-7.50036097 14.80060768 2.10617828 -0.63572609 0.90658647 0.97881150
-10.70645428 15.04010201 1.47795904 -0.90747267 0.92125630 0.68685699
-8.32210732 16.32564354 1.05813503 -0.70537680 1.00000000 0.49175075
-8.88887596 15.00194550 1.82244420 -0.75341582 0.91891909 0.84695077
-7.44387960 14.98069382 1.54563725 -0.63093877 0.91761738 0.71830934
-7.32027149 16.21377182 1.51552677 -0.62046182 0.99314749 0.70431602
-7.74776220 15.05257893 2.15177107 -0.65669566 0.92202055 1.00000000
-10.88596153 15.09039688 1.49069273 -0.92268759 0.92433703 0.69277477
-9.56061745 16.04485703 0.66555798 -0.81035221 0.98280090 0.30930707
-9.28514957 15.08028698 1.22264016 -0.78700370 0.92371774 0.56820178
-8.23969936 15.91699886 1.03194690 -0.69839197 0.97496915 0.47958025
-8.84590244 14.77076054 1.79763293 -0.74977338 0.90475821 0.83542013
-7.46779680 14.85305595 1.53521919 -0.63296598 0.90979910 0.71346772
-7.26940393 15.90003681 1.48701394 -0.61615032 0.97393018 0.69106513
-9.10030174 15.92475605 1.15731978 -0.77133614 0.97544432 0.53784519
-8.25059414 15.75607395 1.02295697 -0.69931543 0.96511197 0.47540233
-7.58002472 14.84303570 1.53942645 -0.64247835 0.90918535 0.71542299
-9.41202259 14.91661263 1.21712363 -0.79775739 0.91369218 0.56563807
-7.94287682 14.94136906 0.96654189 -0.67323345 0.91520858 0.44918436
-7.57395840 14.60445499 1.51778913 -0.64196420 0.89457148 0.70536739
-7.32097006 15.49396610 1.45479810 -0.62052101 0.94905698 0.67609334
-7.35394478 14.99730015 2.00296569 -0.62331593 0.91863453 0.93084514
-7.82867432 15.87498283 0.91644895 -0.66355371 0.97239554 0.42590448
-7.73992157 14.69734478 1.53381681 -0.65603113 0.90026128 0.71281600
-7.37346029 15.35426044 1.44517040 -0.62497008 0.94049954 0.67161906
-7.39949751 14.85307980 1.98897433 -0.62717700 0.90980059 0.92434293
-8.86006069 14.84524059 1.08291733 -0.75097340 0.90932041 0.50326788
-7.81406355 15.59687042 0.90122414 -0.66231537 0.95536023 0.41882899
-7.44799852 14.71773815 1.97625506 -0.63128787 0.90151042 0.91843182
-11.74575520 15.29726887 1.55017495 -0.99556315 0.93700862 0.72041816
-9.22951412 15.24698830 1.12068212 -0.78228807 0.93392879 0.52081847
-7.86131668 15.44776535 0.89456332 -0.66632050 0.94622701 0.41573349
-7.41517401 15.01498604 1.41850901 -0.62850571 0.91971785 0.65922856
-7.49742985 14.64360619 1.97065854 -0.63547766 0.89696962 0.91583097
-9.25969315 15.13520622 1.11504567 -0.78484601 0.92708176 0.51819903
-9.04936314 16.09219933 1.06712496 -0.76701862 0.98570079 0.49592867
-7.85470057 15.25602818 0.88421524 -0.66575968 0.93448251 0.41092440
-7.61393976 14.64376163 1.97752690 -0.64535296 0.89697915 0.91902292
-9.14632988 16.02809525 1.06660378 -0.77523744 0.98177415 0.49568647
-7.86456966 15.04173374 0.87315345 -0.66659623 0.92135626 0.40578362
-7.71319056 14.60967636 1.97956204 -0.65376538 0.89489132 0.91996872
-9.38870144 14.92133522 1.10701358 -0.79578072 0.91398144 0.51446623
-7.83849382 14.62390995 1.98871994 -0.66438603 0.89576316 0.92422467
-8.86646938 14.88140965 0.99272996 -0.75151664 0.91153586 0.46135482
-10.30201721 15.02869225 1.91051316 -0.87319279 0.92055744 0.88787937
-8.05800343 14.59028816 1.99838662 -0.68299156 0.89370370 0.92871714
-11.79810143 15.39492416 1.46076035 -1.00000000 0.94299036 0.67886418
-10.42938614 15.06161499 1.92168939 -0.88398850 0.92257404 0.89307332
-8.17299366 14.63534546 2.01059723 -0.69273806 0.89646363 0.93439180
-9.26616287 15.16936207 1.02230549 -0.78539443 0.92917389 0.47509956
-8.31870174 14.81602859 0.87422395 -0.70508820 0.90753108 0.40628111
-10.59128094 15.09169674 1.93487740 -0.89771062 0.92441666 0.89920223
-8.27259636 14.59752083 2.01263237 -0.70118028 0.89414674 0.93533760
-8.44013596 14.67776394 2.03222013 -0.71538085 0.89906192 0.94444066
-9.37627888 14.92507172 1.01253390 -0.79472780 0.91421032 0.47055838
-8.70736217 14.84616661 0.88730776 -0.73803079 0.90937710 0.41236159
-11.07416821 15.83739853 1.22679019 -0.93863988 0.97009337 0.57013047
-8.85242939 14.87872791 0.89337385 -0.75032663 0.91137159 0.41518071
-11.25638580 15.88479137 1.23693597 -0.95408452 0.97299635 0.57484555
-11.43894386 15.98255920 1.25004101 -0.96955800 0.97898495 0.58093590
-9.37418365 14.94360065 0.91288060 -0.79455018 0.91534525 0.42424616
-10.06258011 15.82169819 0.97901326 -0.85289824 0.96913165 0.45498022
-11.02152348 15.12442589 1.83789861 -0.93417770 0.92642140 0.85413295
-11.15054607 15.10131550 1.84399045 -0.94511360 0.92500585 0.85696405
-9.70724201 14.82930756 1.50941682 -0.82278001 0.90834445 0.70147651
-9.85848331 14.85603237 1.51922977 -0.83559912 0.90998143 0.70603693
-11.06621933 15.19764233 1.75419688 -0.93796611 0.93090618 0.81523395
-11.16030693 15.12621117 1.75399649 -0.94594091 0.92653078 0.81514084
-11.28742599 15.14838886 1.76341283 -0.95671546 0.92788923 0.81951696
-10.82192898 15.09603691 1.58847523 -0.91726023 0.92468250 0.73821759
-11.46668720 15.42664337 1.64864850 -0.97190952 0.94493324 0.76618212
