18.49538231 2.21392560 2.13455844 0.83219540 0.56272358 0.75024408
18.20735931 2.29527330 2.10087919 0.81923586 0.58340013 0.73840672
18.13944817 2.40253043 2.09433722 0.81618023 0.61066216 0.73610735
18.09253693 2.51205230 2.09046054 0.81406945 0.63849986 0.73474479
18.03121758 2.61906672 2.08488750 0.81131041 0.66570020 0.73278600
17.96763802 2.69629025 2.07858777 0.80844963 0.68532842 0.73057181
19.07246971 2.19047737 2.09594083 0.85816127 0.55676365 0.73667097
18.00329018 2.81747723 2.08512998 0.81005383 0.71613109 0.73287123
18.58889961 2.25386882 2.04090381 0.83640319 0.57287616 0.71732682
17.98523140 2.93053889 2.08512998 0.80924124 0.74486852 0.73287123
18.32604027 2.33920097 2.01176667 0.82457590 0.59456545 0.70708585
17.97429276 3.04481983 2.08609915 0.80874908 0.77391577 0.73321187
18.25781250 2.44723296 2.00552297 0.82150596 0.62202442 0.70489132
17.96262550 3.15907907 2.08706832 0.80822414 0.80295759 0.73355252
18.24010658 2.56162715 2.00529170 0.82070929 0.65110052 0.70481008
20.97931099 2.10471320 2.23261285 0.94395918 0.53496456 0.78470778
18.01662445 3.28549480 2.09627557 0.81065381 0.83508927 0.73678863
18.14108849 2.66415000 1.99557936 0.81625402 0.67715919 0.70139641
20.12782478 2.14629388 2.13783836 0.90564674 0.54553336 0.75139689
18.64453316 2.25939107 2.60338330 0.83890641 0.57427979 0.91502434
19.97982407 2.47414446 1.40882468 0.89898747 0.62886465 0.49516678
18.00484276 3.37109447 2.09676003 0.81012368 0.85684651 0.73695892
18.10868645 2.74665070 1.99326682 0.81479609 0.69812876 0.70058364
19.48350334 2.16984797 2.06608677 0.87665564 0.55152017 0.72617799
19.92048073 2.56211591 1.40514708 0.89631736 0.65122473 0.49387419
17.99889565 3.48719311 2.09869862 0.80985606 0.88635582 0.73764026
18.08322144 2.85914373 1.99234188 0.81365031 0.72672164 0.70025855
18.92674637 2.22775292 2.00461721 0.85160452 0.56623816 0.70457298
17.93199730 2.37263060 2.50223088 0.80684602 0.60306239 0.87947178
19.87039948 2.68265891 1.40254200 0.89406395 0.68186373 0.49295858
18.01166153 3.60727024 2.10305977 0.81043047 0.91687638 0.73917311
18.07470322 2.97430873 1.99349809 0.81326705 0.75599366 0.70066488
18.57514954 2.30442047 1.96639442 0.83578449 0.58572513 0.69113863
17.89125633 2.48168969 2.49847388 0.80501288 0.63078243 0.87815130
21.06364059 2.11886096 2.84515190 0.94775355 0.53856057 1.00000000
19.86104774 2.80857944 1.40315497 0.89364320 0.71386951 0.49317402
18.26269913 3.77736545 2.13722372 0.82172585 0.96011025 0.75118089
18.04978371 3.08681798 1.99280441 0.81214577 0.78459066 0.70042109
18.48739624 2.41149426 1.95812404 0.83183604 0.61294055 0.68823183
17.88314438 2.59519982 2.49962997 0.80464786 0.65963382 0.87855762
21.04597282 2.25074768 2.84459352 0.94695860 0.57208282 0.99980372
19.85484314 2.93507552 1.40407431 0.89336401 0.74602157 0.49349713
18.33954239 3.91369271 2.14982319 0.82518339 0.99476117 0.75560927
18.05742073 3.20499635 1.99604189 0.81248939 0.81462860 0.70155901
18.46006584 2.52597594 1.95678282 0.83060634 0.64203888 0.68776041
21.15068626 2.09406686 2.10614872 0.95167017 0.53225857 0.74025881
17.86257172 2.70691347 2.49905181 0.80372220 0.68802857 0.87835443
19.55341721 2.21691346 2.63492727 0.87980139 0.56348306 0.92611128
19.73996353 3.77385759 1.51860476 0.88819504 0.95921868 0.53375173
19.81827545 3.05701447 1.40269518 0.89171863 0.77701539 0.49301240
18.05256081 3.32124877 1.99789178 0.81227070 0.84417701 0.70220917
18.34744453 2.62799954 1.94583011 0.82553893 0.66797066 0.68391079
20.33001137 2.14266634 2.02044296 0.91474408 0.54461133 0.71013534
17.84912109 2.81971502 2.49962997 0.80311704 0.71669990 0.87855762
18.72689056 2.24331927 2.51962471 0.84261203 0.57019472 0.88558531
19.85379601 3.19038963 1.40698588 0.89331686 0.81091595 0.49452049
18.08552170 3.41544461 2.00367308 0.81375378 0.86811918 0.70424116
18.31716537 2.71179128 1.94381845 0.82417655 0.68926841 0.68320376
19.41215706 2.13938403 1.92402434 0.87344545 0.54377705 0.67624664
17.84930611 2.90603685 2.50165296 0.80312532 0.73864067 0.87926871
18.12842941 2.25897598 2.43614912 0.81568444 0.57417428 0.85624570
19.85624504 3.28686166 1.40836501 0.89342707 0.83543670 0.49500522
21.35021400 2.71105099 1.38193619 0.96064788 0.68908024 0.48571613
18.10270882 3.53658628 2.00829792 0.81452715 0.89891034 0.70586669
18.28405380 2.82438254 1.94203019 0.82268673 0.71788627 0.68257523
19.17901802 2.23597670 1.90070736 0.86295539 0.56832844 0.66805130
17.83459473 3.01879430 2.50223088 0.80246341 0.76730078 0.87947178
17.94890976 2.35141134 2.41269779 0.80760700 0.59766901 0.84800315
21.90627670 2.06356025 2.83834434 0.98566777 0.52450454 0.99760729
19.88039398 3.41937637 1.41188955 0.89451367 0.86911857 0.49624398
21.23189163 2.83178830 1.37474966 0.95532399 0.71976858 0.48319024
18.17167282 3.66863513 2.01916671 0.81763017 0.93247378 0.70968676
18.25417519 2.93730068 1.94068909 0.82134235 0.74658716 0.68210387
19.01256752 2.33790708 1.88453257 0.85546601 0.59423655 0.66236627
18.05302429 3.17284870 2.53748965 0.81229156 0.80645746 0.89186436
17.99264908 2.47216177 2.42107320 0.80957502 0.62836069 0.85094690
21.08837891 2.11952233 2.72892189 0.94886667 0.53872871 0.95914805
19.88403320 3.54880071 1.41388166 0.89467740 0.90201491 0.49694416
21.07337761 2.94566059 1.36474478 0.94819164 0.74871206 0.47967377
18.21440125 3.79644775 2.02702904 0.81955272 0.96496052 0.71245021
18.25495911 3.05523849 1.94292426 0.82137758 0.77656394 0.68288946
18.91069984 2.44618559 1.87528980 0.85088247 0.62175816 0.65911764
17.84781075 3.25230432 2.51003408 0.80305803 0.82665306 0.88221443
17.78854561 2.55831218 2.39427161 0.80039144 0.65025795 0.84152681
20.22141266 2.15997958 2.61279440 0.90985769 0.54901189 0.91833210
19.98485374 3.69663882 1.42353559 0.89921379 0.93959159 0.50033730
21.02286530 3.07342243 1.36249018 0.94591886 0.78118587 0.47888136
18.58100700 2.27541828 2.82491016 0.83604807 0.57835346 0.99288553
18.26789474 3.92743421 2.03627896 0.82195961 0.99825394 0.71570134
18.23540115 3.16987681 1.94292426 0.82049757 0.80570209 0.68288946
18.82793808 2.55593109 1.86814761 0.84715867 0.64965272 0.65660733
17.91257095 3.38062453 2.52275038 0.80597192 0.85926884 0.88668388
17.89552307 2.68842649 2.41186023 0.80520487 0.68332964 0.84770876
21.30262184 2.10673118 2.01664948 0.95850646 0.53547752 0.70880204
19.38434219 2.19300222 2.50068974 0.87219393 0.55740541 0.87893015
21.03667259 3.21053600 1.36488569 0.94654012 0.81603664 0.47972330
18.27021027 2.35429335 2.77931833 0.82206380 0.59840155 0.97686112
18.23663521 3.28829288 1.94538307 0.82055312 0.83580047 0.68375367
18.79181290 2.67140102 1.86604702 0.84553319 0.67900223 0.65586901
19.44669151 2.04487872 1.83012784 0.87499928 0.51975620 0.64324433
18.70510101 2.23457265 2.41004062 0.84163165 0.56797159 0.84706920
21.03381920 3.34545255 1.36615384 0.94641173 0.85032898 0.48016903
18.26289558 2.47009254 2.78052592 0.82173467 0.62783474 0.97728556
18.24438477 3.37856269 1.94806540 0.82090181 0.85874474 0.68469644
18.75342941 2.75619316 1.86331618 0.84380615 0.70055425 0.65490919
17.90985680 2.89224291 2.41828132 0.80584979 0.73513460 0.84996563
19.50803947 2.14439750 1.83734024 0.87775964 0.54505134 0.64577931
21.12808800 3.46249795 1.37404501 0.95065337 0.88007897 0.48294258
18.28719521 3.50554609 1.95544171 0.82282805 0.89102072 0.68728906
18.71607971 2.87097454 1.86121559 0.84212559 0.72972876 0.65417093
17.87375069 3.00178361 2.41576862 0.80422521 0.76297706 0.84908247
18.05650711 2.35805368 2.32502365 0.81244832 0.59935731 0.81718791
21.90336418 2.03742290 2.68192315 0.98553669 0.51786113 0.94262916
18.26480865 3.62037802 1.95544171 0.82182080 0.92020804 0.68728906
18.67999268 2.98570752 1.85932505 0.84050190 0.75889093 0.65350640
17.86429405 3.11571813 2.41716456 0.80379969 0.79193634 0.84957314
17.97850990 2.46278071 2.31644154 0.80893880 0.62597626 0.81417149
21.23469162 2.11049199 2.59746695 0.95544994 0.53643340 0.91294491
18.39548492 3.76673007 1.97310019 0.82770050 0.95740706 0.69349557
18.67460060 3.10528660 1.86079550 0.84025925 0.78928488 0.65402323
17.85606003 3.23000264 2.41883969 0.80342925 0.82098454 0.85016191
17.95091248 2.57399273 2.31483221 0.80769706 0.65424353 0.81360584
20.14575005 2.13121104 2.45882630 0.90645331 0.54169965 0.86421615
18.45505142 3.89999700 1.98271179 0.83038068 0.99128008 0.69687378
18.66256142 3.22390652 1.86163568 0.83971757 0.81943506 0.65431857
17.76142883 3.32835317 2.40823078 0.79917133 0.84598279 0.84643310
17.93046570 2.68613839 2.31429601 0.80677706 0.68274808 0.81341738
19.40246391 2.17667770 2.36470318 0.87300932 0.55325615 0.83113426
18.67718315 3.34738040 1.86541688 0.84037548 0.85081899 0.65564758
21.23022652 2.20424604 1.84601665 0.95524907 0.56026334 0.64882886
17.89365578 2.79566360 2.31161404 0.80512083 0.71058661 0.81247473
18.94116783 2.24599481 2.30695748 0.85225338 0.57087481 0.81083804
18.68859291 3.44036889 1.86835778 0.84088886 0.87445432 0.65668118
17.90832901 3.55992126 2.43475318 0.80578107 0.90484148 0.85575509
17.92332268 2.88693619 2.31751418 0.80645567 0.73378581 0.81454849
18.25103760 2.25216079 2.21919417 0.82120115 0.57244200 0.77999145
18.74086571 3.57179499 1.87634015 0.84324086 0.90785950 0.65948683
17.91083145 3.67752171 2.43838263 0.80589366 0.93473256 0.85703075
17.91851044 3.00180149 2.31939149 0.80623919 0.76298165 0.81520832
18.19127274 2.36096811 2.21334314 0.81851202 0.60009807 0.77793497
18.76684761 3.69903970 1.88159168 0.84440988 0.94020188 0.66133261
17.92806816 3.79856062 2.44424534 0.80666924 0.96549755 0.85909134
19.39965820 2.35537386 1.67845738 0.87288308 0.59867615 0.58993596
17.91100883 3.11637831 2.32100081 0.80590165 0.79210413 0.81577396
18.25275040 2.48557425 2.22326422 0.82127821 0.63176978 0.78142196
18.88943863 3.84649229 1.89734638 0.84992588 0.97768056 0.66687000
17.97738647 3.92710972 2.45485425 0.80888826 0.99817145 0.86282009
19.04668999 3.16067481 1.80528498 0.85700136 0.80336320 0.63451266
17.89692497 3.22991681 2.32180524 0.80526793 0.82096273 0.81605667
18.12284851 2.58409476 2.20850992 0.81543332 0.65681118 0.77623624
17.90354729 3.34743190 2.32556009 0.80556589 0.85083210 0.81737643
18.01990891 2.68514442 2.19731688 0.81080157 0.68249547 0.77230215
17.90356064 3.46402168 2.32851005 0.80556649 0.88046622 0.81841326
18.03797150 2.80375814 2.20189595 0.81161427 0.71264404 0.77391154
17.99004936 3.56890607 2.34272432 0.80945802 0.90712517 0.82340920
17.98668289 3.68586993 2.34540629 0.80930656 0.93685442 0.82435185
17.86171341 3.09347248 2.18561506 0.80368358 0.78628206 0.76818925
18.02429962 3.35521030 2.21207142 0.81099910 0.85280919 0.77748799
18.03013992 3.47361708 2.21563268 0.81126189 0.88290519 0.77873969
17.91624069 3.53942800 2.20291352 0.80613703 0.89963263 0.77426922
19.44093704 3.80069304 1.70326722 0.87474042 0.96603954 0.59865600
18.15576744 3.82407427 2.24030828 0.81691450 0.97198248 0.78741252
18.11392975 3.93430376 2.23801875 0.81503201 1.00000000 0.78660780
21.66268158 2.14891648 1.76752007 0.97470725 0.54619992 0.62123924
22.22480774 1.99377501 2.58450389 1.00000000 0.50676692 0.90838873
20.36274529 2.05097127 2.35892534 0.91621691 0.52130479 0.82910347
19.75732422 2.11487651 2.28623629 0.88897616 0.53754783 0.80355507
19.25449181 2.18299437 2.22614670 0.86635131 0.55486166 0.78243512
