-8.45879650 -6.05463600 2.32782078 -0.87911838 -0.79463577 0.87217772
-8.81781101 -6.08033228 1.83245921 -0.91643059 -0.79800826 0.68657780
-8.30550098 -6.02384520 2.29548979 -0.86318648 -0.79059464 0.86006409
-8.69395161 -6.07563448 1.81426179 -0.90355796 -0.79739171 0.67975968
-8.15293026 -5.99137020 2.26315880 -0.84732985 -0.78633249 0.84795046
-8.57853127 -6.07533121 1.79778123 -0.89156234 -0.79735190 0.67358482
-8.04327297 -5.98875284 2.24278593 -0.83593327 -0.78598899 0.84031719
-9.19702911 -6.10309458 2.40827227 -0.95584255 -0.80099565 0.90232092
-8.45866585 -6.07036448 1.78027046 -0.87910479 -0.79670006 0.66702396
-7.88267183 -5.94613171 2.20779753 -0.81924206 -0.78039521 0.82720792
-9.14390087 -6.15097809 2.40438318 -0.95032096 -0.80728012 0.90086377
-8.34553432 -6.04870796 1.76207316 -0.86734712 -0.79385775 0.66020584
-9.60920238 -6.22835255 1.90154147 -0.99867952 -0.81743503 0.71246123
-7.79724932 -5.93936539 2.19141054 -0.81036413 -0.77950716 0.82106811
-8.97088718 -6.09658146 2.36592293 -0.93233973 -0.80014086 0.88645363
-8.22649193 -6.04138470 1.74456239 -0.85497510 -0.79289663 0.65364498
-9.42468166 -6.19356155 1.87220895 -0.97950232 -0.81286895 0.70147103
-7.67653275 -5.92372322 2.16749454 -0.79781812 -0.77745420 0.81210738
-8.10787392 -6.03280640 1.72705173 -0.84264719 -0.79177076 0.64708418
-9.21304989 -6.13816500 1.83720994 -0.95750755 -0.80559844 0.68835777
-7.55018759 -5.90198374 2.14180684 -0.78468716 -0.77460104 0.80248278
-8.68033504 -6.06055880 2.30844903 -0.90214276 -0.79541308 0.86491960
-7.97712421 -6.01346493 1.70679426 -0.82905847 -0.78923231 0.63949418
-9.04176331 -6.10677433 1.81021059 -0.93970585 -0.80147862 0.67824179
-7.43663406 -5.88860512 2.11966252 -0.77288556 -0.77284515 0.79418588
-8.54631138 -6.04748678 2.28252077 -0.88821375 -0.79369748 0.85520488
-7.87351942 -6.01310539 1.69237363 -0.81829083 -0.78918511 0.63409114
-8.89405060 -6.08903074 1.78787792 -0.92435414 -0.79914987 0.66987425
-7.31291819 -5.86546946 2.09441781 -0.76002783 -0.76980877 0.78472728
-8.42551041 -6.04205179 2.26004982 -0.87565899 -0.79298419 0.84678555
-7.76712513 -6.00926590 1.67726648 -0.80723333 -0.78868121 0.62843084
-8.76314545 -6.08088684 1.76887834 -0.91074926 -0.79808104 0.66275561
-7.19281197 -5.84348106 2.07005882 -0.74754524 -0.76692289 0.77560055
-8.27664375 -6.01473284 2.22980022 -0.86018735 -0.78939873 0.83545178
-7.67826557 -5.99836874 1.66387594 -0.79799819 -0.78725100 0.62341374
-8.64222336 -6.05777264 1.74987888 -0.89818186 -0.79504740 0.65563697
-7.15014315 -5.86490917 2.06562996 -0.74311072 -0.76973522 0.77394122
-8.15519142 -5.98568439 2.20430422 -0.84756488 -0.78558624 0.82589906
-7.58026886 -5.99868250 1.65048540 -0.78781348 -0.78729218 0.61839664
-8.52349663 -6.05500650 1.73321271 -0.88584262 -0.79468441 0.64939255
-7.00833321 -5.82224369 2.03462768 -0.72837251 -0.76413560 0.76232541
-8.03268051 -5.97405005 2.18096900 -0.83483237 -0.78405935 0.81715590
-7.47643518 -5.99306154 1.63572145 -0.77702206 -0.78655446 0.61286497
-8.38912201 -6.03949976 1.71321321 -0.87187713 -0.79264921 0.64189923
-6.91799021 -5.82083797 2.01868367 -0.71898317 -0.76395112 0.75635153
-7.92157459 -5.96931887 2.16065860 -0.82328522 -0.78343838 0.80954611
-9.19883919 -6.10631037 2.32716131 -0.95603067 -0.80141771 0.87193060
-7.42336273 -6.02746677 1.63228798 -0.77150631 -0.79106998 0.61157852
-8.26326084 -6.02834129 1.69488037 -0.85879648 -0.79118472 0.63503033
-6.83535099 -5.82487059 2.00495386 -0.71039456 -0.76448041 0.75120735
-7.78286600 -5.94215727 2.13256979 -0.80886930 -0.77987361 0.79902190
-9.14732552 -6.15522909 2.32381487 -0.95067686 -0.80783802 0.87067676
-7.08456516 -5.82554245 1.56430531 -0.73629522 -0.76456857 0.58610708
-8.16010761 -6.03220940 1.68121409 -0.84807581 -0.79169238 0.62990993
-6.74262142 -5.81915236 1.98812413 -0.70075721 -0.76372993 0.74490166
-7.68194580 -5.94208813 2.11485219 -0.79838067 -0.77986449 0.79238355
-9.61841393 -6.27862406 1.82501471 -0.99963683 -0.82403290 0.68378854
-9.58020878 -6.38688421 1.54215133 -0.99566621 -0.83824140 0.57780653
-6.98133087 -5.81431150 1.54919803 -0.72556615 -0.76309454 0.58044672
-8.03984547 -6.02205181 1.66388118 -0.83557701 -0.79035926 0.62341571
-6.65756321 -5.81893539 1.97350883 -0.69191712 -0.76370144 0.73942566
-7.55208445 -5.91816378 2.08892393 -0.78488427 -0.77672458 0.78266889
-9.40116787 -6.22094679 1.79050553 -0.97705859 -0.81646311 0.67085880
-8.87805748 -6.13698864 2.27403760 -0.92269200 -0.80544406 0.85202646
-9.46147251 -6.37210464 1.52654505 -0.98332602 -0.83630168 0.57195920
-6.93127632 -5.82807446 1.54404783 -0.72036403 -0.76490086 0.57851708
-7.95782232 -6.01953125 1.65254819 -0.82705241 -0.79002845 0.61916953
-6.57023096 -5.79719877 1.95535028 -0.68284076 -0.76084864 0.73262209
-7.45048475 -5.89567995 2.06818151 -0.77432507 -0.77377373 0.77489722
-9.22912502 -6.16946125 1.76270652 -0.95917827 -0.80970591 0.66044319
-8.68889523 -6.06648874 2.23220801 -0.90303242 -0.79619139 0.83635390
-9.29391479 -6.34416866 1.50400245 -0.96591181 -0.83263522 0.56351304
-6.89751530 -5.87407160 1.54473448 -0.71685523 -0.77093774 0.57877433
-7.84616232 -6.01318455 1.63688195 -0.81544763 -0.78919548 0.61329979
-6.47562456 -5.78624916 1.93763471 -0.67300832 -0.75941157 0.72598451
-7.35071659 -5.89243460 2.05046391 -0.76395619 -0.77334780 0.76825887
-9.06448555 -6.14181948 1.73810279 -0.94206733 -0.80607808 0.65122473
-8.54537964 -6.04620266 2.20460033 -0.88811696 -0.79352891 0.82600999
-9.12221146 -6.31099558 1.48059297 -0.94806677 -0.82828146 0.55474210
-6.88131905 -5.93535662 1.54954135 -0.71517199 -0.77898103 0.58057535
-7.75362062 -6.02014875 1.62521553 -0.80582982 -0.79010952 0.60892862
-6.37564564 -5.76909399 1.91814756 -0.66261756 -0.75716001 0.71868312
-7.23306274 -5.87343836 2.02756071 -0.75172853 -0.77085465 0.75967759
-8.91356468 -6.12132168 1.71605527 -0.92638224 -0.80338788 0.64296407
-8.41040230 -6.03006935 2.17908430 -0.87408882 -0.79141152 0.81644976
-8.98204327 -6.29756212 1.46267450 -0.93349916 -0.82651842 0.54802847
-7.65975094 -6.02497244 1.61321592 -0.79607397 -0.79074258 0.60443270
-6.27900982 -5.75355482 1.89954615 -0.65257430 -0.75512064 0.71171361
-7.13256073 -5.86680794 2.00941086 -0.74128342 -0.76998442 0.75287724
-8.80372238 -6.12744570 1.70199609 -0.91496634 -0.80419159 0.63769644
-8.30598927 -6.03438187 2.16151595 -0.86323720 -0.79197752 0.80986732
-8.84401989 -6.28376818 1.44504511 -0.91915447 -0.82470804 0.54142320
-6.71608829 -5.96079540 2.51606560 -0.69799960 -0.78231972 0.94270843
-6.81797361 -6.03182983 1.55228817 -0.70858854 -0.79164261 0.58160454
-6.17569113 -5.73038149 1.87873030 -0.64183640 -0.75207925 0.70391446
-7.02040529 -5.84917498 1.98780417 -0.72962713 -0.76767021 0.74478179
-8.66354465 -6.11075306 1.68186569 -0.90039778 -0.80200082 0.63015407
-8.16096497 -6.00739574 2.13307166 -0.84816492 -0.78843576 0.79920995
-9.37316036 -6.16533995 2.26415634 -0.97414774 -0.80916500 0.84832418
-6.39006329 -5.74243212 2.40566802 -0.66411602 -0.75366080 0.90134513
-6.75211430 -6.04950571 1.54576457 -0.70174378 -0.79396242 0.57916027
-7.65414429 -6.17757654 1.62854886 -0.79549128 -0.81077099 0.61017758
-6.13247395 -5.76237583 1.87651587 -0.63734490 -0.75627834 0.70308477
-6.94314528 -5.85925627 1.97613645 -0.72159755 -0.76899332 0.74041015
-8.53515625 -6.10060167 1.66397214 -0.88705444 -0.80066848 0.62344980
-8.03539753 -5.99289703 2.10964704 -0.83511478 -0.78653288 0.79043329
-9.19550896 -6.13196898 2.23003817 -0.95568454 -0.80478525 0.83554095
-6.34160471 -5.75304031 2.39747024 -0.65907973 -0.75505310 0.89827365
-6.05160427 -5.74007607 1.85968614 -0.62894017 -0.75335163 0.69677907
-6.84099483 -5.82875586 1.95452976 -0.71098107 -0.76499033 0.73231465
-8.41519737 -6.07470846 1.64575899 -0.87458718 -0.79727018 0.61662579
-7.91347694 -5.95990849 2.08454943 -0.82244360 -0.78220332 0.78102988
-9.08678818 -6.12173986 2.21036983 -0.94438523 -0.80344278 0.82817167
-9.62190819 -6.56835365 1.50312006 -1.00000000 -0.86205822 0.56318247
-6.25585413 -5.74709892 2.37834191 -0.65016770 -0.75427330 0.89110672
-6.98246813 -5.76549625 1.49655235 -0.72568434 -0.75668788 0.56072170
-5.98875666 -5.75225067 1.85127115 -0.62240839 -0.75494945 0.69362617
-6.76424217 -5.83726835 1.94286203 -0.70300424 -0.76610750 0.72794306
-8.30048466 -6.07136345 1.63042152 -0.86266512 -0.79683113 0.61087918
-9.60623264 -6.26724052 1.71772289 -0.99837083 -0.82253885 0.64358890
-7.78893948 -5.94289637 2.06112480 -0.80950052 -0.77997059 0.77225322
-8.92663860 -6.09606981 2.18026567 -0.92774099 -0.80007368 0.81689239
-9.19889736 -6.36566925 1.43779123 -0.95603669 -0.83545709 0.53870535
-6.16199827 -5.73242569 2.35593438 -0.64041334 -0.75234753 0.88271117
-6.94458961 -5.80799246 1.49621904 -0.72174764 -0.76226521 0.56059682
-5.92599583 -5.76386309 1.84285629 -0.61588573 -0.75647348 0.69047332
-6.65818882 -5.81941366 1.92255163 -0.69198215 -0.76376420 0.72033322
-8.19565201 -6.07389116 1.61700130 -0.85176992 -0.79716289 0.60585099
-9.41642857 -6.22848892 1.69024706 -0.97864461 -0.81745297 0.63329434
-7.66956615 -5.92815495 2.03895497 -0.79709411 -0.77803588 0.76394671
-8.80911636 -6.09754562 2.16059732 -0.91552699 -0.80026740 0.80952317
-9.06780529 -6.35982656 1.42215705 -0.94241238 -0.83469027 0.53284758
-6.13005066 -5.77499723 2.35757399 -0.63709301 -0.75793481 0.88332552
-6.92303610 -5.86422396 1.49955225 -0.71950758 -0.76964527 0.56184566
-5.85501003 -5.76668262 1.83178401 -0.60850823 -0.75684357 0.68632483
-6.57167721 -5.81724167 1.90785909 -0.68299103 -0.76347911 0.71482831
-8.09742355 -6.08009768 1.60485923 -0.84156108 -0.79797745 0.60130161
-9.28503990 -6.22603703 1.67333877 -0.96498942 -0.81713116 0.62695926
-7.56298733 -5.92182255 2.02013159 -0.78601742 -0.77720475 0.75689405
-8.64374733 -6.06412220 2.12888741 -0.89834023 -0.79588079 0.79764223
-8.88543129 -6.31596994 1.39758897 -0.92345834 -0.82893431 0.52364254
-6.01031590 -5.73351765 2.32478261 -0.62464905 -0.75249082 0.87103939
-6.89805031 -5.91785192 1.50221884 -0.71691084 -0.77668363 0.56284475
-5.82692671 -5.81164074 1.83444130 -0.60558951 -0.76274407 0.68732041
-6.47088718 -5.80121279 1.88884509 -0.67251599 -0.76137543 0.70770419
-7.99473619 -6.08171558 1.59175861 -0.83088887 -0.79818982 0.59639317
-9.09675694 -6.18338823 1.64586294 -0.94542128 -0.81153375 0.61666471
-7.44302654 -5.90341902 1.99754369 -0.77354997 -0.77478939 0.74843091
-8.49993896 -6.04358387 2.10239553 -0.88339430 -0.79318523 0.78771633
-8.76535892 -6.29326057 1.38195467 -0.91097927 -0.82595384 0.51778471
-5.90995693 -5.69086885 2.29581690 -0.61421883 -0.74689347 0.86018664
-5.78576565 -5.82516336 1.83001244 -0.60131168 -0.76451880 0.68566108
-6.38544178 -5.77936268 1.87155962 -0.66363567 -0.75850773 0.70122778
-7.90502167 -6.07229233 1.57929695 -0.82156485 -0.79695308 0.59172404
-8.95328331 -6.14805889 1.62472773 -0.93051016 -0.80689698 0.60874587
-7.34197569 -5.87958860 1.97746551 -0.76304775 -0.77166182 0.74090815
-8.39486885 -6.02886295 2.08312893 -0.87247443 -0.79125321 0.78049761
-5.82736492 -5.68210649 2.27723503 -0.60563505 -0.74574345 0.85322446
-6.62317419 -5.81210232 2.39818001 -0.68834311 -0.76280463 0.89853960
-6.86672878 -6.02317381 1.50988531 -0.71365559 -0.79050654 0.56571722
-5.71771955 -5.82929850 1.81982601 -0.59423965 -0.76506150 0.68184441
-6.29418230 -5.76935911 1.85513842 -0.65415114 -0.75719482 0.69507515
-8.82023525 -6.13886452 1.60721552 -0.91668254 -0.80569029 0.60218447
-7.26091862 -5.88977766 1.96533489 -0.75462353 -0.77299905 0.73636305
-8.25211430 -6.00560570 2.05663705 -0.85763800 -0.78820080 0.77057177
-8.52435970 -6.28452396 1.35375726 -0.88593233 -0.82480723 0.50721985
-5.76696730 -5.69421577 2.26739764 -0.59935796 -0.74733269 0.84953862
-6.48111534 -5.76035595 2.35932255 -0.67357898 -0.75601321 0.88398063
-6.81249905 -6.05182934 1.50621879 -0.70801955 -0.79426742 0.56434345
-5.70128202 -5.88617325 1.82646930 -0.59253132 -0.77252603 0.68433350
-6.22194958 -5.77566528 1.84433508 -0.64664406 -0.75802249 0.69102740
-7.71818781 -6.08414173 1.55661035 -0.80214733 -0.79850823 0.58322394
-8.70383739 -6.13960838 1.59272277 -0.90458536 -0.80578792 0.59675437
-7.15438175 -5.87801886 1.94609320 -0.74355125 -0.77145576 0.72915369
-8.16368198 -6.02022600 2.04379249 -0.84844732 -0.79011965 0.76575923
-5.69986391 -5.69897270 2.25482750 -0.59238392 -0.74795705 0.84482890
-6.33710003 -5.70448494 2.31940055 -0.65861160 -0.74868047 0.86902285
-5.66015196 -5.91764069 1.82514071 -0.58825672 -0.77665591 0.68383574
-6.14988708 -5.78129292 1.83353174 -0.63915461 -0.75876105 0.68697965
-7.68904924 -6.13992691 1.55852759 -0.79911894 -0.80582970 0.58394229
-8.58294964 -6.13569450 1.57732427 -0.89202160 -0.80527425 0.59098494
-7.04828215 -5.86515570 1.92685163 -0.73252434 -0.76976758 0.72194433
-7.99994230 -5.97783232 2.01168132 -0.83142990 -0.78455573 0.75372797
-9.34034252 -6.12598085 2.14743733 -0.97073704 -0.80399936 0.80459243
-5.64641380 -5.71683455 2.24772286 -0.58682889 -0.75030130 0.84216696
-5.62018728 -5.95024490 1.82425487 -0.58410317 -0.78093505 0.68350381
-6.08225393 -5.79027319 1.82402468 -0.63212556 -0.75993967 0.68341756
-7.71314955 -6.23915386 1.57162821 -0.80162370 -0.81885266 0.58885080
-8.48650837 -6.14785767 1.56645465 -0.88199848 -0.80687058 0.58691239
-6.95904827 -5.86509514 1.91221118 -0.72325033 -0.76975965 0.71645892
-7.88399839 -5.96900606 1.99161160 -0.81937993 -0.78339732 0.74620831
-9.19391632 -6.11262083 2.12213492 -0.95551902 -0.80224591 0.79511219
-5.60636330 -5.74805689 2.24608326 -0.58266646 -0.75439906 0.84155262
-6.24504185 -5.76540613 2.31194854 -0.64904404 -0.75667602 0.86623073
-5.58667040 -5.98972845 1.82558358 -0.58061981 -0.78611702 0.68400168
-6.01757002 -5.80133629 1.81538200 -0.62540299 -0.76139164 0.68017936
-8.38546753 -6.15555239 1.55467927 -0.87149733 -0.80788046 0.58250040
-6.87158012 -5.86541891 1.89798915 -0.71415979 -0.76980209 0.71113026
-7.75602722 -5.94944715 1.96833098 -0.80607992 -0.78083032 0.73748565
-9.07404232 -6.11526537 2.10296607 -0.94306058 -0.80259299 0.78793013
-8.90344334 -6.38787508 1.34370649 -0.92533034 -0.83837146 0.50345409
-6.15929413 -5.75856781 2.29331827 -0.64013231 -0.75577855 0.85925043
-5.56342077 -6.04052877 1.83045530 -0.57820350 -0.79278427 0.68582696
-5.94878674 -5.80773449 1.80544281 -0.61825436 -0.76223135 0.67645538
-8.51979256 -6.33639193 1.58758998 -0.88545769 -0.83161461 0.59483129
-6.77700186 -5.85846519 1.88167560 -0.70433033 -0.76888949 0.70501798
-7.62241840 -5.92372227 1.94344473 -0.79219407 -0.77745408 0.72816133
-8.95437431 -6.09592819 2.08149719 -0.93062353 -0.80005515 0.77988625
-7.40601826 -6.24779558 1.27568734 -0.76970369 -0.81998682 0.47796896
-8.76425743 -6.35047817 1.32546937 -0.91086477 -0.83346331 0.49662107
-5.55871677 -5.82609701 2.25264144 -0.57771462 -0.76464134 0.84400982
-6.06885481 -5.72813511 2.26936507 -0.63073295 -0.75178444 0.85027575
-5.54800320 -6.08111906 1.83488429 -0.57660115 -0.79811150 0.68748641
-5.90043974 -5.81519365 1.79896080 -0.61322969 -0.76321036 0.67402679
-6.69490719 -5.84263086 1.86619866 -0.69579828 -0.76681131 0.69921917
-7.53266239 -5.91132355 1.92738903 -0.78286576 -0.77582681 0.72214568
-7.31254816 -6.24781179 1.26528311 -0.75998938 -0.81998897 0.47407073
-8.63005733 -6.33603859 1.30964601 -0.89691746 -0.83156824 0.49069244
-5.51410627 -5.85248661 2.24936247 -0.57307827 -0.76810485 0.84278131
-5.96289921 -5.69972038 2.24275041 -0.61972106 -0.74805516 0.84030390
-5.49796867 -6.10278749 1.83089828 -0.57140106 -0.80095536 0.68599296
-5.84577322 -5.83426332 1.79334307 -0.60754824 -0.76571316 0.67192191
-6.60395336 -5.83653450 1.85072172 -0.68634552 -0.76601124 0.69342029
-7.42162895 -5.90016794 1.90812218 -0.77132612 -0.77436274 0.71492684
-8.61039162 -6.02072859 2.01785731 -0.89487362 -0.79018563 0.75604194
-7.28211021 -6.30142307 1.26701713 -0.75682598 -0.82702512 0.47472042
-7.77432728 -6.25875711 1.26776898 -0.80798185 -0.82142550 0.47500214
-8.52338314 -6.34032679 1.29838192 -0.88583088 -0.83213103 0.48647204
-5.45239401 -5.86019230 2.23897839 -0.56666452 -0.76911616 0.83889061
-5.91308451 -5.72369957 2.23742747 -0.61454386 -0.75120229 0.83830953
-6.85143995 -5.84457731 2.37855387 -0.71206665 -0.76706678 0.89118618
-5.48924732 -6.17080116 1.84108472 -0.57049465 -0.80988175 0.68980956
-5.81037760 -5.87226295 1.79377520 -0.60386956 -0.77070034 0.67208385
-6.51188898 -5.82821989 1.83482647 -0.67677730 -0.76491994 0.68746477
-7.32326508 -5.89765787 1.89206660 -0.76110321 -0.77403331 0.70891124
-8.51161671 -6.03146553 2.00328922 -0.88460797 -0.79159474 0.75058365
-7.24237394 -6.34705305 1.26701713 -0.75269622 -0.83301377 0.47472042
-5.39988995 -5.87729454 2.23242021 -0.56120783 -0.77136075 0.83643341
-5.82042122 -5.70554829 2.21560335 -0.60491341 -0.74882001 0.83013254
-6.73288012 -5.81659985 2.34956384 -0.69974476 -0.76339489 0.88032430
-5.44779968 -6.20223188 1.84019887 -0.56618702 -0.81400687 0.68947768
-5.76789379 -5.90308094 1.79204667 -0.59945422 -0.77474505 0.67143619
-6.42308331 -5.82161474 1.81976771 -0.66754776 -0.76405311 0.68182260
-7.20393562 -5.87685394 1.87039149 -0.74870133 -0.77130288 0.70079011
-8.37642956 -6.01479530 1.97990334 -0.87055802 -0.78940690 0.74182153
-7.24076223 -6.42666912 1.27453136 -0.75252873 -0.84346294 0.47753584
-5.37703514 -5.92681646 2.23843193 -0.55883253 -0.77786016 0.83868587
-5.76388359 -5.72168493 2.20761895 -0.59903747 -0.75093788 0.82714099
-6.59608221 -5.77078629 2.31384373 -0.68552744 -0.75738215 0.86694086
-5.42783642 -6.25848722 1.84684229 -0.56411225 -0.82139003 0.69196677
-5.75379944 -5.96303749 1.79939294 -0.59798944 -0.78261399 0.67418867
-6.79419136 -5.98738241 1.43167460 -0.70611686 -0.78580910 0.53641355
-6.34612226 -5.82473230 1.80805540 -0.65954924 -0.76446223 0.67743427
-7.11996174 -5.88341427 1.85794830 -0.73997396 -0.77216393 0.69612795
-8.23386669 -5.99087715 1.95460069 -0.85574156 -0.78626776 0.73234123
-9.55085468 -6.19134426 2.08416963 -0.99261546 -0.81257790 0.78088754
-7.20170879 -6.47336340 1.27482033 -0.74846989 -0.84959131 0.47764409
-7.48913050 -6.26600409 1.23733807 -0.77834153 -0.82237661 0.46360040
-5.36657143 -5.99064493 2.24990892 -0.55774504 -0.78623730 0.84298605
-5.70873642 -5.73870039 2.20016694 -0.59330606 -0.75317103 0.82434893
-6.55969334 -5.81211662 2.31384373 -0.68174559 -0.76280648 0.86694086
-5.40990973 -6.31770420 1.85437143 -0.56224912 -0.82916194 0.69478774
-5.71351814 -5.99625111 1.79852867 -0.59380305 -0.78697306 0.67386484
-6.84169960 -6.10639191 1.45020723 -0.71105433 -0.80142844 0.54335731
-6.25794172 -5.81643534 1.79299676 -0.65038466 -0.76337332 0.67179215
-7.02113914 -5.87661123 1.84149122 -0.72970343 -0.77127105 0.68996185
-8.11235619 -5.96084833 1.93198168 -0.84311301 -0.78232670 0.72386646
-9.34042835 -6.11810207 2.04391742 -0.97074592 -0.80296534 0.76580602
-7.18721437 -6.52189112 1.27799940 -0.74696350 -0.85596025 0.47883523
-7.42163086 -6.26935530 1.23035848 -0.77132630 -0.82281643 0.46098533
-5.33955526 -6.01730967 2.25045538 -0.55493724 -0.78973693 0.84319079
-5.63279200 -5.71622705 2.18100452 -0.58541322 -0.75022155 0.81716925
-6.47044611 -5.78743887 2.29158330 -0.67247015 -0.75956768 0.85860038
-5.39265776 -6.35803223 1.85880029 -0.56045616 -0.83445477 0.69644713
-5.69326162 -6.03160906 1.80112147 -0.59169775 -0.79161364 0.67483634
-6.20200157 -5.81902838 1.78463089 -0.64457083 -0.76371366 0.66865766
-6.93639326 -5.86170292 1.82623839 -0.72089583 -0.76931441 0.68424702
-7.99456644 -5.95175743 1.91242969 -0.83087122 -0.78113353 0.71654075
-9.25260353 -6.14412785 2.03293943 -0.96161836 -0.80638105 0.76169282
-7.19554281 -6.61255312 1.28782558 -0.74782908 -0.86785913 0.48251686
-7.38812351 -6.32100010 1.23147523 -0.76784390 -0.82959449 0.46140376
-5.30796289 -6.05799150 2.25318813 -0.55165386 -0.79507613 0.84421468
-5.58867693 -5.74323654 2.17781067 -0.58082831 -0.75376642 0.81597257
-6.37823439 -5.77726889 2.27139378 -0.66288662 -0.75823295 0.85103589
-6.52577448 -7.43054295 1.68928361 -0.67822039 -0.97521555 0.63293338
-5.35509968 -6.39478636 1.85968614 -0.55655277 -0.83927852 0.69677907
-5.65124655 -6.06298637 1.79982507 -0.58733118 -0.79573172 0.67435056
-6.13702536 -5.83087111 1.77626491 -0.63781792 -0.76526791 0.66552317
-6.84126234 -5.85561275 1.81058419 -0.71100891 -0.76851511 0.67838174
-7.88503742 -5.94735003 1.89479446 -0.81948793 -0.78055513 0.70993328
-9.07500076 -6.10906887 2.00183558 -0.94316018 -0.80177975 0.75003898
-7.15096140 -6.65493059 1.28724754 -0.74319577 -0.87342095 0.48230028
-7.35425949 -6.37247086 1.23259187 -0.76432443 -0.83634973 0.46182212
-5.28109074 -6.10434532 2.25810671 -0.54886109 -0.80115980 0.84605753
-5.48149776 -5.70474243 2.14959908 -0.56968927 -0.74871427 0.80540240
-6.29066992 -5.77009773 2.25275731 -0.65378612 -0.75729179 0.84405327
-7.14574480 -5.87457371 2.35853338 -0.74265361 -0.77100360 0.88368493
-6.50857735 -7.50569677 1.69718051 -0.67643315 -0.98507905 0.63589215
-5.34331369 -6.46294832 1.86987257 -0.55532783 -0.84822440 0.70059568
-5.61967039 -6.10554171 1.80198574 -0.58404946 -0.80131686 0.67516011
-6.06511545 -5.83533096 1.76580751 -0.63034433 -0.76585323 0.66160500
-6.75390100 -5.85496044 1.79693687 -0.70192945 -0.76842952 0.67326844
-7.76498175 -5.93343782 1.87447572 -0.80701059 -0.77872920 0.70232034
-8.92422771 -6.08970785 1.97658646 -0.92749041 -0.79923874 0.74057877
-7.15787745 -6.74597979 1.29707384 -0.74391454 -0.88537061 0.48598194
-7.33197021 -6.43419123 1.23594213 -0.76200789 -0.84445018 0.46307740
-7.77834463 -6.31407928 1.21658313 -0.80839938 -0.82868618 0.45582405
-8.46082783 -6.38756180 1.22047269 -0.87932950 -0.83833033 0.45728135
-5.25135326 -6.14766884 2.26193237 -0.54577047 -0.80684578 0.84749091
-5.52005768 -5.81719589 2.17940760 -0.57369679 -0.76347315 0.81657088
-6.19215059 -5.75151157 2.22997928 -0.64354706 -0.75485247 0.83551890
-7.03714085 -5.86004066 2.33448911 -0.73136646 -0.76909626 0.87467617
-5.31981516 -6.51758862 1.87607300 -0.55288565 -0.85539562 0.70291883
-5.59963465 -6.16091633 1.80803561 -0.58196718 -0.80858445 0.67742687
-6.01156139 -5.85690546 1.76078796 -0.62477851 -0.76868480 0.65972435
-6.68009758 -5.86504745 1.78690207 -0.69425911 -0.76975340 0.66950864
-7.64386606 -5.91704941 1.85377359 -0.79442310 -0.77657831 0.69456375
-8.74329567 -6.04750347 1.94438457 -0.90868622 -0.79369968 0.72851348
-7.14535522 -6.81957579 1.30314291 -0.74261314 -0.89502966 0.48825589
-7.30177975 -6.48931932 1.23789632 -0.75887024 -0.85168540 0.46380958
-7.69572544 -6.32749510 1.20907378 -0.79981279 -0.83044696 0.45301047
-8.33531570 -6.37567902 1.20673573 -0.86628509 -0.83677077 0.45213446
-5.20891285 -6.17612123 2.26029277 -0.54135966 -0.81058002 0.84687662
-5.49793768 -5.86720181 2.18526268 -0.57139784 -0.77003610 0.81876463
-6.10675192 -5.74385977 2.21186042 -0.63467163 -0.75384820 0.82873017
-6.91565943 -5.83317184 2.30593657 -0.71874094 -0.76556987 0.86397821
-5.28851986 -6.56305790 1.87961614 -0.54963315 -0.86136317 0.70424634
-5.55950642 -6.19452810 1.80760348 -0.57779664 -0.81299579 0.67726493
-5.97186518 -5.89180756 1.75995135 -0.62065291 -0.77326548 0.65941089
-6.59763288 -5.86664772 1.77445889 -0.68568861 -0.76996338 0.66484648
-7.54793882 -5.91880846 1.83920538 -0.78445345 -0.77680922 0.68910539
-8.64063835 -6.05729675 1.92974746 -0.89801711 -0.79498500 0.72302932
-7.13218927 -6.89327955 1.30921209 -0.74124479 -0.90470284 0.49052987
-7.27266026 -6.54564381 1.24012983 -0.75584388 -0.85907769 0.46464643
-7.62692976 -6.35156631 1.20397806 -0.79266292 -0.83360612 0.45110124
-8.21657085 -6.36732197 1.19401646 -0.85394400 -0.83567399 0.44736886
-5.18964243 -6.23243189 2.26903725 -0.53935689 -0.81797045 0.85015297
-5.45177460 -5.89174843 2.18153667 -0.56660014 -0.77325773 0.81736863
-6.08031130 -5.79146671 2.21548414 -0.63192362 -0.76009631 0.83008790
-6.81987143 -5.82633448 2.28589988 -0.70878577 -0.76467252 0.85647094
-5.28712463 -6.64662170 1.89423144 -0.54948819 -0.87233043 0.70972234
-5.54385233 -6.25558615 1.81538200 -0.57616973 -0.82100928 0.68017936
-5.93886900 -5.93337011 1.76120627 -0.61722362 -0.77872032 0.65988106
-6.52124882 -5.87267637 1.76362133 -0.67775005 -0.77075464 0.66078591
-7.45390129 -5.90177536 1.82272041 -0.77468014 -0.77457368 0.68292892
-8.49630260 -6.01636076 1.90340054 -0.88301641 -0.78961235 0.71315777
-7.13638210 -6.96282053 1.31672621 -0.74168056 -0.91382968 0.49334520
-7.26669884 -6.60243082 1.24487591 -0.75522429 -0.86653066 0.46642464
-7.59237099 -6.38360119 1.20317352 -0.78907126 -0.83781052 0.45079979
-8.12701607 -6.35963202 1.18434978 -0.84463662 -0.83466470 0.44374698
-5.19194460 -6.29548740 2.28324676 -0.53959614 -0.82624608 0.85547692
-5.43570614 -5.93013477 2.18632746 -0.56493014 -0.77829570 0.81916362
-5.93069410 -5.70192957 2.16992807 -0.61637402 -0.74834508 0.81301916
-6.72329283 -5.79912663 2.26235652 -0.69874841 -0.76110166 0.84764981
-5.29785872 -6.72518539 1.90973270 -0.55060375 -0.88264149 0.71553028
-5.53239775 -6.30214262 1.82143188 -0.57497925 -0.82711959 0.68244612
-7.02014637 -6.11641884 1.38801241 -0.72960025 -0.80274439 0.52005440
-5.91496372 -5.96546698 1.76246119 -0.61473918 -0.78293282 0.66035122
-6.44846535 -5.86258793 1.75117826 -0.67018569 -0.76943058 0.65612382
-7.34941339 -5.89431095 1.80585194 -0.76382077 -0.77359402 0.67660868
-8.37674713 -6.01132107 1.88473809 -0.87059104 -0.78895092 0.70616543
-7.13183069 -7.04654789 1.32481849 -0.74120754 -0.92481846 0.49637720
-7.24405289 -6.66535139 1.24850535 -0.75287074 -0.87478858 0.46778452
-7.55663109 -6.43504333 1.20397806 -0.78535682 -0.84456199 0.45110124
-8.03707409 -6.37123346 1.17620933 -0.83528900 -0.83618736 0.44069695
-5.15955257 -6.33695459 2.28652596 -0.53622967 -0.83168846 0.85670555
-5.39963627 -5.96559715 2.18685961 -0.56118143 -0.78294992 0.81936300
-5.90579748 -5.74988890 2.17406964 -0.61378652 -0.75463951 0.81457090
-6.62243366 -5.78535366 2.24031591 -0.68826616 -0.75929403 0.83939177
-6.70186901 -7.39499855 1.65288150 -0.69652182 -0.97055054 0.61929440
-5.28533888 -6.79690123 1.92080486 -0.54930258 -0.89205378 0.71967876
-5.50166941 -6.34708643 1.82445681 -0.57178569 -0.83301818 0.68357950
-7.63916588 -7.49858904 1.69848120 -0.79393458 -0.98414618 0.63637948
-5.87872982 -6.00391436 1.76287949 -0.61097336 -0.78797883 0.66050798
-6.37683439 -5.87121916 1.74154484 -0.66274112 -0.77056336 0.65251440
-7.24683714 -5.88701010 1.78936684 -0.75316006 -0.77263582 0.67043215
-8.24803829 -5.99809933 1.86388016 -0.85721439 -0.78721565 0.69835043
-7.09858465 -7.10243988 1.32713044 -0.73775226 -0.93215394 0.49724343
-7.23251629 -6.73902416 1.25436819 -0.75167173 -0.88445771 0.46998119
-7.52653694 -6.49147797 1.20585549 -0.78222913 -0.85196871 0.45180467
-8.01857281 -6.43895197 1.17977083 -0.83336616 -0.84507501 0.44203135
-5.14366627 -6.39929771 2.29745650 -0.53457862 -0.83987063 0.86080092
-5.37106514 -6.00944519 2.19058561 -0.55821204 -0.78870475 0.82075900
-5.78035259 -5.69850254 2.14042020 -0.60074908 -0.74789530 0.80196327
-6.59467125 -5.83452702 2.24332142 -0.68538082 -0.76574773 0.84051782
-7.61375380 -5.97366095 2.37381887 -0.79129356 -0.78400826 0.88941205
-6.62232161 -7.40029049 1.64454842 -0.68825448 -0.97124511 0.61617219
-5.28278065 -6.88267326 1.93586314 -0.54903668 -0.90331084 0.72532070
-5.48842096 -6.41261959 1.83353174 -0.57040876 -0.84161901 0.68697965
-7.59190035 -7.54643917 1.69848120 -0.78902233 -0.99042624 0.63637948
-5.82597351 -6.02523088 1.75827813 -0.60549045 -0.79077649 0.65878397
-6.28524446 -5.86052418 1.72629189 -0.65322226 -0.76915973 0.64679950
-7.15372324 -5.88615799 1.77518213 -0.74348283 -0.77252400 0.66511744
-8.11824417 -5.98233700 1.84265625 -0.84372497 -0.78514695 0.69039840
-7.09821320 -7.19206381 1.33637869 -0.73771369 -0.94391656 0.50070852
-7.23044109 -6.82230663 1.26218534 -0.75145602 -0.89538807 0.47291008
-7.50050163 -6.55170918 1.20853734 -0.77952331 -0.85987371 0.45280948
-7.96870947 -6.48171425 1.17824447 -0.82818389 -0.85068733 0.44145948
-5.14150476 -6.47981071 2.31494522 -0.53435397 -0.85043746 0.86735356
-5.34087706 -6.05172729 2.19377947 -0.55507463 -0.79425400 0.82195568
-5.72125053 -5.71144819 2.13161969 -0.59460664 -0.74959433 0.79866594
-6.44950294 -5.77919054 2.20575237 -0.67029357 -0.75848514 0.82644165
-7.43652248 -5.90999031 2.32938337 -0.77287400 -0.77565187 0.87276316
-6.58616400 -7.45355415 1.64721501 -0.68449664 -0.97823566 0.61717129
-5.28874445 -6.98113775 1.95446455 -0.54965651 -0.91623372 0.73229021
-5.46445322 -6.46632767 1.83914948 -0.56791782 -0.84866792 0.68908447
-7.51655912 -7.56592607 1.69209063 -0.78119212 -0.99298382 0.63398510
-5.80147314 -6.07589531 1.76246119 -0.60294414 -0.79742593 0.66035122
-6.25115347 -5.90258312 1.72709477 -0.64967918 -0.77467972 0.64710033
-7.05789804 -5.88184977 1.76023054 -0.73352373 -0.77195859 0.65951550
-8.02053642 -5.98864603 1.82875097 -0.83357024 -0.78597498 0.68518841
-7.09975052 -7.28480101 1.34620488 -0.73787344 -0.95608777 0.50439012
-7.21038771 -6.88944530 1.26665223 -0.74937189 -0.90419960 0.47458372
-7.48585987 -6.62239885 1.21336484 -0.77800161 -0.86915135 0.45461822
-7.92169237 -6.52662134 1.17722690 -0.82329744 -0.85658109 0.44107822
-5.34430599 -6.82458973 2.42752886 -0.55543101 -0.89568770 0.90953588
-5.32561159 -6.11126947 2.20336080 -0.55348808 -0.80206859 0.82554555
-5.66763496 -5.72938442 2.12488985 -0.58903438 -0.75194836 0.79614443
-6.39007330 -5.79883432 2.19773769 -0.66411704 -0.76106328 0.82343876
-7.31020021 -5.88460255 2.30088663 -0.75974536 -0.77231985 0.86208612
-6.64836216 -7.61938524 1.67521429 -0.69096088 -1.00000000 0.62766194
-5.26689863 -7.04395914 1.96287942 -0.54738611 -0.92447865 0.73544306
-5.42622614 -6.50352669 1.84001374 -0.56394494 -0.85355008 0.68940830
-5.75649166 -6.10509539 1.76036966 -0.59826922 -0.80125827 0.65956759
-6.20258856 -5.93093777 1.72388363 -0.64463186 -0.77840108 0.64589715
-6.97013474 -5.86436081 1.74489558 -0.72440255 -0.76966327 0.65376985
-7.89788532 -5.95553970 1.80679512 -0.82082319 -0.78162992 0.67696208
-7.14215851 -7.39806080 1.36238933 -0.74228090 -0.97095245 0.51045406
-7.21925974 -6.96313381 1.27474856 -0.75029397 -0.91387081 0.47761720
-7.47817802 -6.67877245 1.21765590 -0.77720320 -0.87655002 0.45622599
-7.90001440 -6.57147264 1.17875326 -0.82104445 -0.86246759 0.44165012
-5.30054379 -6.14066648 2.20495749 -0.55088282 -0.80592674 0.82614380
-5.61494923 -5.72974777 2.11505389 -0.58355880 -0.75199610 0.79245913
-6.33406019 -5.80279112 2.18771935 -0.65829563 -0.76158261 0.81968510
-7.20421076 -5.85516214 2.27577090 -0.74872994 -0.76845598 0.85267586
-5.35628033 -7.23513651 2.00982571 -0.55667549 -0.94956958 0.75303268
-5.42920256 -6.56958675 1.85168135 -0.56425422 -0.86222005 0.69377989
-5.75295734 -6.15937185 1.76831734 -0.59790194 -0.80838174 0.66254538
-6.17739677 -5.96281576 1.72468638 -0.64201367 -0.78258491 0.64619792
-6.88543224 -5.86719227 1.73262763 -0.71559948 -0.77003485 0.64917332
-7.79614925 -5.95623732 1.79179204 -0.81024981 -0.78172153 0.67134082
-7.21085596 -7.04287863 1.28172803 -0.74942058 -0.92433685 0.48023224
-7.45367336 -6.74161673 1.22087419 -0.77465647 -0.88479799 0.45743179
-7.87072563 -6.63118124 1.18078840 -0.81800050 -0.87030399 0.44241261
-5.18966627 -6.77887249 2.39036536 -0.53935939 -0.88968760 0.89561164
-5.26938200 -6.18263435 2.20815134 -0.54764420 -0.81143481 0.82734048
-5.56945801 -5.75517273 2.11143017 -0.57883090 -0.75533295 0.79110140
-6.22492409 -5.77548409 2.16217232 -0.64695317 -0.75799870 0.81011325
-7.09399128 -5.83970881 2.25210428 -0.73727489 -0.76642781 0.84380859
-5.40019894 -6.61867046 1.85600269 -0.56123990 -0.86866200 0.69539899
-5.72075605 -6.20260143 1.77040875 -0.59455526 -0.81405538 0.66332901
-6.10610485 -5.96872187 1.71505296 -0.63460433 -0.78336000 0.64258856
-6.81135368 -5.87819338 1.72304332 -0.70790052 -0.77147871 0.64558232
-7.66357040 -5.93188810 1.76947033 -0.79647094 -0.77852583 0.66297740
-7.20455551 -7.12557125 1.28926599 -0.74876577 -0.93518978 0.48305655
-7.44763756 -6.82185698 1.22757912 -0.77402914 -0.89532906 0.45994398
-7.87576437 -6.72032833 1.18867433 -0.81852418 -0.88200402 0.44536731
-5.20593786 -6.88976860 2.41823792 -0.54105043 -0.90424204 0.90605479
-5.25408602 -6.24358797 2.21826482 -0.54605448 -0.81943458 0.83112973
-5.52386999 -5.78025293 2.10780621 -0.57409298 -0.75862455 0.78974360
-6.99169302 -5.82933474 2.23085237 -0.72664309 -0.76506627 0.83584601
-5.38062048 -6.67979145 1.86378121 -0.55920511 -0.87668377 0.69831336
-5.70925283 -6.26885509 1.77919304 -0.59335971 -0.82275075 0.66662025
-6.06987762 -6.00834465 1.71545434 -0.63083929 -0.78856027 0.64273894
-6.73003435 -5.88202095 1.71154213 -0.69944900 -0.77198106 0.64127314
-7.56725502 -5.93394136 1.75556505 -0.78646094 -0.77879530 0.65776742
-7.20871544 -7.21964979 1.29903746 -0.74919814 -0.94753706 0.48671767
-7.42493248 -6.88742781 1.23133373 -0.77166945 -0.90393484 0.46135074
-7.85443258 -6.78779888 1.19223571 -0.81630719 -0.89085913 0.44670165
-5.14764118 -6.90225840 2.41113329 -0.53499174 -0.90588129 0.90339285
-5.22216702 -6.28535557 2.22145867 -0.54273713 -0.82491636 0.83232641
-5.51256657 -5.84160471 2.11764216 -0.57291824 -0.76667666 0.79342890
-6.00282717 -5.71213198 2.10907483 -0.62387073 -0.74968410 0.79021895
-6.88832760 -5.81665230 2.20911765 -0.71590036 -0.76340181 0.82770252
-7.89842510 -5.97045755 2.32178783 -0.82087928 -0.78358781 0.86991727
-5.36901951 -6.75160503 1.87458456 -0.55799943 -0.88610888 0.70236111
-5.69192505 -6.32937813 1.78630400 -0.59155887 -0.83069408 0.66928458
-6.03200674 -6.04636383 1.71545434 -0.62690336 -0.79355007 0.64273894
-6.64747095 -5.88375568 1.69965756 -0.69086826 -0.77220869 0.63682026
-7.44654369 -5.91550446 1.73580492 -0.77391547 -0.77637553 0.65036380
-7.23426867 -7.33657932 1.31327569 -0.75185382 -0.96288335 0.49205238
-7.41611481 -6.96658039 1.23777044 -0.77075303 -0.91432315 0.46376240
-7.83106804 -6.85396194 1.19554281 -0.81387889 -0.89954263 0.44794074
-5.19238329 -6.32994318 2.22571707 -0.53964174 -0.83076823 0.83392191
-5.48757505 -5.88887548 2.12230134 -0.57032084 -0.77288067 0.79517460
-5.96262550 -5.74571562 2.10757208 -0.61969262 -0.75409174 0.78965586
-6.79570484 -5.81175709 2.19076395 -0.70627415 -0.76275933 0.82082587
-7.76173878 -5.94445896 2.29215407 -0.80667353 -0.78017569 0.85881424
-5.38333464 -6.85726452 1.89489496 -0.55948722 -0.89997607 0.70997095
-6.78104544 -7.33573198 1.58281171 -0.70475060 -0.96277213 0.59304094
-5.64945412 -6.36208534 1.78546739 -0.58714485 -0.83498669 0.66897112
-6.02146482 -6.11199379 1.72348225 -0.62580776 -0.80216366 0.64574677
-6.58265734 -5.90044975 1.69237351 -0.68413222 -0.77439970 0.63409108
-7.36472845 -5.92652273 1.72519290 -0.76541245 -0.77782166 0.64638770
-7.34446716 -7.54191256 1.34482336 -0.76330674 -0.98983216 0.50387251
-7.40086174 -7.04041719 1.24313426 -0.76916778 -0.92401379 0.46577209
-7.82948780 -6.93979311 1.20266557 -0.81371468 -0.91080749 0.45060948
-5.13425350 -6.34001493 2.21773267 -0.53360033 -0.83209008 0.83093035
-5.43220282 -5.90329027 2.11505389 -0.56456608 -0.77477252 0.79245913
-5.85417318 -5.71292496 2.08152413 -0.60842121 -0.74978817 0.77989638
-6.69170475 -5.79573679 2.16854620 -0.69546545 -0.76065677 0.81250137
-7.62877417 -5.91936016 2.26344633 -0.79285461 -0.77688158 0.84805816
-5.37493610 -6.93563461 1.90742695 -0.55861437 -0.91026169 0.71466637
-6.73747587 -7.38111544 1.58345079 -0.70022243 -0.96872848 0.59328043
-7.62471008 -7.50804567 1.60027111 -0.79243225 -0.98538733 0.59958255
-5.64022970 -6.43282318 1.79550660 -0.58618617 -0.84427065 0.67273253
-5.99116087 -6.15811348 1.72589052 -0.62265831 -0.80821657 0.64664912
-6.52427769 -5.90367556 1.68432260 -0.67806482 -0.77482307 0.63107461
-7.26181364 -5.90056801 1.70726240 -0.75471658 -0.77441525 0.63966960
-7.41611290 -7.12198591 1.25225282 -0.77075285 -0.93471920 0.46918860
-7.84408617 -7.01884985 1.21080601 -0.81523186 -0.92118323 0.45365950
-5.11036968 -6.37164354 2.22039413 -0.53111809 -0.83624119 0.83192754
-5.41859961 -5.94456434 2.12074828 -0.56315231 -0.78018951 0.79459268
-5.79953194 -5.71334076 2.07150578 -0.60274237 -0.74984276 0.77614272
-6.61328506 -5.78237581 2.15164137 -0.68731534 -0.75890321 0.80616754
-7.52255726 -5.89420986 2.23983192 -0.78181553 -0.77358079 0.83921039
-6.25882101 -5.70276117 2.53590918 -0.65047610 -0.74845421 0.95014334
-5.37796736 -7.00727749 1.92039096 -0.55892938 -0.91966444 0.71952367
-6.68676472 -7.39517736 1.57961643 -0.69495201 -0.97057402 0.59184378
-7.54990911 -7.50494051 1.59181702 -0.78465819 -0.98497981 0.59641504
-5.62903690 -6.48152542 1.80178106 -0.58502293 -0.85066253 0.67508346
-5.97843075 -6.20316839 1.73070729 -0.62133527 -0.81412977 0.64845383
-6.45528507 -5.91530323 1.67588842 -0.67089450 -0.77634913 0.62791455
-7.18353224 -5.91243124 1.69738233 -0.74658084 -0.77597219 0.63596779
-7.43928766 -7.23490143 1.26512599 -0.77316135 -0.94953871 0.47401187
-7.88229465 -7.14243317 1.22505164 -0.81920284 -0.93740278 0.45899698
-5.17827940 -6.53938913 2.26830053 -0.53817594 -0.85825682 0.84987694
-5.37727594 -5.97417545 2.11919522 -0.55885756 -0.78407580 0.79401076
-5.72779036 -5.71420145 2.05848169 -0.59528631 -0.74995571 0.77126288
-6.56667280 -5.81478357 2.14826035 -0.68247098 -0.76315653 0.80490077
-7.40141582 -5.87500906 2.21436524 -0.76922536 -0.77106076 0.82966870
-6.17515278 -5.69773483 2.51615286 -0.64178050 -0.74779457 0.94274116
-5.37759495 -7.09842157 1.93638003 -0.55889070 -0.93162656 0.72551441
-6.68214893 -7.48425770 1.58984137 -0.69447231 -0.98226529 0.59567481
-5.61232376 -6.54503107 1.80972862 -0.58328593 -0.85899729 0.67806119
-5.95152426 -6.25335407 1.73431981 -0.61853886 -0.82071638 0.64980733
-6.40650511 -5.94503736 1.67282140 -0.66582483 -0.78025156 0.62676537
-7.10085106 -5.91977787 1.68640435 -0.73798782 -0.77693641 0.63185459
-7.51488972 -7.40133762 1.28819060 -0.78101867 -0.97138250 0.48265362
-5.15852690 -6.59908390 2.27788162 -0.53612304 -0.86609137 0.85346669
-5.35498953 -6.02521038 2.12540746 -0.55654132 -0.79077381 0.79633838
-5.67675257 -5.73497820 2.05297160 -0.58998197 -0.75268251 0.76919842
-6.45358753 -5.78707647 2.12266159 -0.67071807 -0.75952011 0.79530954
-7.28992891 -5.86181641 2.19167686 -0.75763857 -0.76932931 0.82116789
-6.09458685 -5.69450378 2.49755836 -0.63340729 -0.74737048 0.93577421
-5.39153624 -7.21013117 1.95798683 -0.56033963 -0.94628781 0.73360991
-5.59125280 -6.60409498 1.81642139 -0.58109605 -0.86674905 0.68056881
-5.92691326 -6.30629492 1.73873508 -0.61598104 -0.82766455 0.65146166
-6.34476089 -5.96226501 1.66630411 -0.65940773 -0.78251261 0.62432355
-7.01384783 -5.92252445 1.67432868 -0.72894561 -0.77729690 0.62733012
-5.13940954 -6.66031075 2.28799534 -0.53413624 -0.87412703 0.85725605
-5.22046232 -5.94814157 2.08606362 -0.54255998 -0.78065896 0.78159720
-5.61753893 -5.74705172 2.04445601 -0.58382797 -0.75426710 0.76600784
-6.34541368 -5.76210451 2.09851193 -0.65947562 -0.75624269 0.78626126
-7.18797064 -5.85481024 2.17176676 -0.74704212 -0.76840979 0.81370807
-6.01708078 -5.69312382 2.48012614 -0.62535214 -0.74718940 0.92924279
-5.56090498 -6.65262699 1.82018602 -0.57794201 -0.87311858 0.68197936
-5.89118147 -6.34770918 1.73993921 -0.61226749 -0.83309990 0.65191281
-6.30575514 -6.00065565 1.66592073 -0.65535390 -0.78755116 0.62417990
-6.94056606 -5.93588495 1.66554642 -0.72132951 -0.77905035 0.62403965
-5.12206936 -6.72461796 2.29917336 -0.53233403 -0.88256699 0.86144423
-5.29903603 -6.11543608 2.13369036 -0.55072612 -0.80261540 0.79944175
-5.58401489 -5.78501368 2.04545784 -0.58034384 -0.75924939 0.76638317
-6.27915001 -5.77420044 2.08836889 -0.65258884 -0.75783020 0.78246093
-7.09992266 -5.85787010 2.15602374 -0.73789132 -0.76881140 0.80780953
-5.94810581 -5.69896078 2.46618032 -0.61818361 -0.74795544 0.92401767
-5.55251169 -6.72824144 1.83148003 -0.57706970 -0.88304257 0.68621093
-5.87905216 -6.41486740 1.74836850 -0.61100692 -0.84191406 0.65507108
-6.26651764 -6.03879213 1.66553736 -0.65127599 -0.79255635 0.62403625
-6.86292791 -5.94470787 1.65566635 -0.71326059 -0.78020835 0.62033784
-5.25424623 -6.14125490 2.13110209 -0.54607111 -0.80600399 0.79847199
-5.55291462 -5.82557726 2.04746151 -0.57711160 -0.76457316 0.76713389
-6.19456244 -5.76845360 2.07194710 -0.64379770 -0.75707597 0.77630806
-6.99866009 -5.84885740 2.13611364 -0.72736716 -0.76762849 0.80034971
-5.92314243 -5.74690914 2.47082901 -0.61558914 -0.75424838 0.92575938
-6.93632555 -7.34387589 1.50878549 -0.72088879 -0.96384102 0.56530511
-5.51751852 -6.77211046 1.83398986 -0.57343286 -0.88880008 0.68715131
-5.85181141 -6.46617603 1.75238240 -0.60817575 -0.84864801 0.65657496
-6.24781752 -6.07785892 1.66822100 -0.64933246 -0.79768366 0.62504172
-5.23521042 -6.17776203 2.13524342 -0.54409271 -0.81079537 0.80002367
-5.52140188 -5.84746695 2.04595876 -0.57383645 -0.76744604 0.76657087
-6.08971167 -5.72428179 2.04538250 -0.63290060 -0.75127870 0.76635498
-5.92463684 -5.80294895 2.48303151 -0.61574447 -0.76160330 0.93033135
-6.89216566 -7.36639404 1.50667202 -0.71629924 -0.96679640 0.56451327
-5.50881243 -6.82700920 1.84193742 -0.57252806 -0.89600527 0.69012904
-5.83701038 -6.51115084 1.75719905 -0.60663748 -0.85455066 0.65837967
-6.21229649 -6.11975670 1.66898775 -0.64564079 -0.80318248 0.62532902
-6.69980717 -5.93398762 1.63151503 -0.69630754 -0.77880138 0.61128891
-5.21730232 -6.23577452 2.14404416 -0.54223156 -0.81840914 0.80332106
-5.48984861 -5.88769436 2.04796243 -0.57055718 -0.77272564 0.76732159
-6.03118515 -5.74096680 2.03765464 -0.62681800 -0.75346851 0.76345950
-6.80203247 -5.81325293 2.09490418 -0.70693177 -0.76295567 0.78490955
-6.12390327 -6.07513142 2.58413839 -0.63645416 -0.79732567 0.96821368
-6.65011215 -5.91778088 2.57389188 -0.69114274 -0.77667433 0.96437454
-6.83095503 -7.39360905 1.50335073 -0.70993769 -0.97036821 0.56326890
-5.50590467 -6.91206121 1.85574126 -0.57222587 -0.90716785 0.69530100
-5.81421375 -6.56819391 1.76281857 -0.60426825 -0.86203724 0.66048515
-6.19451904 -6.17951155 1.67473829 -0.64379323 -0.81102496 0.62748361
-6.62865734 -5.94584656 1.62309861 -0.68891299 -0.78035778 0.60813546
-5.18537855 -6.27738714 2.14715004 -0.53891373 -0.82387054 0.80448478
-5.46589804 -5.93628263 2.05297160 -0.56806797 -0.77910256 0.76919842
-5.93783951 -5.72338438 2.01785183 -0.61711663 -0.75116092 0.75603992
-6.70199013 -5.80126619 2.07499385 -0.69653440 -0.76138246 0.77744961
-6.10177469 -6.12980270 2.59111142 -0.63415432 -0.80450094 0.97082627
-6.34706593 -5.72106791 2.46927214 -0.65964735 -0.75085688 0.92517608
-6.73895979 -7.38681507 1.49308503 -0.70037663 -0.96947652 0.55942255
-5.49129534 -6.98348331 1.86578035 -0.57070750 -0.91654158 0.69906241
-5.78705120 -6.62079000 1.76723385 -0.60144526 -0.86894017 0.66213942
-6.16108084 -6.22390366 1.67627180 -0.64031798 -0.81685114 0.62805820
-6.59700155 -5.99265289 1.62456238 -0.68562299 -0.78650081 0.60868394
-5.17382956 -6.34434748 2.15905690 -0.53771347 -0.83265871 0.80894601
-5.44808435 -5.99194860 2.06048536 -0.56621665 -0.78640842 0.77201366
-5.85742474 -5.71708965 2.00239587 -0.60875916 -0.75033474 0.75024891
-6.60383606 -5.78953362 2.05554676 -0.68633330 -0.75984263 0.77016324
-5.83026791 -5.93000317 2.49000430 -0.60593677 -0.77827841 0.93294388
-6.29536772 -5.74663830 2.46308494 -0.65427434 -0.75421286 0.92285788
-5.48437452 -7.06582689 1.87874758 -0.56998825 -0.92734867 0.70392090
-5.77229261 -6.68810701 1.77566314 -0.59991139 -0.87777513 0.66529769
-6.16291952 -6.30469704 1.68777299 -0.64050907 -0.82745481 0.63236737
-5.15560436 -6.40387011 2.16837502 -0.53581935 -0.84047073 0.81243724
-5.45183802 -6.07206154 2.07651496 -0.56660676 -0.79692274 0.77801955
-5.79247189 -5.72505760 1.99225307 -0.60200864 -0.75138050 0.74644864
-6.51630163 -5.78581715 2.03934073 -0.67723590 -0.75935483 0.76409125
-5.60939217 -5.77658939 2.40981603 -0.58298129 -0.75814378 0.90289932
-6.22665024 -5.75619173 2.45014787 -0.64713258 -0.75546670 0.91801065
-5.47782040 -7.14991236 1.89213300 -0.56930709 -0.93838441 0.70893610
-5.75691557 -6.75549841 1.78409231 -0.59831327 -0.88661987 0.66845590
-6.13270473 -6.35320282 1.69045663 -0.63736886 -0.83382094 0.63337290
-6.58317137 -6.13256788 1.64029729 -0.68418562 -0.80486387 0.61457938
-5.13923073 -6.46644354 2.17872882 -0.53411764 -0.84868312 0.81631660
-5.36205435 -6.04837132 2.05647802 -0.55727559 -0.79381359 0.77051216
-5.73449278 -5.73931742 1.98452520 -0.59598291 -0.75325203 0.74355322
-6.54796076 -5.88763094 2.06110311 -0.68052620 -0.77271730 0.77224511
-5.52410746 -5.76048899 2.38831639 -0.57411766 -0.75603068 0.89484394
-6.11874342 -5.72847700 2.42146182 -0.63591790 -0.75182927 0.90726274
-5.52452660 -7.30607271 1.92476010 -0.57416123 -0.95887953 0.72116071
-5.73585892 -6.81697416 1.79091597 -0.59612489 -0.89468819 0.67101258
-6.12976456 -6.41046810 1.69812405 -0.63706332 -0.84133667 0.63624567
-6.54415131 -6.15411568 1.63773584 -0.68013030 -0.80769187 0.61361969
-5.12656784 -6.51340389 2.18649387 -0.53280157 -0.85484636 0.81922597
-5.34630537 -6.08808899 2.06148720 -0.55563879 -0.79902625 0.77238899
-6.52880526 -5.92624855 2.06388116 -0.67853540 -0.77778566 0.77328598
-5.48506975 -5.77393913 2.38308668 -0.57006049 -0.75779593 0.89288449
-5.73637390 -6.88298702 1.80135214 -0.59617841 -0.90335202 0.67492270
-6.09743166 -6.45743752 1.70042431 -0.63370293 -0.84750110 0.63710755
-5.12689447 -6.59898090 2.20461273 -0.53283554 -0.86607784 0.82601464
-5.32321310 -6.13907671 2.06749821 -0.55323881 -0.80571812 0.77464116
-5.68051243 -5.81176281 1.98790610 -0.59037274 -0.76276004 0.74481994
-6.37086296 -5.85682535 2.02498674 -0.66212052 -0.76867425 0.75871319
-5.45782328 -5.81808233 2.38715410 -0.56722879 -0.76358944 0.89440846
-5.92891598 -5.67495441 2.37027693 -0.61618918 -0.74480474 0.88808501
-5.73046398 -6.96419811 1.81339383 -0.59556419 -0.91401052 0.67943448
-6.06875658 -6.50856924 1.70387471 -0.63072276 -0.85421187 0.63840032
-5.09470606 -6.64335012 2.20875430 -0.52949017 -0.87190109 0.82756639
-5.28327227 -6.17093420 2.06699729 -0.54908776 -0.80989921 0.77445352
-5.68421459 -5.88933372 2.00239587 -0.59075749 -0.77294081 0.75024891
-6.22404528 -5.79491282 1.98933375 -0.64686185 -0.76054859 0.74535483
-5.41337824 -5.84381628 2.38366771 -0.56260961 -0.76696688 0.89310217
-5.86689472 -5.68677950 2.35959005 -0.60974336 -0.74635673 0.88408089
-5.71384811 -7.03346109 1.82222450 -0.59383732 -0.92310089 0.68274307
-6.04763699 -6.56827784 1.70962524 -0.62852782 -0.86204827 0.64055490
-5.09121704 -6.72615337 2.22583771 -0.52912760 -0.88276851 0.83396715
-5.34469032 -6.32205439 2.10707116 -0.55547094 -0.82973289 0.78946817
-5.55361176 -5.82635641 1.96858633 -0.57718402 -0.76467538 0.73758131
-6.15204144 -5.80062103 1.97775805 -0.63937855 -0.76129776 0.74101770
-5.38814640 -5.89045238 2.38889742 -0.55998731 -0.77308762 0.89506161
-5.80633354 -5.69939089 2.34946561 -0.60344929 -0.74801189 0.88028747
-5.70396233 -7.11194277 1.83346343 -0.59280992 -0.93340111 0.68695402
-6.02732277 -6.62943220 1.71575928 -0.62641656 -0.87007439 0.64285320
-5.11339474 -6.84483290 2.25482798 -0.53143251 -0.89834452 0.84482908
-5.39694786 -6.46528482 2.14413929 -0.56090206 -0.84853101 0.80335671
-5.49301481 -5.83563709 1.95989239 -0.57088619 -0.76589340 0.73432392
-6.00686979 -5.73596191 1.94210482 -0.62429088 -0.75281167 0.72765934
-5.34847116 -5.92134380 2.38773513 -0.55586386 -0.77714193 0.89462614
-5.74175215 -5.70741796 2.33765364 -0.59673738 -0.74906540 0.87586182
-5.71282911 -7.21511126 1.85112464 -0.59373140 -0.94694138 0.69357127
-5.99078178 -6.67302608 1.71729279 -0.62261891 -0.87579584 0.64342773
-5.14684916 -6.98118639 2.28951263 -0.53490943 -0.91624010 0.85782456
-5.39450550 -6.54529476 2.15966773 -0.56064820 -0.85903186 0.80917484
-5.59328365 -6.01822424 2.01012397 -0.58130711 -0.78985691 0.75314444
-5.94267130 -5.74660921 1.93284428 -0.61761880 -0.75420904 0.72418964
-5.32767296 -5.97344065 2.39528918 -0.55370235 -0.78397936 0.89745647
-5.68408108 -5.72165108 2.32865405 -0.59074366 -0.75093341 0.87248993
-5.75450230 -7.36181831 1.88002479 -0.59806246 -0.96619582 0.70439947
-5.98789358 -6.73351765 1.72572696 -0.62231874 -0.88373500 0.64658785
