-20.66994667 -7.11603022 1.02679276 -1.00000000 -0.84130961 0.63247663
-19.86833954 -7.08459902 0.98592812 -0.96121871 -0.83759356 0.60730511
-19.07952499 -7.07403564 0.94623405 -0.92305630 -0.83634472 0.58285463
-20.20375443 -6.96052742 1.62344778 -0.97744590 -0.82292491 1.00000000
-17.25910759 -6.79710245 1.48563421 -0.83498561 -0.80360359 0.91511059
-19.65738297 -6.91130209 1.57957149 -0.95101273 -0.81710511 0.97297341
-18.42649841 -7.09590149 0.91409564 -0.89146328 -0.83892983 0.56305826
-17.07188797 -6.84739828 1.47202826 -0.82592803 -0.80954993 0.90672964
-19.24945831 -6.90448332 1.54769135 -0.93127757 -0.81629896 0.95333606
-20.61737061 -7.16677475 0.90250903 -0.99745637 -0.84730899 0.55592120
-16.96932602 -6.89917850 1.46539986 -0.82096612 -0.81567180 0.90264678
-18.80637169 -6.84621143 1.51170290 -0.90984130 -0.80940962 0.93116820
-16.90724182 -6.99802303 1.46365547 -0.81796253 -0.82735795 0.90157223
-18.39845657 -6.82935953 1.47965837 -0.89010662 -0.80741727 0.91142958
-19.82285690 -7.17177582 0.86689246 -0.95901829 -0.84790027 0.53398234
-16.88863182 -7.11497355 1.46609759 -0.81706220 -0.84118468 0.90307653
-18.04559517 -6.82805634 1.45237947 -0.87303537 -0.80726320 0.89462656
-16.87104988 -7.23275280 1.46871412 -0.81621158 -0.85510939 0.90468824
-17.71023369 -6.82902956 1.42657959 -0.85681081 -0.80737829 0.87873453
-19.09705353 -7.18252945 0.83460897 -0.92390436 -0.84917164 0.51409662
-17.49065590 -6.87112427 1.41096807 -0.84618777 -0.81235498 0.86911821
-19.63559532 -6.91132784 1.46138549 -0.94995868 -0.81710815 0.90017402
-18.73617554 -7.18185711 0.81851488 -0.90644526 -0.84909213 0.50418305
-17.26199722 -6.90703964 1.39453506 -0.83512539 -0.81660122 0.85899597
-19.24281883 -6.90888166 1.43288314 -0.93095636 -0.81681895 0.88261735
-18.59035873 -7.22675371 0.81280100 -0.89939076 -0.85440016 0.50066346
-17.18121338 -6.96888161 1.39026248 -0.83121711 -0.82391262 0.85636413
-18.88041115 -6.87900400 1.40591323 -0.91342330 -0.81328660 0.86600459
-18.54086876 -7.34194946 0.81261051 -0.89699644 -0.86801946 0.50054616
-17.17947960 -7.09414768 1.39404202 -0.83113325 -0.83872247 0.85869223
-18.49860001 -6.87146616 1.37817705 -0.89495152 -0.81239545 0.84891987
-18.53515053 -7.47469568 0.81470561 -0.89671981 -0.88371366 0.50183666
-17.16581917 -7.21504402 1.39683568 -0.83047235 -0.85301572 0.86041307
-19.92668152 -7.21601963 0.77378660 -0.96404129 -0.85313106 0.47663167
-18.17915916 -6.88277149 1.35549784 -0.87949717 -0.81373203 0.83495009
-18.37551498 -8.36746979 0.93782699 -0.88899672 -0.98926401 0.57767612
-18.54143524 -7.61295748 0.81746733 -0.89702386 -0.90006000 0.50353783
-17.12931442 -7.32666636 1.39765728 -0.82870626 -0.86621255 0.86091912
-17.87891579 -6.89753532 1.33435094 -0.86497158 -0.81547749 0.82192415
-18.55224228 -7.75389767 0.82051474 -0.89754671 -0.91672301 0.50541490
-17.12682724 -7.45318842 1.40160131 -0.82858592 -0.88117093 0.86334854
-17.63672256 -6.93147564 1.31795442 -0.85325438 -0.81949019 0.81182432
-19.73807526 -6.91150522 1.33895755 -0.95491660 -0.81712914 0.82476169
-18.60431099 -7.91321564 0.82575244 -0.90006572 -0.93555874 0.50864118
-19.08405876 -7.31985235 0.74137819 -0.92327565 -0.86540693 0.45666894
-17.62428284 -7.05478430 1.32055950 -0.85265255 -0.83406866 0.81342900
-19.24108696 -7.48450232 0.75023246 -0.93087262 -0.88487309 0.46212295
-17.61854744 -7.14903450 1.32285810 -0.85237509 -0.84521163 0.81484485
-19.06049538 -6.91110086 1.29386508 -0.92213571 -0.81708133 0.79698598
-18.88226509 -8.27734852 0.84479874 -0.91351300 -0.97860920 0.52037323
-19.26053047 -7.63181305 0.75332719 -0.93181324 -0.90228927 0.46402922
-17.57143784 -7.25883007 1.32270479 -0.85009593 -0.85819244 0.81475043
-18.24171638 -6.74508762 1.23552680 -0.88252366 -0.79745400 0.76105118
-19.26035690 -7.77216768 0.75556225 -0.93180490 -0.91888303 0.46540594
-17.56406784 -7.38536358 1.32592285 -0.84973937 -0.87315220 0.81673270
-18.11493492 -6.82799339 1.22918570 -0.87639004 -0.80725574 0.75714523
-19.25178719 -7.90977526 0.75745344 -0.93139029 -0.93515199 0.46657088
-20.14209938 -7.40775156 0.64764839 -0.97446305 -0.87579906 0.39893392
-17.57412529 -7.51995468 1.33067322 -0.85022599 -0.88906455 0.81965876
-20.38338089 -6.98675394 1.26855147 -0.98613614 -0.82602561 0.78139347
-19.36017990 -8.09703922 0.76484638 -0.93663424 -0.95729172 0.47112471
-20.09702873 -7.53486109 0.64772159 -0.97228259 -0.89082688 0.39897901
-17.58501053 -7.65576077 1.33557677 -0.85075259 -0.90512055 0.82267922
-20.01705170 -7.00169992 1.24627209 -0.96841329 -0.82779264 0.76766998
-19.50387001 -8.26554394 0.77335680 -0.94358587 -0.97721362 0.47636691
-17.65086746 -7.78370857 1.34415817 -0.85393870 -0.92024744 0.82796514
-19.63978386 -6.97341108 1.22242928 -0.95016134 -0.82444811 0.75298345
-17.71800613 -7.94680834 1.35396540 -0.85718685 -0.93953031 0.83400613
-18.92177963 -6.98674440 1.17865217 -0.91542470 -0.82602447 0.72601789
-17.86255074 -8.41995144 1.37924969 -0.86417979 -0.99546880 0.84958059
-19.10545349 -8.14075661 1.32867086 -0.92431074 -0.96246034 0.81842536
-18.16752625 -6.96812153 1.13213909 -0.87893438 -0.82382274 0.69736713
-19.09421349 -8.27805710 1.33177090 -0.92376697 -0.97869301 0.82033491
-19.88140488 -7.87948275 1.25799811 -0.96185082 -0.93157059 0.77489287
-19.88006592 -7.03576994 1.11829627 -0.96178603 -0.83182061 0.68884033
-18.93643379 -8.45827770 1.32669806 -0.91613364 -1.00000000 0.81721020
-19.82595444 -8.00199890 1.25760722 -0.95916814 -0.94605535 0.77465212
-19.83064270 -8.14921951 1.26151586 -0.95939499 -0.96346086 0.77705973
-19.05539322 -7.01538134 1.07167029 -0.92188883 -0.82941014 0.66011995
-19.77904892 -8.27365780 1.26151586 -0.95689887 -0.97817290 0.77705973
-17.99854851 -8.45073891 1.26624608 -0.87075931 -0.99910873 0.77997339
-19.13379288 -8.14471149 1.21943259 -0.92568177 -0.96292788 0.75113755
-19.14997292 -8.29418564 1.22425330 -0.92646456 -0.98059982 0.75410700
-18.20518684 -7.09563732 1.02599597 -0.88075638 -0.83889860 0.63198584
-18.92463112 -8.44474602 1.21474218 -0.91556263 -0.99840021 0.74824840
-19.87442017 -8.14235020 1.14149022 -0.96151286 -0.96264869 0.70312715
-19.88001251 -8.29083157 1.14517748 -0.96178347 -0.98020327 0.70539844
-19.13073158 -8.12060642 1.10009789 -0.92553365 -0.96007800 0.67763060
-16.80186653 -6.92765427 1.55126035 -0.81286454 -0.81903839 0.95553452
-19.08849907 -8.24459553 1.10069251 -0.92349046 -0.97473693 0.67799687
-16.91242218 -7.06647921 1.56570196 -0.81821316 -0.83545130 0.96443015
-19.30195427 -8.44464302 1.11710680 -0.93381733 -0.99838799 0.68810761
-18.90910339 -8.41510487 1.09498322 -0.91481143 -0.99489582 0.67448008
-18.21760750 -8.38389111 1.05668342 -0.88135725 -0.99120545 0.65088844
