-17.50557137 -4.31405306 1.44010687 -0.96233326 -0.52472723 0.68139172
-17.24448013 -4.36454010 1.41900027 -0.94798028 -0.53086805 0.67140508
-16.96417618 -4.40688610 1.39614940 -0.93257117 -0.53601867 0.66059309
-16.81490326 -4.48092461 1.38515997 -0.92436516 -0.54502416 0.65539342
-16.84165382 -4.57322168 1.38952088 -0.92583573 -0.55625045 0.65745676
-16.70513344 -4.64891052 1.37975252 -0.91833079 -0.56545663 0.65283483
-16.73880196 -4.77187920 1.38550889 -0.92018169 -0.58041358 0.65555853
-17.86436653 -4.38741064 1.37826633 -0.98205733 -0.53364986 0.65213168
-16.68554688 -4.87023115 1.38341570 -0.91725409 -0.59237629 0.65456808
-17.37827301 -4.38452435 1.33931994 -0.95533532 -0.53329879 0.63370401
-16.66225052 -4.97726297 1.38411343 -0.91597342 -0.60539484 0.65489823
-17.03769875 -4.41302395 1.31269825 -0.93661290 -0.53676528 0.62110788
-16.63636208 -5.08360910 1.38463676 -0.91455024 -0.61832994 0.65514582
-16.89594269 -4.48991632 1.30300283 -0.92882019 -0.54611784 0.61652046
-16.78606796 -4.54562378 1.29544353 -0.92278004 -0.55289364 0.61294377
-17.71869278 -5.35882711 0.84832901 -0.97404921 -0.65180528 0.40138990
-16.79560089 -4.66162014 1.29873013 -0.92330408 -0.56700253 0.61449879
-16.74487114 -5.14562130 1.99911451 -0.92051530 -0.62587261 0.94588822
-17.53399467 -5.42326260 0.83992195 -0.96389580 -0.65964270 0.39741209
-16.74871826 -4.76217127 1.29725122 -0.92072678 -0.57923275 0.61379904
-18.01527977 -4.42637348 1.28730679 -0.99035347 -0.53838897 0.60909384
-16.69549370 -4.86065245 1.29527926 -0.91780090 -0.59121126 0.61286604
-17.48067665 -4.41107702 1.24715829 -0.96096474 -0.53652847 0.59009743
-16.69519806 -4.97452831 1.29790854 -0.91778463 -0.60506219 0.61411005
-16.66933441 -5.08106518 1.29840147 -0.91636282 -0.61802047 0.61434329
-17.00193024 -4.51775217 1.21359909 -0.93464661 -0.54950356 0.57421875
-16.88839531 -5.66222000 0.81108254 -0.92840528 -0.68870759 0.38376662
-16.82651520 -4.55594873 1.20134008 -0.92500353 -0.55414951 0.56841838
-16.88648415 -5.77990055 0.81299812 -0.92830020 -0.70302129 0.38467297
-16.77642822 -4.65569210 1.19965446 -0.92225009 -0.56628150 0.56762081
-16.64089394 -5.14419365 1.88874280 -0.91479939 -0.62569892 0.89366543
-16.86679649 -5.89183378 0.81395584 -0.92721790 -0.71663594 0.38512611
-16.75643158 -4.76374626 1.20042062 -0.92115080 -0.57942432 0.56798333
-16.89008904 -4.60718584 1.83026755 -0.92849839 -0.56038159 0.86599767
-16.73191261 -4.87061405 1.20088041 -0.91980296 -0.59242290 0.56820089
-17.47456551 -4.38516617 1.13435078 -0.96062881 -0.53337687 0.53672212
-16.78809738 -4.69280100 1.82177365 -0.92289162 -0.57079512 0.86197871
-17.79931450 -5.72392941 0.75328130 -0.97848117 -0.69621342 0.35641775
-16.57413101 -6.28696728 1.41359282 -0.91112924 -0.76469690 0.66884649
-16.71244049 -4.97907686 1.20179975 -0.91873252 -0.60561544 0.56863588
-17.11814308 -4.41063023 1.11039543 -0.94103521 -0.53647411 0.52538759
-16.73535919 -4.79159880 1.81909132 -0.91999239 -0.58281207 0.86070955
-17.57503510 -5.77412748 0.74385339 -0.96615189 -0.70231909 0.35195690
-16.70752335 -5.09215546 1.20394516 -0.91846222 -0.61936945 0.56965095
-16.92995644 -4.47596073 1.09869957 -0.93068999 -0.54442036 0.51985365
-17.35185051 -4.36639118 1.75114274 -0.95388275 -0.53109324 0.82855946
-17.41872597 -5.81401634 0.73737764 -0.95755911 -0.70717084 0.34889287
-16.67953300 -5.16964579 1.20363867 -0.91692346 -0.62879473 0.56950593
-16.89711380 -4.55259085 1.09785414 -0.92888457 -0.55374104 0.51945364
-16.93111229 -4.37429142 1.70828998 -0.93075353 -0.53205413 0.80828351
-16.87394714 -4.66025448 1.09827685 -0.92761099 -0.56683642 0.51965362
-16.81867599 -4.45826149 1.69904721 -0.92457259 -0.54226762 0.80391026
-16.64039421 -6.06020832 1.32173645 -0.91477191 -0.73711568 0.62538433
-16.84049225 -4.76510191 1.09799504 -0.92577189 -0.57958925 0.51952028
-16.80569077 -4.56800318 1.70072770 -0.92385876 -0.55561572 0.80470538
-16.86894035 -6.70823812 0.82928014 -0.92733580 -0.81593692 0.39237687
-17.22317505 -6.11199427 0.73318744 -0.94680911 -0.74341452 0.34691027
-16.61881256 -6.17086792 1.32321548 -0.91358548 -0.75057548 0.62608415
-16.81788635 -4.87303114 1.09855866 -0.92452919 -0.59271687 0.51978695
-17.82650757 -4.46140575 1.06152248 -0.97997606 -0.54265004 0.50226319
-16.75557518 -4.66765881 1.69841707 -0.92110378 -0.56773704 0.80361211
-16.85976410 -6.82762671 0.83119565 -0.92683131 -0.83045840 0.39328319
-17.21637917 -6.23161268 0.73480642 -0.94643551 -0.75796396 0.34767628
-16.58948898 -6.98855686 1.43766475 -0.91197348 -0.85003269 0.68023622
-16.64871788 -6.30119133 1.32929575 -0.91522950 -0.76642698 0.62896103
-16.79459000 -4.98086452 1.09912241 -0.92324853 -0.60583287 0.52005368
-17.64739609 -4.53441620 1.05136001 -0.97012979 -0.55153042 0.49745476
-16.72400284 -4.77230120 1.69820702 -0.91936815 -0.58046490 0.80351275
-17.22000885 -6.35552454 0.73699671 -0.94663507 -0.77303565 0.34871262
-16.57819748 -7.10682058 1.44080460 -0.91135275 -0.86441731 0.68172187
-16.59391403 -6.39995193 1.32798111 -0.91221678 -0.77843940 0.62833899
-16.76869202 -5.08801985 1.09954512 -0.92182481 -0.61886638 0.52025372
-17.52981186 -4.62170362 1.04536664 -0.96366584 -0.56214738 0.49461898
-17.14315033 -4.30492687 1.64100170 -0.94240993 -0.52361721 0.77644581
-17.27783585 -6.46942854 0.74147260 -0.94981396 -0.78689003 0.35083041
-16.58653450 -7.20316505 1.44481659 -0.91181105 -0.87613589 0.68362015
-16.77122879 -5.17518854 1.10151792 -0.92196429 -0.62946892 0.52118713
-17.47315598 -4.69489861 1.04302144 -0.96055132 -0.57105023 0.49350932
-16.90964317 -4.35916233 1.61956465 -0.92957330 -0.53021395 0.76630282
-17.36008263 -6.62473345 0.74775785 -0.95433533 -0.80578005 0.35380432
-16.62109756 -7.34275341 1.45249164 -0.91371113 -0.89311433 0.68725163
-16.74599457 -5.28285456 1.10208154 -0.92057705 -0.64256454 0.52145386
-17.39330101 -4.79075670 1.03963399 -0.95616144 -0.58270967 0.49190655
-16.80499268 -4.44487858 1.61155093 -0.92382038 -0.54063982 0.76251107
-16.60733032 -7.46177578 1.45563149 -0.91295427 -0.90759128 0.68873727
-16.62129784 -6.74248934 1.34047019 -0.91372210 -0.82010299 0.63424826
-16.66846657 -6.07055378 1.22493875 -0.91631514 -0.73837405 0.57958418
-17.33213425 -4.89123964 1.03754938 -0.95279890 -0.59493160 0.49092022
-16.64302444 -5.17617083 1.70219815 -0.91491652 -0.62958837 0.80540115
-16.75177383 -4.54357815 1.60894644 -0.92089480 -0.55264485 0.76127875
-16.60177803 -7.58506441 1.45964348 -0.91264904 -0.92258710 0.69063556
-16.60625458 -6.85817194 1.34293520 -0.91289514 -0.83417368 0.63541460
-16.63933754 -6.17864561 1.22570491 -0.91471380 -0.75152147 0.57994670
-16.72864532 -4.65034771 1.60954738 -0.91962332 -0.56563145 0.76156312
-16.60977936 -7.71530771 1.46505094 -0.91308892 -0.93842888 0.69319409
-16.61798668 -6.98548603 1.34786510 -0.91354012 -0.84965914 0.63774723
-16.66357040 -6.30714417 1.23091507 -0.91604596 -0.76715100 0.58241189
-16.69909477 -4.75536442 1.60954738 -0.91799885 -0.57840484 0.76156312
-16.59698868 -7.83657026 1.46853960 -0.91238576 -0.95317829 0.69484478
-16.64344025 -7.11947203 1.35410964 -0.91493934 -0.86595613 0.64070183
-16.66266632 -6.42683363 1.23413312 -0.91599625 -0.78170907 0.58393449
-16.69751740 -4.84012270 1.61175120 -0.91791213 -0.58871418 0.76260585
-16.61916542 -7.94311237 1.47429597 -0.91360492 -0.96613723 0.69756842
-16.61885452 -7.20177555 1.35493135 -0.91358781 -0.87596691 0.64109063
-16.67117882 -6.52058077 1.23735106 -0.91646421 -0.79311174 0.58545709
-16.86124229 -5.18979216 1.01357615 -0.92691261 -0.63124520 0.47957718
-16.75792885 -7.12195826 1.98077953 -0.92123312 -0.86625856 0.93721294
-16.93570328 -4.34822178 1.48719907 -0.93100595 -0.52888322 0.70367354
-16.60654640 -8.06569672 1.47795904 -0.91291118 -0.98104739 0.69930160
-16.63167000 -7.33171558 1.36018991 -0.91429234 -0.89177179 0.64357871
-16.69283676 -6.65036392 1.24256122 -0.91765481 -0.80889755 0.58792228
-17.68004036 -6.28676510 1.18719339 -0.97192436 -0.76467228 0.56172478
-16.82259369 -5.29382706 1.01318526 -0.92478794 -0.64389914 0.47939223
-16.81365967 -4.42979527 1.47812676 -0.92429686 -0.53880519 0.69938099
-16.58589745 -8.18490124 1.48092449 -0.91177607 -0.99554652 0.70070475
-16.63440704 -7.45803213 1.36462688 -0.91444278 -0.90713590 0.64567810
-16.74491882 -6.79345560 1.25037634 -0.92051792 -0.82630211 0.59162003
-17.70773506 -6.42214155 1.19226635 -0.97344679 -0.78113842 0.56412512
-16.62556458 -8.01039791 2.11347866 -0.91395670 -0.97432131 1.00000000
-16.74703217 -4.52500677 1.47442377 -0.92063409 -0.55038595 0.69762892
-16.61988068 -7.57724857 1.36758482 -0.91364419 -0.92163646 0.64707768
-16.83454514 -6.95349312 1.26140952 -0.92544496 -0.84576780 0.59684044
-17.42929840 -6.44565201 1.17437029 -0.95814031 -0.78399801 0.55565751
-17.68334389 -5.09650755 0.95831710 -0.97210598 -0.61989880 0.45343116
-16.72403145 -4.63172913 1.47497928 -0.91936970 -0.56336683 0.69789171
-16.64069939 -7.71330118 1.37382936 -0.91478866 -0.93818480 0.65003228
-16.86769295 -7.09167528 1.26784551 -0.92726719 -0.86257517 0.59988564
-16.91036034 -6.37540245 1.13829637 -0.92961276 -0.77545345 0.53858900
-17.68736839 -5.21820784 0.96057701 -0.97232717 -0.63470143 0.45450047
-16.68309975 -4.73346949 1.47386837 -0.91711956 -0.57574171 0.69736612
-16.63339996 -7.83719921 1.37760901 -0.91438740 -0.95325482 0.65182066
-17.19042397 -6.60423374 1.16253352 -0.94500870 -0.80328667 0.55005687
-17.96778488 -5.42351151 0.98008376 -0.98774254 -0.65967298 0.46373016
-16.67592049 -4.81643629 1.47534955 -0.91672492 -0.58583313 0.69806695
-16.64128494 -7.93689680 1.38171721 -0.91482085 -0.96538121 0.65376443
-18.13485527 -5.56709051 0.99209708 -0.99692690 -0.67713678 0.46941429
-16.64150810 -4.91999388 1.47497928 -0.91483313 -0.59842908 0.69789171
-16.66287231 -8.07599449 1.38829041 -0.91600758 -0.98229998 0.65687460
-16.94424057 -6.72460079 1.14942861 -0.93147522 -0.81792712 0.54385626
-17.70895767 -6.28571844 1.08862257 -0.97351402 -0.76454496 0.51508570
-16.64369774 -7.92232704 2.00691056 -0.91495353 -0.96360904 0.94957691
-16.62921906 -7.12034702 1.89576054 -0.91415757 -0.86606258 0.89698589
-16.66368484 -8.20600986 1.39305604 -0.91605228 -0.99811399 0.65912944
-17.82293129 -6.45273829 1.09930623 -0.97977948 -0.78485996 0.52014071
-16.86349869 -5.41101789 0.91704363 -0.92703664 -0.65815336 0.43390247
-16.62042999 -8.03969193 2.01037931 -0.91367441 -0.97788441 0.95121819
-16.63150215 -7.24538136 1.90157211 -0.91428310 -0.88127077 0.89973563
-16.70840454 -7.61923075 1.27290237 -0.91851062 -0.92674285 0.60227829
-17.77080727 -6.56043577 1.09852457 -0.97691405 -0.79795939 0.51977086
-16.61652565 -7.36345959 1.90537202 -0.91345978 -0.89563286 0.90153360
-16.72348976 -7.75348854 1.27826571 -0.91933990 -0.94307292 0.60481602
-17.01599884 -6.40267944 1.04875422 -0.93542004 -0.77877116 0.49622181
-16.65867233 -7.50783157 1.91632485 -0.91577673 -0.91319311 0.90671599
-16.94616699 -7.22319078 1.16295624 -0.93158114 -0.87857169 0.55025691
-16.63575745 -7.59204006 1.91788948 -0.91451699 -0.92343557 0.90745628
-16.66340828 -7.73163223 1.92727757 -0.91603708 -0.94041449 0.91189826
-16.64761925 -6.98570156 1.76815784 -0.91516912 -0.84968537 0.83661020
-16.62734222 -6.27193689 1.65061831 -0.91405439 -0.76286870 0.78099597
-16.87218285 -8.17990685 1.30263054 -0.92751402 -0.99493903 0.61634433
-17.02524185 -6.74437189 1.05735326 -0.93592811 -0.82033193 0.50029045
-16.75284195 -7.90161324 1.94448900 -0.92095351 -0.96108961 0.92004192
-16.64365959 -7.10730219 1.77277923 -0.91495144 -0.86447591 0.83879685
-16.60060310 -6.38129807 1.65202069 -0.91258448 -0.77617049 0.78165948
-16.70584869 -7.46457195 1.15421963 -0.91837013 -0.90793139 0.54612315
-17.98890114 -6.49594831 1.00137460 -0.98890334 -0.79011565 0.47380397
-16.62225723 -7.96796894 1.93443036 -0.91377485 -0.96916062 0.91528267
-16.66620255 -7.24098539 1.78055155 -0.91619068 -0.88073605 0.84247434
-16.90031052 -7.67888689 1.17296112 -0.92906028 -0.93399894 0.55499077
-18.17730522 -7.46796227 1.14477706 -0.99926049 -0.90834373 0.54165536
-17.75281334 -6.53730822 0.98900455 -0.97592491 -0.79514635 0.46795106
-16.68615723 -8.12808037 1.94873595 -0.91728765 -0.98863530 0.92205137
-16.65495872 -7.36079645 1.78454268 -0.91557258 -0.89530891 0.84436274
-18.19075775 -7.60749865 1.14907658 -1.00000000 -0.92531586 0.54368973
-17.77870369 -6.67390966 0.99328649 -0.97734815 -0.81176150 0.46997705
-16.65375710 -7.48563147 1.78979433 -0.91550648 -0.91049290 0.84684759
-16.66538620 -7.58539724 1.79525590 -0.91614580 -0.92262763 0.84943175
-16.58935738 -6.11975908 1.50552869 -0.91196626 -0.74435902 0.71234632
-16.79928970 -6.51899385 0.93547988 -0.92350686 -0.79291874 0.44262564
-16.65171051 -7.70579147 1.79924715 -0.91539401 -0.93727142 0.85132021
-16.60457420 -6.95866251 1.67405868 -0.91280276 -0.84639657 0.79208684
-16.61025238 -6.24623346 1.51145351 -0.91311491 -0.75974232 0.71514964
-16.78148270 -7.35975170 1.05813503 -0.92252797 -0.89518183 0.50066036
-17.10720634 -6.76200342 0.95784128 -0.94043398 -0.82247651 0.45320603
-16.62997627 -7.82293367 1.80239809 -0.91419923 -0.95151967 0.85281110
-16.59711456 -7.07850838 1.67806554 -0.91239268 -0.86097366 0.79398274
-18.10753822 -7.28794575 1.02480650 -0.99542516 -0.88644797 0.48489088
-16.56254196 -7.91870880 1.80029738 -0.91049212 -0.96316898 0.85181713
-16.59610176 -7.20171165 1.68287385 -0.91233701 -0.87595910 0.79625779
-18.13161850 -7.43026876 1.02932644 -0.99674892 -0.90375900 0.48702949
-16.70219231 -8.11453915 1.82256413 -0.91816914 -0.98698825 0.86235273
-16.61421013 -7.33404303 1.68988597 -0.91333252 -0.89205486 0.79957563
-18.16199684 -7.57624817 1.03432202 -0.99841893 -0.92151475 0.48939317
-16.62223434 -7.46279955 1.69589639 -0.91377360 -0.90771580 0.80241942
-16.78846931 -7.12906742 0.94856369 -0.92291206 -0.86712325 0.44881630
-16.63033676 -7.56086111 1.70070469 -0.91421902 -0.91964322 0.80469453
-16.62944221 -7.68696404 1.70591366 -0.91416985 -0.93498141 0.80715919
-16.58887863 -6.93171501 1.53311586 -0.91193992 -0.84311885 0.72539926
-16.61141777 -7.80571842 1.70931947 -0.91317898 -0.94942570 0.80877066
-16.60367012 -7.06068039 1.53904057 -0.91275311 -0.85880518 0.72820258
-16.66972733 -7.96151161 1.72134018 -0.91638446 -0.96837515 0.81445825
-16.58092117 -7.17432880 1.54126239 -0.91150248 -0.87262851 0.72925383
-16.62295341 -8.06783390 1.72174096 -0.91381311 -0.98130739 0.81464791
-16.57563591 -7.29597235 1.54533565 -0.91121197 -0.88742423 0.73118109
-16.67182541 -8.22151566 1.73296022 -0.91649979 -1.00000000 0.81995636
-16.56583595 -7.41620874 1.54903865 -0.91067320 -0.90204883 0.73293316
-16.57788467 -7.51551676 1.55385244 -0.91133559 -0.91412789 0.73521084
-16.59547806 -7.64946747 1.56051779 -0.91230273 -0.93042058 0.73836458
-16.50559044 -7.73420000 1.55625939 -0.90736133 -0.94072676 0.73634970
-16.65997696 -8.06304359 1.58236527 -0.91584843 -0.98072469 0.74870181
-16.60183525 -8.16405487 1.58162475 -0.91265219 -0.99301094 0.74835140
