-6.80676889 10.71541214 2.02056623 -0.71238726 0.87344253 0.94898844
-7.19364166 9.75638390 1.34055138 -0.75287688 0.79526955 0.62960953
-6.99481535 10.18309593 1.29929209 -0.73206794 0.83005202 0.61023152
-6.77318144 10.77537155 1.29268956 -0.70887208 0.87832999 0.60713053
-6.55331421 11.31482029 1.24237108 -0.68586105 0.92230195 0.58349770
-6.86534977 10.58011532 1.70254993 -0.71851826 0.86241412 0.79962742
-6.69654369 11.19419098 1.69966471 -0.70085126 0.91246915 0.79827237
-6.43212318 11.72558022 1.67063344 -0.67317736 0.95578414 0.78463739
-7.41272354 9.72938919 0.93250293 -0.77580565 0.79306912 0.43796360
-7.91698074 12.12770844 0.97470063 -0.82858056 0.98856270 0.45778239
-6.78837538 11.28390312 0.79193038 -0.71046221 0.91978180 0.37194166
-7.23098373 9.67922401 1.33570540 -0.75678504 0.78898001 0.62733352
-7.04620314 10.12099075 1.29674840 -0.73744613 0.82498962 0.60903680
-6.80969429 10.68404865 1.28620732 -0.71269345 0.87088603 0.60408604
-6.60015869 11.23222828 1.23732960 -0.69076371 0.91556966 0.58112991
-6.86845207 10.44097900 1.68578756 -0.71884292 0.85107279 0.79175472
-6.66632509 10.98581314 1.67230487 -0.69768864 0.89548367 0.78542238
-6.46603346 11.61399746 1.65963745 -0.67672634 0.94668871 0.77947295
-7.48834848 9.70152378 0.93459612 -0.78372049 0.79079777 0.43894672
-6.97839069 10.54924774 0.83372140 -0.73034900 0.85989803 0.39156944
-6.93114281 10.61417007 2.01769066 -0.72540408 0.86519003 0.94763786
-7.27004242 9.60514259 1.33134413 -0.76087284 0.78294146 0.62528521
-7.08223295 10.03751659 1.29119837 -0.74121696 0.81818545 0.60643017
-6.85289812 10.60436535 1.28128970 -0.71721512 0.86439085 0.60177642
-6.63911486 11.13752651 1.23081768 -0.69484085 0.90785027 0.57807148
-6.92621374 10.38610458 1.68376458 -0.72488821 0.84659982 0.79080462
-6.71037102 10.90319347 1.66560447 -0.70229840 0.88874912 0.78227544
-6.42154837 11.75093365 1.20965779 -0.67207062 0.95785075 0.56813341
-6.50661802 11.51624680 1.65078712 -0.68097389 0.93872076 0.77531624
-7.70289183 9.85021591 0.95640039 -0.80617428 0.80291802 0.44918740
-7.03562927 10.49195766 0.83249551 -0.73633951 0.85522819 0.39099365
-7.29589272 9.54557228 1.32746732 -0.76357830 0.77808571 0.62346441
-7.10990047 9.97649574 1.28726721 -0.74411261 0.81321144 0.60458386
-6.87665176 10.53205681 1.27592516 -0.71970111 0.85849679 0.59925687
-6.67105007 11.07201290 1.22661638 -0.69818312 0.90251005 0.57609826
-6.96732140 10.34187412 1.68174148 -0.72919047 0.84299445 0.78985441
-6.73559427 10.82936668 1.65862489 -0.70493823 0.88273132 0.77899736
-6.40157270 11.58480453 1.19403076 -0.66997999 0.94430912 0.56079400
-6.52434349 11.42183781 1.64086401 -0.68282902 0.93102527 0.77065575
-7.66880274 9.71230030 0.94506216 -0.80260658 0.79167616 0.44386223
-8.13073444 11.09710503 0.99586850 -0.85095173 0.90455538 0.46772417
-7.33988953 9.47916412 1.32431746 -0.76818293 0.77267259 0.62198502
-7.14227343 9.88970280 1.28125477 -0.74750072 0.80613673 0.60176003
-6.91409874 10.44559860 1.27011347 -0.72362030 0.85144931 0.59652734
-6.71048594 10.98061466 1.22052455 -0.70231044 0.89505994 0.57323718
-6.98629713 10.23096180 1.66989219 -0.73117644 0.83395368 0.78428924
-6.48301983 11.55996132 1.19583392 -0.67850411 0.94228405 0.56164086
-6.56010628 11.31894398 1.63120914 -0.68657190 0.92263806 0.76612121
-6.31550169 11.86373138 1.58449972 -0.66097188 0.96704519 0.74418342
-7.72094584 9.65304756 0.94384116 -0.80806381 0.78684634 0.44328877
-8.05800724 10.85353851 0.97614884 -0.84334022 0.88470161 0.45846257
-6.94788599 10.95556545 0.77812088 -0.72715640 0.89301813 0.36545584
-6.71618748 11.52717590 0.73280364 -0.70290715 0.93961161 0.34417194
-7.37720060 9.40477943 1.31995618 -0.77208787 0.76660931 0.61993670
-7.19607735 9.83339596 1.27963603 -0.75313175 0.80154699 0.60099971
-6.96072245 10.37392426 1.26631355 -0.72849983 0.84560692 0.59474266
-6.76157951 10.90946770 1.21695352 -0.70765781 0.88926053 0.57155997
-7.04028130 10.17223454 1.66729116 -0.73682636 0.82916665 0.78306764
-6.82218504 10.66704750 1.64578247 -0.71400070 0.86950022 0.77296579
-6.52789116 11.47061634 1.19022429 -0.68320030 0.93500131 0.55900621
-6.60490751 11.23312283 1.62423611 -0.69126076 0.91564256 0.76284617
-6.31843948 11.69107246 1.56516635 -0.66127938 0.95297128 0.73510325
-7.38942289 9.82036591 0.87492108 -0.77336705 0.80048490 0.41091946
-7.20101595 10.34757710 0.83050340 -0.75364864 0.84345931 0.39005804
-6.98752117 10.86634254 0.77431619 -0.73130459 0.88574529 0.36366889
-6.78440905 11.47788334 0.73228252 -0.71004713 0.93559366 0.34392717
-6.69389534 10.96632004 1.92816997 -0.70057410 0.89389473 0.90559316
-7.41263008 9.32875061 1.31535244 -0.77579588 0.76041198 0.61777449
-7.21757984 9.73366451 1.27177358 -0.75538218 0.79341763 0.59730703
-6.99999666 10.29222870 1.26117241 -0.73261023 0.83894771 0.59232801
-6.79304123 10.80777168 1.20960128 -0.71095055 0.88097101 0.56810689
-7.05051756 10.05173874 1.65370786 -0.73789769 0.81934470 0.77668804
-6.84178114 10.55078316 1.63349843 -0.71605158 0.86002320 0.76719636
-6.56990147 11.37772179 1.18421388 -0.68759704 0.92742920 0.55618334
-6.40033436 11.66680813 1.56745589 -0.66985041 0.95099342 0.73617852
-7.55794811 9.21073818 0.90476787 -0.79100466 0.75079244 0.42493743
-7.43289280 9.74993610 0.87245607 -0.77791655 0.79474396 0.40976173
-7.03174543 10.78541946 0.77121609 -0.73593301 0.87914902 0.36221290
-6.82861185 11.38885784 0.72876471 -0.71467334 0.92833698 0.34227499
-7.81604671 8.93798065 2.03503394 -0.81801695 0.72855926 0.95578343
-6.74709606 10.89880466 1.92364097 -0.70614201 0.88839138 0.90346605
-7.45862341 9.26654720 1.31292951 -0.78060949 0.75534159 0.61663651
-7.27026129 9.67699146 1.27015483 -0.76089579 0.78879803 0.59654677
-7.04191208 10.21535397 1.25670195 -0.73699707 0.83268142 0.59022844
-6.82989120 10.71618652 1.20350945 -0.71480721 0.87350565 0.56524581
-7.09514666 9.98146343 1.64908373 -0.74256849 0.81361639 0.77451622
-6.76794100 10.29388714 1.59748387 -0.70832360 0.83908290 0.75028163
-6.61201191 11.28647041 1.17840385 -0.69200426 0.91999108 0.55345458
-6.67765427 11.03742599 1.60653532 -0.69887429 0.89969081 0.75453275
-6.42731762 11.54309940 1.55524528 -0.67267442 0.94090962 0.73044366
-7.95510244 9.84540653 0.53641647 -0.83257031 0.80252600 0.25193584
-7.69096184 9.25334263 0.91505945 -0.80492574 0.75426525 0.42977104
-7.58883524 9.82624626 0.88527393 -0.79423726 0.80096424 0.41578183
-7.29909706 10.21251869 0.82636595 -0.76391369 0.83245033 0.38811484
-7.12132168 10.77434635 0.77403438 -0.74530792 0.87824643 0.36353654
-6.87508392 11.30484104 0.72563779 -0.71953702 0.92148852 0.34080639
-7.75163794 8.75319958 2.00344610 -0.81127602 0.71349722 0.94094771
-6.79027653 10.81597042 1.91639459 -0.71066123 0.88163936 0.90006268
-7.49407101 9.19184303 1.30856812 -0.78431940 0.74925226 0.61458814
-7.29730415 9.58680248 1.26367998 -0.76372606 0.78144652 0.59350574
-7.08199787 10.13673210 1.25200796 -0.74119234 0.82627279 0.58802384
-6.87016726 10.63125610 1.19825792 -0.71902245 0.86658275 0.56277931
-7.12525940 9.89177895 1.64099157 -0.74572009 0.80630594 0.77071565
-6.91794491 10.37983990 1.61926007 -0.72402281 0.84608912 0.76050913
-6.65527439 11.19855881 1.17299449 -0.69653207 0.91282517 0.55091399
-6.40201759 11.72255707 1.10338640 -0.67002654 0.95553768 0.51822156
-6.71153879 10.93787193 1.59741676 -0.70242059 0.89157587 0.75025010
-6.47830582 11.46445847 1.54964876 -0.67801076 0.93449938 0.72781515
-8.03454971 9.81683826 0.53790635 -0.84088516 0.80019736 0.25263557
-7.64429712 9.77051067 0.88445222 -0.80004185 0.79642105 0.41539589
-7.33263969 10.12451458 0.82238173 -0.76742423 0.82527685 0.38624358
-7.09581661 10.59002113 0.76219761 -0.74263865 0.86322159 0.35797724
-6.92497206 11.22748089 0.72303200 -0.72475827 0.91518271 0.33958253
-7.78012133 8.67503166 1.99657905 -0.81425703 0.70712554 0.93772250
-6.83268309 10.73302460 1.90914822 -0.71509939 0.87487817 0.89665931
-7.51201630 9.12581444 1.30372226 -0.78619754 0.74387008 0.61231220
-7.32307148 9.52707481 1.25997996 -0.76642281 0.77657795 0.59176797
-7.10556698 10.06918526 1.24731386 -0.74365908 0.82076681 0.58581918
-6.89632607 10.56208706 1.19363654 -0.72176021 0.86094463 0.56060880
-7.16012526 9.84210777 1.63810146 -0.74936908 0.80225712 0.76935828
-6.93367958 10.29778767 1.61088467 -0.72566956 0.83940083 0.75657552
-6.67920685 11.11935329 1.16738486 -0.69903678 0.90636891 0.54827935
-6.43510580 11.65213013 1.09912801 -0.67348951 0.94979697 0.51622152
-6.73892260 10.86742115 1.59124839 -0.70528656 0.88583320 0.74735302
-6.48907709 11.35794735 1.53845584 -0.67913806 0.92581737 0.72255826
-8.19289112 9.91416740 0.54727119 -0.85745698 0.80813092 0.25703391
-7.54475451 9.54958344 0.86506122 -0.78962386 0.77841264 0.40628862
-7.35903072 10.06091118 0.81962347 -0.77018625 0.82009238 0.38494813
-7.15345144 10.56804276 0.76318401 -0.74867058 0.86143005 0.35844052
-6.95557880 11.15919018 0.72029591 -0.72796154 0.90961611 0.33829749
-7.78646660 8.60035706 1.98765206 -0.81492114 0.70103866 0.93352979
-7.54882336 9.05407333 1.29984546 -0.79004967 0.73802227 0.61049139
-7.34625006 9.43379116 1.25304258 -0.76884866 0.76897413 0.58850974
-7.14319992 9.98881721 1.24239635 -0.74759769 0.81421584 0.58350956
-6.93407965 10.47537994 1.18817496 -0.72571146 0.85387689 0.55804372
-7.19122314 9.75555897 1.63058734 -0.75262374 0.79520231 0.76582915
-6.97597122 10.22126770 1.60530102 -0.73009574 0.83316350 0.75395304
-6.71779823 11.02623558 1.16137445 -0.70307571 0.89877862 0.54545647
-6.76687813 10.76117325 1.58105707 -0.70821238 0.87717265 0.74256653
-6.53253031 11.26885319 1.53133297 -0.68368584 0.91855502 0.71921289
-8.41042137 10.04755974 0.56014782 -0.88022339 0.81900406 0.26308161
-8.49435616 9.86543655 1.00140452 -0.88900787 0.80415875 0.47032425
-7.62200737 9.52380562 0.86736184 -0.79770905 0.77631146 0.40736917
-7.38640022 9.96647072 0.81502634 -0.77305073 0.81239432 0.38278902
-7.20169401 10.49653816 0.76092941 -0.75371963 0.85560155 0.35738161
-7.00097132 11.07650375 0.71729928 -0.73271221 0.90287614 0.33689007
-7.57866573 9.18843269 1.97920609 -0.79317296 0.74897426 0.92956305
-7.32774687 10.01104355 1.97391510 -0.76691210 0.81602752 0.92707807
-6.89102888 10.56607151 1.89254200 -0.72120583 0.86126941 0.88885999
-7.18478012 9.91480541 1.23837292 -0.75194943 0.80818290 0.58161992
-7.23694706 9.68959713 1.62683022 -0.75740916 0.78982556 0.76406455
-7.02207136 10.15114594 1.60083401 -0.73492056 0.82744765 0.75185508
-6.81085730 10.68171597 1.57515681 -0.71281517 0.87069589 0.73979539
-6.57411861 11.17795181 1.52395582 -0.68803841 0.91114545 0.71574807
-7.61906481 9.39820480 0.85914528 -0.79740107 0.76607341 0.40351012
-7.43927526 9.90712261 0.81380039 -0.77858454 0.80755669 0.38221323
-7.23568487 10.40516853 0.75698382 -0.75727707 0.84815377 0.35552850
-7.03372622 10.97522354 0.71286947 -0.73614031 0.89462048 0.33480954
-6.84369135 11.57628441 0.66309905 -0.71625155 0.94361460 0.31143415
-7.93153286 8.54219532 1.99726570 -0.83010358 0.69629771 0.93804497
-7.57947016 9.07243252 1.96420646 -0.79325718 0.73951882 0.92251825
-7.26791763 9.80008507 1.94068408 -0.76065046 0.79883176 0.91147059
-6.95945644 10.52586746 1.89314580 -0.72836733 0.85799223 0.88914359
-7.54341650 9.44019127 1.26784241 -0.78948385 0.76949584 0.59546071
-7.21746063 9.82946587 1.23278475 -0.75536972 0.80122668 0.57899535
-7.02610874 10.32979584 1.18082273 -0.73534310 0.84200990 0.55459064
-7.26417398 9.59980392 1.61873806 -0.76025867 0.78250629 0.76026398
-7.05055380 10.05649662 1.59217942 -0.73790145 0.81973255 0.74779028
-6.63670969 11.49942112 1.09598053 -0.69458908 0.93734926 0.51474327
-6.87028694 10.62707329 1.57327950 -0.71903497 0.86624181 0.73891366
-6.61786461 11.09209061 1.51734173 -0.69261682 0.90414667 0.71264172
-7.70699835 9.38562679 0.86292493 -0.80660409 0.76504809 0.40528530
-7.50500631 9.86494064 0.81426013 -0.78546387 0.80411828 0.38242915
-7.28142595 10.33174706 0.75458825 -0.76206422 0.84216899 0.35440338
-7.09491634 10.91911030 0.71195745 -0.74254441 0.89004654 0.33438122
-6.88863850 11.48678589 0.65988761 -0.72095561 0.93631935 0.30992585
-7.88768959 8.38901138 1.97254479 -0.82551497 0.68381125 0.92643446
-7.61598444 9.00050926 1.95887327 -0.79707867 0.73365611 0.92001343
-7.29606771 9.71008682 1.93173730 -0.76359665 0.79149574 0.90726864
-6.86842632 10.24682808 1.84996951 -0.71884024 0.83524698 0.86886519
-7.63478327 8.81428814 1.28433847 -0.79904616 0.71847671 0.60320830
-7.52899361 9.30138111 1.25419879 -0.78797436 0.75818104 0.58905280
-7.30624723 9.53044415 1.61440301 -0.76466203 0.77685255 0.75822794
-7.10444593 9.99906826 1.58994591 -0.74354178 0.81505144 0.74674129
-6.82600641 10.74329185 1.14294267 -0.71440065 0.87571514 0.53679973
-6.67571211 11.40073395 1.08987057 -0.69867104 0.92930502 0.51187360
-6.88028860 10.49759102 1.55933344 -0.72008175 0.85568738 0.73236370
-6.77552700 11.19638538 1.53921902 -0.70911753 0.91264802 0.72291666
-7.75309753 9.32167149 0.86128163 -0.81142873 0.75983495 0.40451348
-7.51926374 9.75607109 0.80828381 -0.78695601 0.79524404 0.37962228
-7.31958961 10.24840927 0.75134724 -0.76605839 0.83537591 0.35288119
-7.13366938 10.82936382 0.70843965 -0.74660021 0.88273108 0.33272901
-6.93583679 11.40230179 0.65703297 -0.72589535 0.92943281 0.30858514
-7.95113277 8.35068321 1.97529149 -0.83215487 0.68068701 0.92772448
-7.66085958 8.93898296 1.95587337 -0.80177528 0.72864097 0.91860449
-7.33056641 9.62953663 1.92470765 -0.76720721 0.78492987 0.90396702
-7.01026154 10.31807137 1.87110472 -0.73368454 0.84105420 0.87879163
-7.67820787 8.75273228 1.28215778 -0.80359089 0.71345913 0.60218412
-7.65641928 9.33850193 1.26691735 -0.80131054 0.76120687 0.59502625
-7.32470036 10.48389244 1.21212208 -0.76659328 0.85457075 0.56929082
-7.34286976 9.45469189 1.60891187 -0.76849484 0.77067780 0.75564897
-7.13249636 9.90596008 1.58157039 -0.74647748 0.80746192 0.74280763
-6.86852455 10.66175461 1.13833475 -0.71885055 0.86906880 0.53463554
-6.72286749 11.31743622 1.08542705 -0.70360625 0.92251521 0.50978667
-6.90652847 10.39479065 1.54967844 -0.72282797 0.84730780 0.72782910
-6.79191828 11.06559277 1.52599084 -0.71083301 0.90198672 0.71670389
-7.55950737 9.68194771 0.80567878 -0.79116786 0.78920203 0.37839881
-7.36633110 10.17794704 0.74923354 -0.77095032 0.82963228 0.35188848
-7.17601967 10.74619484 0.70544297 -0.75103259 0.87595177 0.33132160
-6.98224688 11.31768036 0.65417832 -0.73075259 0.92253506 0.30724439
-7.96097136 8.25666523 1.96464777 -0.83318454 0.67302334 0.92272550
-7.70010185 8.87128258 1.95154011 -0.80588228 0.72312254 0.91656929
-7.36192513 9.54581547 1.91703904 -0.77048916 0.77810556 0.90036535
-7.05929184 10.25099945 1.86687768 -0.73881596 0.83558702 0.87680638
-7.69826746 8.69270992 1.27828109 -0.80569029 0.70856655 0.60036337
-7.70413303 9.30691528 1.26761115 -0.80630422 0.75863212 0.59535205
-7.34037161 9.64327812 1.22429085 -0.76823342 0.78604996 0.57500607
-7.42665625 10.52409554 1.22178495 -0.77726382 0.85784781 0.57382911
-7.35062599 9.37332916 1.60024166 -0.76930660 0.76404572 0.75157684
-7.14888334 9.83054447 1.57431173 -0.74819249 0.80131459 0.73939848
-6.75260830 11.24632549 1.08116865 -0.70671892 0.91671878 0.50778663
-6.93771982 10.33582783 1.54538739 -0.72609240 0.84250158 0.72581375
-6.71360874 10.82253742 1.49419260 -0.70263726 0.88217461 0.70176935
-7.58772755 9.62432194 0.80353343 -0.79412133 0.78450483 0.37739122
-7.39541674 10.11732006 0.74697894 -0.77399439 0.82469046 0.35082957
-7.19973087 10.67259407 0.70231605 -0.75351417 0.86995232 0.32985300
-7.01759052 11.25582409 0.65215623 -0.73445159 0.91749299 0.30629471
-7.98327017 8.20214462 1.96052766 -0.83551830 0.66857922 0.92079043
-7.71587944 8.80519009 1.94487369 -0.80753356 0.71773511 0.91343832
-7.38980722 9.48923874 1.91256559 -0.77340728 0.77349383 0.89826435
-7.07936144 10.17699814 1.85932934 -0.74091643 0.82955498 0.87326115
-7.76468611 8.65744972 1.28046167 -0.81264162 0.70569241 0.60138750
-7.49325752 9.71642399 1.24127877 -0.78423423 0.79201227 0.58298469
-7.51670027 9.46158886 1.62538517 -0.78668773 0.77124000 0.76338589
-7.18589449 9.75191116 1.56844890 -0.75206608 0.79490495 0.73664492
-6.92710924 10.49765396 1.12771642 -0.72498190 0.85569251 0.52964848
-6.79627466 11.15941238 1.07635474 -0.71128899 0.90963423 0.50552571
-6.97793770 10.25602436 1.53948712 -0.73030156 0.83599663 0.72304261
-6.77304649 10.76669407 1.49215746 -0.70885795 0.87762266 0.70081353
-7.65054274 9.57956982 0.80383992 -0.80069548 0.78085697 0.37753516
-7.44225216 10.04818249 0.74500614 -0.77889609 0.81905484 0.34990302
-7.24858046 10.60081673 0.70023143 -0.75862670 0.86410159 0.32887390
-7.07540226 11.19123936 0.65072894 -0.74050206 0.91222852 0.30562434
-8.01247883 8.12940979 1.95503402 -0.83857524 0.66265041 0.91821027
-7.75014925 8.73290062 1.93954051 -0.81112021 0.71184260 0.91093349
-7.42477465 9.41166115 1.90617502 -0.77706695 0.76717025 0.89526290
-7.11702490 10.09510803 1.85238492 -0.74485826 0.82287985 0.86999965
-7.80822992 8.59675407 1.27852333 -0.81719881 0.70074493 0.60047716
-7.54925489 9.66289520 1.24038458 -0.79009485 0.78764904 0.58256471
-7.93796110 10.95556831 1.29026532 -0.83077633 0.89301836 0.60599196
-7.54864740 9.38030052 1.61902702 -0.79003125 0.76461399 0.76039970
-7.22338247 9.67479038 1.56286514 -0.75598949 0.78861862 0.73402244
-6.99847603 10.46218300 1.12871814 -0.73245108 0.85280114 0.53011894
-6.75560808 10.93672466 1.05672908 -0.70703286 0.89148235 0.49630824
-7.01066065 10.16634560 1.53197777 -0.73372632 0.82868665 0.71951574
-6.79267454 10.64858818 1.48071003 -0.71091217 0.86799556 0.69543707
-8.87769890 9.46739101 0.99791580 -0.92912799 0.77171296 0.46868572
-7.70429754 9.52357006 0.80307370 -0.80632144 0.77629226 0.37717530
-7.49090099 9.98205185 0.74331516 -0.78398764 0.81366438 0.34910882
-7.29225588 10.52229309 0.69762564 -0.76319766 0.85770088 0.32765007
-7.13053083 11.12300873 0.64906371 -0.74627179 0.90666687 0.30484223
-8.03132820 8.04688835 1.94713712 -0.84054798 0.65592390 0.91450137
-7.77855301 8.65465355 1.93287396 -0.81409287 0.70546448 0.90780246
-7.45411968 9.32785797 1.89850628 -0.78013813 0.76033920 0.89166117
-7.15049982 10.00831604 1.84453464 -0.74836171 0.81580520 0.86631262
-7.85401154 8.53877163 1.27706957 -0.82199025 0.69601864 0.59979439
-7.57768345 9.57480431 1.23457301 -0.79307014 0.78046846 0.57983524
-7.92441320 10.79312611 1.27556098 -0.82935840 0.87977725 0.59908581
-7.55857038 9.27294445 1.60775578 -0.79106981 0.75586307 0.75510597
-7.26018572 9.59758568 1.55728149 -0.75984126 0.78232545 0.73140001
-7.14467335 10.53645992 1.14314306 -0.74775189 0.85885566 0.53689384
-6.81997347 10.88730526 1.05598843 -0.71376926 0.88745403 0.49596038
-7.05277634 10.09126568 1.52688217 -0.73813409 0.82256669 0.71712250
-6.80463982 10.52065849 1.46773636 -0.71216446 0.85756767 0.68934381
-9.10191250 9.58453751 1.01884794 -0.95259392 0.78126186 0.47851682
-7.77284861 9.48575687 0.80414641 -0.81349587 0.77320999 0.37767911
-7.53419352 9.90934658 0.74106055 -0.78851855 0.80773795 0.34804991
-7.34557867 10.45832157 0.69619250 -0.76877838 0.85248637 0.32697698
-7.19159412 11.06458282 0.64811218 -0.75266254 0.90190440 0.30439535
-8.03262138 7.94785261 1.93511999 -0.84068334 0.64785123 0.90885735
-7.81555462 8.58661938 1.92854071 -0.81796545 0.69991881 0.90576732
-7.49639845 9.26091671 1.89435244 -0.78456295 0.75488263 0.88971025
-7.19242048 9.93433094 1.83909988 -0.75274903 0.80977452 0.86376011
-7.88988256 8.47040081 1.27391970 -0.82574451 0.69044554 0.59831500
-7.66340351 8.79683304 1.21928036 -0.80204147 0.71705395 0.57265282
-7.62648201 9.51306629 1.23256123 -0.79817736 0.77543604 0.57889038
-7.60532093 9.21155453 1.60515475 -0.79596263 0.75085902 0.75388438
-7.29269934 9.51557922 1.55086029 -0.76324409 0.77564090 0.72838420
-7.01605558 11.04615784 1.07820630 -0.73429096 0.90040255 0.50639534
-7.08848429 10.00798225 1.52044547 -0.74187124 0.81577802 0.71409941
-6.85867214 10.45942879 1.46493804 -0.71781939 0.85257667 0.68802953
-7.84505653 9.45205498 0.80567878 -0.82105309 0.77046287 0.37839881
-7.58780289 9.85073566 0.74007416 -0.79412925 0.80296040 0.34758663
-7.37866735 10.36648750 0.69254440 -0.77224141 0.84500074 0.32526359
-7.24891710 11.00082207 0.64680380 -0.75866193 0.89670712 0.30378085
-8.02310753 7.83949900 1.92069936 -0.83968765 0.63901901 0.90208447
-7.52809572 9.18161678 1.88764226 -0.78788036 0.74841869 0.88655877
-7.22552681 9.84904194 1.83155155 -0.75621390 0.80282235 0.86021495
-7.95659542 8.43507767 1.27634263 -0.83272660 0.68756628 0.59945297
-7.74738169 8.78133202 1.22436774 -0.81083053 0.71579039 0.57504219
-7.84554529 9.66063499 1.26094890 -0.82110423 0.78746480 0.59222305
-7.29000330 9.66865921 1.14028060 -0.76296192 0.78811884 0.53554940
-7.51802635 8.99076653 1.57220805 -0.78682655 0.73286200 0.73841047
-7.44323397 9.58704567 1.57179904 -0.77899885 0.78146631 0.73821837
-6.88202667 10.68510628 1.04321325 -0.72026366 0.87097222 0.48996034
-7.11647558 9.91500092 1.51239967 -0.74480075 0.80819887 0.71032059
-6.89248466 10.36816788 1.45756090 -0.72135818 0.84513772 0.68456477
-7.93514776 9.43916035 0.80935651 -0.83048189 0.76941180 0.38012609
-7.43195486 10.30375481 0.69124150 -0.77781838 0.83988726 0.32465166
-7.30461693 10.93511677 0.64537650 -0.76449138 0.89135128 0.30311051
-8.13754177 7.85174894 1.93649340 -0.85166419 0.64001751 0.90950239
-7.55909348 9.10228539 1.88093221 -0.79112452 0.74195218 0.88340729
-7.26373100 9.77167511 1.82551289 -0.76021230 0.79651594 0.85737878
-7.99077034 8.39174843 1.27537346 -0.83630329 0.68403435 0.59899777
-7.76362085 8.71649647 1.21997404 -0.81253010 0.71050549 0.57297862
-7.68516350 9.37338257 1.22451437 -0.80431885 0.76405007 0.57511103
-7.39800024 9.71659184 1.15120387 -0.77426475 0.79202598 0.54067969
-7.67800188 9.09415531 1.59879661 -0.80356932 0.74128950 0.75089818
-7.35055399 9.37551498 1.54025137 -0.76929909 0.76422387 0.72340155
-7.46108294 10.60326481 1.16678381 -0.78086692 0.86430115 0.54799706
-6.87704277 10.56734467 1.03377068 -0.71974206 0.86137319 0.48552549
-7.15029478 9.86372471 1.50944960 -0.74834025 0.80401921 0.70893502
-7.03173780 10.47076130 1.47842062 -0.73593223 0.85350043 0.69436181
-8.01315498 9.44113541 0.81334066 -0.83864599 0.76957279 0.38199732
-7.61926174 9.66942883 0.73133749 -0.79742169 0.78818160 0.34348333
-7.46982813 10.25411701 0.69006890 -0.78178215 0.83584112 0.32410094
-7.35829449 10.90388584 0.64561439 -0.77010918 0.88880557 0.30322221
-8.06601715 7.71004295 1.91039896 -0.84417850 0.62846667 0.89724678
-7.83585644 8.31516838 1.89720821 -0.82009017 0.67779213 0.89105153
-7.59173393 9.05447769 1.87837601 -0.79454064 0.73805523 0.88220674
-7.28956461 9.71042442 1.82038009 -0.76291603 0.79152328 0.85496807
-8.05990505 8.35849571 1.27828109 -0.84353882 0.68132383 0.60036337
-7.74136162 9.32185650 1.22406733 -0.81020051 0.75985003 0.57490110
-7.55708885 9.79764462 1.16821897 -0.79091477 0.79863280 0.54867107
-7.70792723 9.01419353 1.59272742 -0.80670130 0.73477155 0.74804771
-7.50641012 9.45182514 1.56230676 -0.78561080 0.77044410 0.73376018
-7.18155384 9.77712440 1.50247657 -0.75161177 0.79696018 0.70566005
-7.04170609 10.34428883 1.46570122 -0.73697549 0.84319127 0.68838799
-8.90894890 9.61943531 0.94262534 -0.93239862 0.78410649 0.44271776
-7.64012194 9.57140446 0.72682828 -0.79960489 0.78019136 0.34136552
-7.52223110 10.19094276 0.68876600 -0.78726661 0.83069164 0.32348901
-7.41204023 10.83599281 0.64406812 -0.77573419 0.88327140 0.30249599
-8.19754791 7.73750162 1.93031311 -0.85794431 0.63070494 0.90659976
-7.96948147 8.35151482 1.91720772 -0.83407521 0.68075484 0.90044457
-7.62542486 8.97955036 1.87262452 -0.79806668 0.73194772 0.87950546
-7.31460619 9.61716175 1.81132209 -0.76553684 0.78392118 0.85071385
-8.12060070 8.31619740 1.27973485 -0.84989113 0.67787600 0.60104614
-7.56839609 9.68562984 1.15960634 -0.79209816 0.78950220 0.54462606
-7.72417068 8.91927910 1.58376825 -0.80840129 0.72703487 0.74383986
-7.50371075 9.32721710 1.54834771 -0.78532827 0.76028699 0.72720408
-7.94064236 10.98715973 1.22628641 -0.83105695 0.89559346 0.57594329
-7.08439064 10.59277534 1.04636073 -0.74144280 0.86344612 0.49143860
-7.21675205 9.69687366 1.49657631 -0.75529557 0.79041868 0.70288891
-7.10543776 10.29820633 1.46544683 -0.74364555 0.83943498 0.68826848
-9.14890480 9.75545788 0.96431702 -0.95751208 0.79519403 0.45290557
-7.85407972 9.71428394 0.74416065 -0.82199740 0.79183787 0.34950590
-7.58970737 10.14826679 0.68915689 -0.79432857 0.82721299 0.32367259
-7.47657347 10.78428078 0.64371127 -0.78248811 0.87905622 0.30232841
-8.23589516 7.67645693 1.92790961 -0.86195773 0.62572902 0.90547091
-7.99854422 8.27712822 1.91154122 -0.83711690 0.67469138 0.89778322
-7.65976477 8.90605259 1.86719251 -0.80166066 0.72595674 0.87695420
-7.35803032 9.54905987 1.80709505 -0.77008158 0.77836996 0.84872860
-8.20065975 8.29319477 1.28458083 -0.85826999 0.67600101 0.60332215
-7.97096777 8.61681747 1.22760522 -0.83423078 0.70238036 0.57656270
-7.64634943 9.65974712 1.16254723 -0.80025667 0.78739244 0.54600728
-7.78005934 8.87057114 1.58376825 -0.81425053 0.72306454 0.74383986
-7.56091881 9.27834892 1.54806852 -0.79131562 0.75630361 0.72707295
-7.93765306 10.83922482 1.21406531 -0.83074409 0.88353485 0.57020348
-7.13408470 10.52330208 1.04358351 -0.74664372 0.85778314 0.49013424
-7.30265093 9.68452835 1.50220835 -0.76428562 0.78941238 0.70553410
-7.15185547 10.22731781 1.46137667 -0.74850357 0.83365667 0.68635690
-7.92379141 9.67556286 0.74514705 -0.82929337 0.78868163 0.34996918
-7.65332031 10.10037899 0.68915689 -0.80098623 0.82330954 0.32367259
-7.54647541 10.74036217 0.64394915 -0.78980398 0.87547630 0.30244011
-8.28396511 7.62455845 1.92790961 -0.86698866 0.62149864 0.90547091
-7.68698597 8.82504749 1.86016285 -0.80450958 0.71935374 0.87365264
-7.37539577 9.44802189 1.79652739 -0.77189898 0.77013409 0.84376532
-8.26808453 8.25690937 1.28724599 -0.86532658 0.67304325 0.60457385
-7.98428202 8.52299976 1.22066784 -0.83562422 0.69473302 0.57330447
-7.65291452 8.87076378 1.17891514 -0.80094373 0.72308022 0.55369473
-7.75283337 9.66900253 1.17031956 -0.81140113 0.78814685 0.54965764
-7.69474363 8.66343784 1.55284452 -0.80532151 0.70618051 0.72931612
-7.61026001 9.21995258 1.54611421 -0.79647958 0.75154358 0.72615510
-7.99609518 10.77636719 1.21246266 -0.83686054 0.87841117 0.56945080
-7.37903166 9.65890121 1.50569487 -0.77227950 0.78732347 0.70717156
-7.18278694 10.13518810 1.45399952 -0.75174081 0.82614690 0.68289208
-8.51533699 9.53531742 0.84414160 -0.89120370 0.77724981 0.39646342
-8.02637768 9.67632580 0.74979722 -0.84002990 0.78874379 0.35215321
-7.71784925 10.05367374 0.68928719 -0.80773973 0.81950247 0.32373378
-7.61496496 10.69436264 0.64406812 -0.79697198 0.87172675 0.30249599
-8.35653591 7.59484196 1.93374658 -0.87458378 0.61907637 0.90821230
-8.02987194 8.10299683 1.89420831 -0.84039557 0.66049743 0.88964260
-7.72527075 8.75735664 1.85600901 -0.80851644 0.71383607 0.87170172
-7.42727137 9.39217758 1.79471576 -0.77732825 0.76558208 0.84291446
-8.33820724 8.22288609 1.29039586 -0.87266552 0.67026997 0.60605323
-8.12365437 8.56361294 1.23523641 -0.85021073 0.69804353 0.58014679
-7.70718956 8.82101059 1.17869163 -0.80662411 0.71902472 0.55358970
-7.90478373 9.73295212 1.18565416 -0.82730401 0.79335958 0.55685979
-7.73709106 8.60169792 1.55024350 -0.80975354 0.70114791 0.72809452
-7.56916237 9.05327415 1.52433801 -0.79217833 0.73795712 0.71592760
-7.31477451 9.73293304 1.08724666 -0.76555443 0.79335797 0.51064128
-7.29073811 10.46881580 1.04765677 -0.76303881 0.85334182 0.49204731
-7.42012310 9.58730221 1.50140381 -0.77658010 0.78148723 0.70515621
-7.22208071 10.05598164 1.44865739 -0.75585324 0.81969059 0.68038309
-8.68361473 9.60125065 0.85655391 -0.90881544 0.78262419 0.40229306
-8.10494900 9.64711761 0.75176996 -0.84825307 0.78636295 0.35307974
-7.78700399 10.01285076 0.68993860 -0.81497735 0.81617486 0.32403973
-7.68317461 10.64792633 0.64418703 -0.80411071 0.86794162 0.30255184
-8.37912178 7.51985979 1.92790961 -0.87694758 0.61296433 0.90547091
-8.04437160 8.01612759 1.88554192 -0.84191310 0.65341651 0.88557231
-7.74851227 8.67336369 1.84834027 -0.81094885 0.70698959 0.86809999
-7.45036745 9.30051613 1.78595972 -0.77974546 0.75811052 0.83880204
-8.40246964 8.20842934 1.29475725 -0.87939119 0.66909152 0.60810167
-8.19683552 8.55972862 1.24078643 -0.85786980 0.69772691 0.58275348
-7.69993162 8.72952938 1.17042124 -0.80586445 0.71156782 0.54970545
-8.23501968 10.04363632 1.23312831 -0.86186606 0.81868428 0.57915670
-7.74288225 8.52711010 1.54272938 -0.81035966 0.69506806 0.72456539
-7.56839705 8.96597672 1.51484573 -0.79209822 0.73084128 0.71146941
-7.34488440 9.67777443 1.08464217 -0.76870573 0.78886187 0.50941801
-7.37885761 10.48978329 1.05395186 -0.77226132 0.85505092 0.49500388
-7.39795256 9.46645355 1.48665321 -0.77425975 0.77163655 0.69822836
-7.14039087 9.84338093 1.42042041 -0.74730372 0.80236089 0.66712117
-8.90250969 9.74992180 0.87632161 -0.93172467 0.79474282 0.41157722
-8.18767357 9.65299892 0.75585651 -0.85691088 0.78684235 0.35499904
-7.83163166 9.97290897 0.68967801 -0.81964803 0.81291908 0.32391736
-7.73913288 10.61967850 0.64478177 -0.80996722 0.86563903 0.30283117
-8.46903706 7.52862787 1.94061351 -0.88635802 0.61367905 0.91143745
-7.77472544 8.62065220 1.84482551 -0.81369233 0.70269293 0.86644924
-7.48294544 9.25145054 1.78324234 -0.78315502 0.75411105 0.83752578
-8.48822594 8.18849468 1.30057240 -0.88836628 0.66746658 0.61083281
-8.26978302 8.52805710 1.24402380 -0.86550438 0.69514525 0.58427393
-8.29923058 9.99322796 1.23333836 -0.86858630 0.81457537 0.57925534
-7.78556967 8.46665764 1.54041731 -0.81482726 0.69014043 0.72347945
-7.57963085 8.86548328 1.50507438 -0.79327399 0.72264981 0.70688015
-7.54533958 9.81261730 1.10768187 -0.78968507 0.79985327 0.52023894
-7.80447769 10.94971371 1.11171818 -0.81680614 0.89254111 0.52213466
-7.50413275 9.47875500 1.49684453 -0.78537244 0.77263927 0.70301491
-7.16106987 9.74230957 1.41151690 -0.74946791 0.79412228 0.66293955
-8.30266190 9.66501045 0.76177484 -0.86894542 0.78782141 0.35777867
-7.77960300 9.77999878 0.67769146 -0.81420279 0.79719448 0.31828770
-7.82700729 10.59978485 0.64692277 -0.81916404 0.86401749 0.30383673
-8.56511593 7.51807213 1.95194399 -0.89641351 0.61281860 0.91675901
-8.04603767 7.84306955 1.86520910 -0.84208745 0.63931006 0.87602270
-7.79672050 8.53670120 1.83715677 -0.81599426 0.69584990 0.86284751
-7.50466585 9.15983772 1.77448630 -0.78542823 0.74664342 0.83341342
-8.56398487 8.15823746 1.30469143 -0.89629513 0.66500026 0.61276740
-8.34960270 8.50290489 1.24841762 -0.87385815 0.69309503 0.58633757
-8.38230228 9.96527100 1.23669934 -0.87728047 0.81229651 0.58083391
-7.81699371 8.39443779 1.53579319 -0.81811607 0.68425357 0.72130769
-7.73739147 8.93613815 1.52712977 -0.80978501 0.72840905 0.71723878
-7.71836233 9.90768719 1.12591338 -0.80779344 0.80760270 0.52880168
-7.96969795 11.03459835 1.12708545 -0.83409786 0.89946032 0.52935213
-7.50514126 9.35884666 1.48423946 -0.78547800 0.76286519 0.69709474
-7.20322514 9.67163467 1.40744674 -0.75387985 0.78836137 0.66102791
-8.43380642 9.69404221 0.76938421 -0.88267082 0.79018790 0.36135253
-7.87226677 9.76972485 0.68094867 -0.82390082 0.79635698 0.31981748
-7.90777540 10.56960297 0.64835006 -0.82761711 0.86155725 0.30450708
-8.67034149 7.51433134 1.96533453 -0.90742630 0.61251372 0.92304808
-8.23840427 7.93074846 1.89887488 -0.86222029 0.64645702 0.89183432
-7.54569101 9.09269714 1.77056110 -0.78972185 0.74117064 0.83156985
-8.64549065 8.13278103 1.30977964 -0.90482539 0.66292524 0.61515713
-8.42663479 8.47426319 1.25234878 -0.88192028 0.69076037 0.58818388
-7.85053873 8.32503414 1.53174710 -0.82162684 0.67859632 0.71940738
-7.65525103 8.72927380 1.49753642 -0.80118829 0.71154696 0.70333982
-7.69893217 9.75603008 1.11269057 -0.80575991 0.79524070 0.52259135
-8.06704140 11.02291679 1.13152897 -0.84428573 0.89850813 0.53143913
-7.55002165 9.29460716 1.48128939 -0.79017508 0.75762886 0.69570917
-7.24715996 9.60398769 1.40388536 -0.75847799 0.78284729 0.65935528
-8.58012390 9.73829269 0.77854359 -0.89798421 0.79379487 0.36565435
-8.00893307 10.56590176 0.65179944 -0.83820415 0.86125559 0.30612713
-8.14966679 7.74678850 1.86654246 -0.85293317 0.63146192 0.87664890
-7.88039064 8.41359711 1.83172476 -0.82475108 0.68581533 0.86029625
-7.56712627 9.00266933 1.76210701 -0.79196525 0.73383218 0.82759929
-8.73138332 8.11066723 1.31559479 -0.91381484 0.66112268 0.61788827
-8.50504303 8.44639111 1.25651121 -0.89012635 0.68848842 0.59013885
-7.63011408 8.83981514 1.09469700 -0.79855746 0.72055751 0.51414043
-7.88625956 8.25839806 1.52827907 -0.82536530 0.67316461 0.71777856
-7.69025993 8.65875626 1.49334872 -0.80485225 0.70579892 0.70137304
-7.73766708 9.67952251 1.10908437 -0.80981380 0.78900439 0.52089769
-8.04498959 10.84870720 1.11727262 -0.84197778 0.88430780 0.52474338
-7.60574818 9.24392986 1.48075294 -0.79600739 0.75349802 0.69545722
-7.28211451 9.52512550 1.39854324 -0.76213628 0.77641904 0.65684623
-8.21738434 9.93884945 0.70374924 -0.86002040 0.81014282 0.33052611
-8.21253300 7.70895290 1.86987567 -0.85951263 0.62837785 0.87821442
-7.81467485 8.23950291 1.80392575 -0.81787336 0.67162442 0.84724009
-7.61203098 8.94137764 1.75938964 -0.79666489 0.72883618 0.82632303
-8.81294250 8.08377552 1.32068300 -0.92235070 0.65893066 0.62027806
-8.57918453 8.41368675 1.25997996 -0.89788592 0.68582261 0.59176797
-7.92421007 8.19448280 1.52538896 -0.82933718 0.66795468 0.71642119
-7.72865057 8.59256935 1.48999846 -0.80887020 0.70040381 0.69979954
-7.85856295 9.70484829 1.11870086 -0.82246661 0.79106873 0.52541417
-7.33701229 9.76191044 0.99692613 -0.76788181 0.79572004 0.46822092
-7.53653622 9.04392147 1.45393372 -0.78876376 0.73719478 0.68286121
-7.31151724 9.43992233 1.39218354 -0.76521355 0.76947391 0.65385932
-8.34899235 9.96953773 0.71078485 -0.87379432 0.81264430 0.33383048
-8.26513958 7.66122961 1.87087560 -0.86501837 0.62448776 0.87868404
-7.98001337 8.30822182 1.83044660 -0.83517748 0.67722589 0.85969597
-7.64358044 8.86488152 1.75365293 -0.79996687 0.72260076 0.82362872
-8.90685940 8.09279346 1.32989025 -0.93217993 0.65966576 0.62460238
-8.65714645 8.41060543 1.26622367 -0.90604532 0.68557143 0.59470046
-8.25137711 8.69908619 1.20976162 -0.86357802 0.70908630 0.56818223
-7.94057846 8.13443089 1.52076483 -0.83105028 0.66305971 0.71424937
-7.75444031 8.53989983 1.48692751 -0.81156927 0.69611061 0.69835722
-8.18691063 10.01233673 1.16357827 -0.85683107 0.81613296 0.54649150
-7.35410070 9.68910980 0.99248254 -0.76967031 0.78978586 0.46613392
-7.54966354 8.97347546 1.44776523 -0.79013765 0.73145252 0.67996407
-7.34494543 9.39128113 1.38989413 -0.76871210 0.76550901 0.65278405
-8.45526314 10.00009537 0.71677810 -0.88491648 0.81513512 0.33664531
-7.67331409 9.76576805 0.60184312 -0.80307871 0.79603446 0.28266442
-8.30259991 7.62353230 1.87120903 -0.86893892 0.62141496 0.87884063
-7.98327827 8.23373508 1.82213891 -0.83551913 0.67115426 0.85579413
-7.66454220 8.80486774 1.74882197 -0.80216068 0.71770889 0.82135975
-9.00784969 8.08166218 1.33812845 -0.94274944 0.65875840 0.62847155
-8.74130726 8.38635540 1.27131104 -0.91485345 0.68359476 0.59708977
-7.98595667 8.07875919 1.51960886 -0.83579946 0.65852177 0.71370649
-7.78386164 8.46472645 1.48190212 -0.81464851 0.68998301 0.69599694
-8.31197166 10.03569698 1.17339528 -0.86991978 0.81803709 0.55110222
-7.47297478 9.71858406 1.00136971 -0.78211147 0.79218835 0.47030792
-7.58013487 8.89573669 1.44240141 -0.79332674 0.72511584 0.67744488
-7.36815882 9.29979324 1.38251686 -0.77114159 0.75805157 0.64931923
-8.59075451 10.03154850 0.72407430 -0.89909679 0.81769896 0.34007207
-7.73204088 9.71423531 0.60160524 -0.80922502 0.79183388 0.28255269
-8.36054611 7.58050632 1.87354219 -0.87500352 0.61790782 0.87993646
-8.00852585 8.15669250 1.81606781 -0.83816153 0.66487432 0.85294276
-7.69100618 8.72385979 1.74217951 -0.80493033 0.71110570 0.81824005
-9.12244320 8.08140469 1.34854722 -0.95474261 0.65873742 0.63336492
-8.83270359 8.36822224 1.27755475 -0.92441887 0.68211669 0.60002226
-8.33921528 8.57337761 1.20640874 -0.87277102 0.69883949 0.56660748
-8.02954578 8.02144146 1.51816380 -0.84036148 0.65384966 0.71302778
-7.81938124 8.39678097 1.47827280 -0.81836593 0.68444461 0.69429243
-8.42867851 10.04722118 1.18180978 -0.88213414 0.81897646 0.55505419
-7.63891220 9.80671978 1.01729250 -0.79947829 0.79937255 0.47778627
-7.62939119 8.84044266 1.44106042 -0.79848182 0.72060865 0.67681509
-7.41901112 9.24401951 1.38099051 -0.77646375 0.75350529 0.64860237
-7.86420584 9.75416851 0.60838503 -0.82305717 0.79508895 0.28573692
-8.41827774 7.53705263 1.87587547 -0.88104564 0.61436576 0.88103229
-8.02196598 8.06847763 1.80744052 -0.83956814 0.65768367 0.84889084
-7.73252583 8.66059303 1.73916018 -0.80927575 0.70594865 0.81682199
-9.24187660 8.08393860 1.35969281 -0.96724236 0.65894395 0.63859957
-8.91987038 8.34519100 1.28310478 -0.93354166 0.68023932 0.60262889
-8.50608349 8.63531017 1.22451437 -0.89023525 0.70388776 0.57511103
-8.07131958 7.96250868 1.51642978 -0.84473342 0.64904588 0.71221340
-7.84757376 8.32150650 1.47324753 -0.82131648 0.67830878 0.69193220
-7.68744659 9.05055428 1.05699444 -0.80455780 0.73773545 0.49643287
-7.64005756 9.68182850 1.00822020 -0.79959816 0.78919232 0.47352535
-7.65995502 8.76402187 1.43596482 -0.80168056 0.71437937 0.67442185
-7.44572830 9.15868664 1.37463093 -0.77925992 0.74654961 0.64561546
-8.00851822 9.80675697 0.61623532 -0.83816075 0.79937559 0.28942391
-8.54659843 7.55599546 1.89420831 -0.89447552 0.61590987 0.88964260
-8.04443836 7.99013901 1.80104995 -0.84192008 0.65129811 0.84588939
-7.74840975 8.56924152 1.73040414 -0.81093812 0.69850230 0.81270957
-9.40382767 8.12155247 1.37762284 -0.98419195 0.66200995 0.64702070
-9.02312088 8.33624840 1.29119837 -0.94434768 0.67951041 0.60643017
-8.59813309 8.61962318 1.23054945 -0.89986902 0.70260906 0.57794553
-8.12119007 7.91163826 1.51642978 -0.84995282 0.64489925 0.71221340
-7.90106964 8.27346992 1.47352672 -0.82691532 0.67439318 0.69206333
-7.73505878 8.99153042 1.05559206 -0.80954087 0.73292422 0.49577421
-7.68088531 9.60871220 1.00525784 -0.80387110 0.78323239 0.47213402
-7.69907475 8.69793892 1.43274653 -0.80577481 0.70899278 0.67291033
-7.49431801 9.10098839 1.37285018 -0.78434521 0.74184644 0.64477915
-8.15125847 9.85483170 0.62384766 -0.85309976 0.80329430 0.29299915
-8.64137077 7.54373121 1.90487468 -0.90439421 0.61491019 0.89465219
-8.01823616 7.86491966 1.78379548 -0.83917779 0.64109111 0.83778560
-7.78210926 8.49848080 1.72587514 -0.81446511 0.69273442 0.81058246
-9.12367821 8.32365417 1.29882956 -0.95487189 0.67848384 0.61001426
-8.68890476 8.60172367 1.23636115 -0.90936905 0.70115000 0.58067507
-8.16216755 7.85223866 1.51469576 -0.85424149 0.64005744 0.71139896
-7.92403841 8.19371605 1.46766388 -0.82931918 0.66789222 0.68930978
-7.77487326 9.60210514 1.01025677 -0.81370777 0.78269386 0.47448185
-7.72971392 8.62287045 1.42791903 -0.80898148 0.70287377 0.67064303
-7.51838493 9.01405525 1.36623609 -0.78686404 0.73476028 0.64167273
-8.32818699 9.94133949 0.63455260 -0.87161684 0.81034577 0.29802689
-8.72886658 7.52412224 1.91387451 -0.91355145 0.61331177 0.89887911
-8.11579514 7.86100054 1.79465938 -0.84938818 0.64077169 0.84288800
-7.81790972 8.43054008 1.72194993 -0.81821191 0.68719637 0.80873895
-9.23785782 8.34862232 1.31062329 -0.96682179 0.68051904 0.61555338
-8.75776863 8.58846664 1.24083161 -0.91657627 0.70006943 0.58277470
-8.18472862 7.80006123 1.51180565 -0.85660267 0.63580436 0.71004158
-7.95427704 8.14776611 1.46598876 -0.83248395 0.66414672 0.68852299
-8.40999126 10.28941631 1.09709144 -0.88017839 0.83871847 0.51526499
-7.75027561 8.56434155 1.42389607 -0.81113344 0.69810289 0.66875356
-7.55822849 8.97548676 1.36572731 -0.79103404 0.73161650 0.64143378
-8.87504005 7.57785654 1.93854046 -0.92884976 0.61769181 0.91046381
-8.09709454 7.76945925 1.78219783 -0.84743100 0.63330990 0.83703524
-9.27533054 8.27716351 1.30831075 -0.97074360 0.67469424 0.61446726
-8.85016918 8.57053852 1.24686682 -0.92624682 0.69860804 0.58560920
-8.24656868 7.76066446 1.51440668 -0.86307478 0.63259298 0.71126318
-7.99558496 8.08775139 1.46403444 -0.83680719 0.65925473 0.68760514
-7.60111475 9.17814064 0.96952415 -0.79552245 0.74813533 0.45535117
-7.79990911 8.51109982 1.42309153 -0.81632799 0.69376302 0.66837573
-7.58492565 8.89305401 1.35987651 -0.79382813 0.72489715 0.63868588
-8.16584969 7.73740530 1.78667116 -0.85462683 0.63069707 0.83913618
-7.89248466 8.32538605 1.71802485 -0.82601684 0.67862499 0.80689543
-9.55487156 8.42004013 1.34369171 -1.00000000 0.68634051 0.63108444
-8.94268799 8.55178547 1.25290203 -0.93592972 0.69707942 0.58844376
-8.28790665 7.70197392 1.51296163 -0.86740118 0.62780899 0.71058452
-8.05043983 8.04156113 1.46487200 -0.84254819 0.65548962 0.68799853
-7.60754442 9.06908512 0.96211821 -0.79619539 0.73924595 0.45187286
-7.85188055 8.46047401 1.42282331 -0.82176727 0.68963641 0.66824973
-7.64453506 8.84973145 1.36063957 -0.80006677 0.72136581 0.63904423
-8.20275021 7.67517519 1.78411496 -0.85848880 0.62562454 0.83793563
-7.95147181 8.28277588 1.71953452 -0.83219033 0.67515171 0.80760449
-9.03387165 8.53084564 1.25871372 -0.94547284 0.69537258 0.59117329
-8.81363010 8.94623089 1.18775475 -0.92242265 0.72923177 0.55784637
-8.33321476 7.64707708 1.51238370 -0.87214303 0.62333417 0.71031308
-8.08814049 7.97828054 1.46235943 -0.84649390 0.65033150 0.68681848
-7.88584614 8.39078712 1.41906869 -0.82532203 0.68395603 0.66648632
-7.67522001 8.77311420 1.35580623 -0.80327821 0.71512055 0.63677418
-8.24790764 7.62081003 1.78347588 -0.86321491 0.62119305 0.83763546
-7.98409796 8.21277142 1.71530747 -0.83560497 0.66944546 0.80561918
-9.14989185 8.53209782 1.26832521 -0.95761538 0.69547462 0.59568745
-9.04357052 9.06555748 1.21380258 -0.94648790 0.73895842 0.57008010
-8.42369556 7.63302803 1.52076483 -0.88161266 0.62218899 0.71424937
-8.13669300 7.92592001 1.46208024 -0.85157531 0.64606345 0.68668735
-7.92745972 8.32960701 1.41692317 -0.82967728 0.67896903 0.66547865
-7.71706152 8.70984554 1.35326242 -0.80765730 0.70996332 0.63557947
-8.29854965 7.57149315 1.78411496 -0.86851501 0.61717314 0.83793563
-8.00508308 8.13139343 1.70866501 -0.83780122 0.66281211 0.80249947
-9.27213955 8.53760147 1.27883101 -0.97040963 0.69592327 0.60062164
-8.99732876 8.90624809 1.19846797 -0.94164830 0.72597265 0.56287795
-8.49216938 7.59838724 1.52481091 -0.88877904 0.61936533 0.71614969
-8.16923428 7.85813332 1.45872998 -0.85498106 0.64053792 0.68511385
-7.96586084 8.26538754 1.41424119 -0.83369631 0.67373437 0.66421902
-7.74254465 8.62865257 1.34766591 -0.81032431 0.70334506 0.63295096
-8.36652756 7.53766632 1.78858840 -0.87562954 0.61441582 0.84003663
-9.37256145 8.54862881 1.28799546 -0.98091966 0.69682211 0.60492587
-9.11859894 8.94186020 1.21023154 -0.95434028 0.72887546 0.56840289
-8.57238197 7.59758472 1.53348112 -0.89717394 0.61929989 0.72022182
-8.21046829 7.82365608 1.45956755 -0.85929656 0.63772762 0.68550718
-7.98949146 8.21215820 1.41129100 -0.83616942 0.66939551 0.66283339
-7.90142107 8.72312927 1.37030625 -0.82695210 0.71104616 0.64358431
-8.40638065 7.50209236 1.78954697 -0.87980050 0.61151606 0.84048688
-7.99041128 7.93957472 1.68632197 -0.83626568 0.64717644 0.79200572
-9.27303696 8.98001575 1.22472584 -0.97050357 0.73198563 0.57521039
-8.66767979 7.58519411 1.54272938 -0.90714771 0.61828995 0.72456539
-8.25802326 7.77055454 1.45928836 -0.86427361 0.63339913 0.68537611
-8.03396511 8.15474987 1.40995014 -0.84082395 0.66471595 0.66220367
-7.95072031 8.66745377 1.36928880 -0.83211172 0.70650786 0.64310646
-8.48302364 7.47517776 1.79593754 -0.88782185 0.60932219 0.84348828
-8.04718208 7.89614916 1.68783164 -0.84220725 0.64363670 0.79271477
-8.77665615 7.58352518 1.55457866 -0.91855299 0.61815387 0.73013055
-8.30668354 7.71851444 1.45928836 -0.86936635 0.62915725 0.68537611
-8.83363819 9.10590076 1.13873541 -0.92451668 0.74224687 0.53482372
-8.06961823 8.08870411 1.40699995 -0.84455538 0.65933239 0.66081804
-7.99693632 8.60859299 1.36776245 -0.83694857 0.70170999 0.64238960
-8.58651161 7.47087431 1.80807960 -0.89865273 0.60897142 0.84919095
-8.08246231 7.83164787 1.68481231 -0.84589964 0.63837904 0.79129672
-8.38269615 7.69165945 1.46459281 -0.87732172 0.62696820 0.68786740
-9.08483410 9.24722576 1.16658354 -0.95080650 0.75376666 0.54790300
-8.11604881 8.03366661 1.40619540 -0.84941477 0.65484613 0.66044021
-7.90840912 8.40621662 1.34105182 -0.82768345 0.68521369 0.62984455
-8.71577454 7.48738956 1.82565367 -0.91218126 0.61031759 0.85744488
-8.12580585 7.77523232 1.68360460 -0.85043591 0.63378048 0.79072946
-9.08650494 7.65330601 1.59561753 -0.95098138 0.62384188 0.74940509
-8.44258022 7.64949656 1.46682632 -0.88358909 0.62353140 0.68891639
-9.27067375 9.31813717 1.18481493 -0.97025627 0.75954688 0.55646563
-8.15358734 7.97006798 1.40378165 -0.85334349 0.64966202 0.65930653
-7.92419386 8.31751537 1.33418345 -0.82933545 0.67798340 0.62661874
-8.92851543 7.57266521 1.86080194 -0.93444639 0.61726868 0.87395281
-8.18454075 7.73354626 1.68571806 -0.85658300 0.63038254 0.79172212
-9.35383701 7.77789974 1.63723445 -0.97895998 0.63399786 0.76895106
-8.53615665 7.63731670 1.47548091 -0.89338267 0.62253857 0.69298112
-8.20778847 7.92280197 1.40458620 -0.85901612 0.64580923 0.65968442
-7.96942329 8.26041222 1.33291149 -0.83406913 0.67332882 0.62602133
-9.12902355 7.64417315 1.89307427 -0.95543134 0.62309748 0.88910997
-8.24307251 7.69142914 1.68783164 -0.86270887 0.62694943 0.79271477
-8.59572887 7.61806488 1.47994792 -0.89961743 0.62096930 0.69507915
-8.24646759 7.88540316 1.40485442 -0.86306423 0.64276075 0.65981036
-8.00549793 8.21991825 1.33240271 -0.83784467 0.67002803 0.62578237
-9.32169151 7.73061848 1.92598581 -0.97559571 0.63014388 0.90456736
-8.28647232 7.65922213 1.68934131 -0.86725104 0.62432414 0.79342383
-8.70592117 7.61879349 1.49167359 -0.91114998 0.62102872 0.70058626
-8.98784161 9.38468170 1.06968939 -0.94065541 0.76497108 0.50239521
-8.29151917 7.82935953 1.40404987 -0.86777925 0.63819253 0.65943253
-8.04030132 8.15247822 1.32935011 -0.84148711 0.66453081 0.62434870
-8.31110668 7.58563852 1.68451035 -0.86982924 0.61832613 0.79115486
-8.82244492 7.62362576 1.50451601 -0.92334521 0.62142259 0.70661789
-9.30131817 9.59145832 1.10375679 -0.97346342 0.78182602 0.51839548
-8.36087608 7.79599428 1.40780461 -0.87503803 0.63547283 0.66119599
-8.09416389 8.10461044 1.32985890 -0.84712428 0.66062897 0.62458766
-8.37766552 7.55051041 1.68843544 -0.87679517 0.61546278 0.79299837
-8.94087505 7.62858057 1.51763761 -0.93573993 0.62182647 0.71278065
-8.43014050 7.76206636 1.41155922 -0.88228714 0.63270724 0.66295940
-8.16745663 8.07595062 1.33392906 -0.85479504 0.65829283 0.62649924
-8.43821239 7.50957632 1.69115281 -0.88313198 0.61212611 0.79427463
-8.50811958 7.73555899 1.41692317 -0.89044833 0.63054657 0.66547865
-8.23079014 8.03697014 1.33621848 -0.86142343 0.65511543 0.62757450
-8.52081585 7.48779535 1.69839919 -0.89177710 0.61035067 0.79767799
-9.32642651 7.75801229 1.57096148 -0.97609127 0.63237679 0.73782498
-8.60234642 7.72291279 1.42523706 -0.90030998 0.62951577 0.66938341
-8.30821133 8.01130676 1.34105182 -0.86952621 0.65302354 0.62984455
-8.61987877 7.47955418 1.70896685 -0.90214491 0.60967892 0.80264121
-7.89551449 8.29902458 2.09770894 -0.82633394 0.67647618 0.98521960
-8.68759441 7.72566700 1.43408740 -0.90923196 0.62974024 0.67354006
-8.35303116 7.97893000 1.34232378 -0.87421697 0.65038443 0.63044196
-8.73287773 7.50600147 1.72466743 -0.91397125 0.61183470 0.81001526
-7.93388557 8.23506832 2.09404969 -0.83034980 0.67126292 0.98350102
-8.77176189 7.70225143 1.44052410 -0.91804081 0.62783158 0.67656314
-8.44766045 7.96856499 1.35020983 -0.88412076 0.64953953 0.63414574
-8.86716557 7.52533531 1.74217951 -0.92802560 0.61341065 0.81824005
-7.95805979 8.15685940 2.08673120 -0.83287984 0.66488791 0.98006380
-8.89346981 7.71047497 1.45366549 -0.93077856 0.62850189 0.68273520
