1.93525219 4.68580675 2.08340478 0.72493130 0.73643816 0.88520283
2.23641825 4.71439505 2.09179378 0.83774590 0.74093121 0.88876718
0.86505073 4.86334324 1.36836696 0.32404166 0.76434046 0.58139557
1.13656700 4.96052027 1.37032235 0.42574966 0.77961314 0.58222640
0.92523497 6.09463310 2.05282903 0.34658623 0.95785439 0.87221175
0.98436224 4.80902433 1.59345257 0.36873487 0.75580347 0.67703056
1.48235118 4.94383144 1.34836698 0.55527788 0.77699023 0.57289791
1.79295135 5.03132820 1.34717417 0.67162645 0.79074156 0.57239115
1.31956005 4.78937769 1.57395053 0.49429753 0.75271577 0.66874450
2.17156553 5.07313442 1.33876133 0.81345254 0.79731196 0.56881666
2.01843119 4.99572945 1.60096002 0.75608951 0.78514671 0.68022037
2.30524516 4.95657587 1.56706715 0.86352795 0.77899319 0.66581988
0.86406964 5.59479189 1.25115538 0.32367414 0.87929755 0.53159440
1.18560410 5.72593641 1.25965536 0.44411859 0.89990866 0.53520590
1.64434755 6.01710033 1.29982543 0.61596054 0.94566905 0.55227345
0.79636091 4.62788963 1.82883632 0.29831097 0.72733569 0.77704108
1.04945052 4.67141485 1.83057535 0.39311647 0.73417628 0.77778000
1.39588058 4.70681667 1.83231437 0.52288663 0.73974013 0.77851886
1.67240524 4.72920370 1.82703173 0.62647074 0.74325860 0.77627432
1.25191033 4.60016251 2.06083703 0.46895644 0.72297800 0.87561417
1.53137136 4.65870333 2.07658267 0.57364047 0.73217851 0.88230425
2.04524112 4.75822783 1.82990563 0.76613235 0.74782014 0.77749544
2.37500668 4.82867384 1.84494567 0.88966006 0.75889164 0.78388566
1.90832317 4.68289328 2.07800412 0.71484387 0.73598027 0.88290823
2.21021557 4.71651220 2.08801746 0.82793057 0.74126393 0.88716269
1.11146164 4.95830297 1.36819327 0.41634539 0.77926463 0.58132178
0.90215981 6.13830090 2.06630468 0.33794245 0.96471733 0.87793732
0.96890175 4.84894753 1.60541987 0.36294350 0.76207793 0.68211526
1.46173155 4.96003819 1.35095537 0.54755390 0.77953738 0.57399768
1.76209056 5.01965189 1.34166408 0.66006619 0.78890646 0.57005000
1.29697597 4.79554272 1.57395053 0.48583770 0.75368464 0.66874450
2.14763498 5.08331108 1.33876133 0.80448830 0.79891139 0.56881666
1.98925245 4.99094200 1.59631145 0.74515939 0.78439432 0.67824525
0.83797699 5.60073185 1.25159824 0.31390002 0.88023108 0.53178257
1.16215038 5.74867439 1.26354456 0.43533301 0.90348226 0.53685832
0.76608443 4.62546158 1.82588351 0.28696960 0.72695410 0.77578646
1.01886439 4.67245960 1.82839596 0.38165912 0.73434049 0.77685398
1.35961354 4.69212627 1.82306743 0.50930125 0.73743135 0.77458996
1.63582528 4.72015953 1.81937289 0.61276817 0.74183714 0.77302021
1.21281683 4.56896687 2.04311800 0.45431229 0.71807522 0.86808568
1.49466193 4.64553356 2.06629372 0.55988938 0.73010868 0.87793267
2.00297284 4.74146891 1.81838346 0.75029892 0.74518621 0.77259982
2.31477451 4.78243494 1.82119334 0.86709756 0.75162458 0.77379370
1.87275398 4.67934847 2.07106042 0.70151991 0.73542315 0.87995791
2.16177344 4.69001532 2.06989121 0.80978447 0.73709959 0.87946117
1.08028603 4.96518898 1.36819327 0.40466723 0.78034687 0.58132178
0.86640686 6.16449165 2.07336307 0.32454965 0.96883357 0.88093626
0.92443562 4.78417492 1.58148515 0.34628680 0.75189805 0.67194581
1.42684805 4.95611477 1.34733164 0.53448683 0.77892077 0.57245803
1.72987974 5.02879572 1.34116316 0.64800024 0.79034352 0.56983715
1.26252043 4.78702164 1.56840372 0.47293091 0.75234544 0.66638774
2.11786580 5.10209036 1.34021032 0.79333699 0.80186278 0.56943232
1.95094824 4.98549461 1.59050059 0.73081088 0.78353816 0.67577636
0.80546558 5.62520266 1.25602710 0.30172151 0.88407701 0.53366429
1.12333679 5.74245691 1.26051962 0.42079371 0.90250510 0.53557312
0.73643845 4.62650967 1.82440710 0.27586445 0.72711885 0.77515918
0.98869997 4.67512608 1.82694304 0.37035975 0.73475957 0.77623665
1.33261263 4.70957994 1.82662392 0.49918693 0.74017447 0.77610105
1.60369551 4.72325277 1.81658781 0.60073256 0.74232334 0.77183688
1.19220197 4.60843372 2.05761528 0.44659013 0.72427797 0.87424535
1.47047353 4.67057991 2.07341671 0.55082858 0.73404509 0.88095909
1.97457075 4.75744152 1.81973898 0.73965973 0.74769652 0.77317578
2.29450083 4.81730223 1.82911074 0.85950321 0.75710446 0.77715766
1.83864069 4.67898273 2.06565976 0.68874133 0.73536569 0.87766331
2.12763524 4.69340324 2.06535959 0.79699653 0.73763204 0.87753576
1.04541767 4.95491600 1.36340261 0.39160579 0.77873236 0.57928634
0.83134311 6.19798756 2.08298850 0.31141505 0.97409791 0.88502598
0.89827585 4.81039810 1.58841372 0.33648756 0.75601941 0.67488968
1.39825714 4.97429085 1.34992003 0.52377689 0.78177738 0.57355779
1.69011962 5.01574326 1.33465111 0.63310641 0.78829217 0.56707031
1.22356260 4.75981045 1.55669355 0.45833758 0.74806887 0.66141230
2.06107712 5.05410242 1.32378840 0.77206439 0.79432082 0.56245494
1.91415000 4.98334169 1.58585203 0.71702653 0.78319985 0.67380124
0.76727444 5.60888624 1.25115538 0.28741539 0.88151264 0.53159440
1.08649492 5.74556684 1.25965536 0.40699303 0.90299386 0.53520590
0.70490074 4.61449766 1.81776345 0.26405066 0.72523099 0.77233642
0.95816040 4.67577457 1.82476366 0.35891986 0.73486149 0.77531070
1.29662371 4.69440985 1.81737697 0.48570573 0.73779029 0.77217221
1.57039368 4.72257566 1.81241035 0.58825797 0.74221689 0.77006197
1.15706635 4.59095478 2.04633951 0.43342856 0.72153091 0.86945444
1.43123722 4.64817095 2.05917072 0.53613096 0.73052317 0.87490618
1.93619812 4.74881220 1.81160557 0.72528565 0.74634033 0.76972002
2.24318814 4.78725338 1.81195641 0.84028184 0.75238186 0.76986909
1.80066371 4.66802740 2.05562997 0.67451543 0.73364389 0.87340182
2.09277916 4.69485950 2.06007290 0.78393972 0.73786092 0.87528950
0.74681902 4.85954094 1.36180878 0.27975294 0.76374286 0.57860911
1.01190221 4.95006323 1.36020887 0.37905115 0.77796966 0.57792932
0.79168212 6.19744921 2.08106351 0.29655832 0.97401333 0.88420808
1.36193800 4.96432829 1.34474325 0.51017201 0.78021163 0.57135826
1.66225445 5.03728199 1.33765662 0.62266833 0.79167730 0.56834728
1.19045067 4.75447130 1.55237925 0.44593409 0.74722975 0.65957922
2.03642941 5.08499622 1.32861841 0.76283151 0.79917622 0.56450713
1.88012862 4.98809719 1.58352780 0.70428240 0.78394723 0.67281371
2.15684175 4.93927193 1.54456830 0.80793709 0.77627367 0.65626049
0.73226309 5.61553144 1.25159824 0.27430040 0.88255703 0.53178257
1.05645001 5.78491592 1.26700163 0.39573842 0.90917808 0.53832722
0.67824340 4.63539839 1.82440710 0.25406501 0.72851580 0.77515918
0.92839253 4.67987633 1.82403719 0.34776902 0.73550612 0.77500200
1.26518726 4.69523668 1.81453168 0.47392988 0.73792022 0.77096331
1.53775156 4.72344732 1.80892897 0.57603043 0.74235392 0.76858282
1.12905502 4.60169363 2.04795027 0.42293572 0.72321862 0.87013882
1.40683532 4.67288065 2.06629372 0.52699018 0.73440665 0.87793267
1.90285981 4.75213575 1.80821669 0.71279734 0.74686265 0.76828015
2.22183108 4.82008076 1.81921399 0.83228165 0.75754118 0.77295274
1.76806712 4.67060757 2.05177236 0.66230500 0.73404938 0.87176275
2.05573869 4.69098425 2.05252028 0.77006465 0.73725188 0.87208056
0.71627110 4.86413717 1.36180878 0.26830989 0.76446521 0.57860911
0.97925293 4.94876480 1.35807967 0.36682096 0.77776557 0.57702470
0.75605845 6.23051929 2.09068871 0.28321394 0.97921073 0.88829768
1.05536914 6.04352713 2.00034237 0.39533353 0.94982237 0.84991103
1.32383132 4.94663334 1.33749568 0.49589750 0.77743059 0.56827891
1.62394679 5.02738428 1.33214653 0.60831857 0.79012173 0.56600612
1.99318349 5.06874990 1.32089043 0.74663192 0.79662287 0.56122363
1.84283888 4.98363447 1.57829809 0.69031394 0.78324586 0.67059171
2.10667396 4.90870571 1.53050649 0.78914464 0.77146977 0.65028590
0.70069468 5.65100336 1.25868452 0.26247510 0.88813192 0.53479338
1.02249944 5.80489302 1.27002656 0.38302079 0.91231775 0.53961241
0.64586097 4.61562300 1.81481063 0.24193479 0.72540784 0.77108181
0.89466310 4.66367483 1.81531966 0.33513424 0.73295981 0.77129811
1.23238945 4.69042444 1.80955255 0.46164405 0.73716390 0.76884776
1.50285470 4.71695948 1.80266273 0.56295836 0.74133426 0.76592040
1.09636307 4.59265471 2.04070163 0.41068956 0.72179806 0.86705899
1.32486939 4.50564003 1.98714876 0.49628636 0.70812249 0.84430534
1.86683035 4.74821281 1.80211675 0.69930094 0.74624610 0.76568842
2.15691066 4.75841618 1.79018342 0.80796289 0.74784970 0.76061815
1.72661436 4.64870930 2.03711367 0.64677709 0.73060781 0.86553454
2.02178764 4.69362068 2.04798865 0.75734681 0.73766625 0.87015516
0.68647617 4.87426043 1.36344826 0.25714895 0.76605624 0.57930571
0.94776982 4.95292759 1.35754740 0.35502762 0.77841985 0.57679856
0.71037787 6.17678738 2.07079649 0.26610234 0.97076601 0.87984580
1.01930189 6.06126404 2.00412154 0.38182300 0.95260996 0.85151678
1.29752743 4.97356558 1.34267247 0.48604426 0.78166336 0.57047844
1.59055495 5.03195667 1.33064377 0.59581023 0.79084033 0.56536764
1.96752548 5.09749222 1.32523739 0.73702061 0.80114013 0.56307060
1.80697083 4.98250437 1.57423055 0.67687804 0.78306824 0.66886348
2.07955313 4.93067312 1.53331888 0.77898538 0.77492225 0.65148079
0.66495389 5.65335655 1.25824165 0.24908686 0.88850176 0.53460521
0.98600626 5.81120300 1.27002656 0.36935073 0.91330945 0.53961241
0.62530756 4.62783098 1.81850159 0.23423563 0.72732651 0.77265006
0.87232590 4.66600895 1.81459320 0.32676688 0.73332667 0.77098942
1.20797825 4.68711948 1.80599606 0.45249981 0.73664451 0.76733667
1.47720134 4.71326876 1.79848516 0.55334878 0.74075419 0.76414537
1.07348156 4.59241724 2.03828549 0.40211833 0.72176075 0.86603242
1.32173419 4.57351494 2.01484942 0.49511194 0.71878999 0.85607487
1.83568215 4.73411512 1.79330564 0.68763310 0.74403048 0.76194471
2.14691257 4.79605150 1.80074000 0.80421770 0.75376463 0.76510346
1.69716251 4.63597012 2.02785540 0.63574463 0.72860569 0.86160088
1.98721349 4.67417240 2.03514934 0.74439561 0.73460966 0.86469996
0.66224200 4.86790419 1.36071563 0.24807100 0.76505727 0.57814467
0.92405820 4.95544529 1.35701501 0.34614542 0.77881551 0.57657236
0.68367946 6.20266867 2.07849669 0.25610131 0.97483361 0.88311750
1.00383890 6.14464045 2.03057575 0.37603068 0.96571368 0.86275667
1.26888990 4.95901728 1.33697796 0.47531685 0.77937692 0.56805891
1.56740677 5.04124308 1.33114469 0.58713907 0.79229981 0.56558049
1.93186176 5.07582760 1.31702650 0.72366124 0.79773521 0.55958188
1.78092313 4.98374557 1.57190621 0.66712075 0.78326333 0.66787589
2.05182958 4.92980337 1.52994394 0.76860034 0.77478558 0.65004689
0.63788223 5.65254974 1.25735581 0.23894601 0.88837498 0.53422886
0.95601690 5.80037975 1.26656950 0.35811692 0.91160846 0.53814358
0.59553003 4.62613487 1.81628704 0.22308119 0.72705990 0.77170908
0.84129757 4.66223621 1.81096089 0.31514391 0.73273373 0.76944613
1.17850459 4.69461679 1.80599606 0.44145918 0.73782277 0.76733667
1.44421697 4.71171522 1.79430759 0.54099309 0.74051005 0.76237041
1.04540110 4.60264540 2.03989625 0.39159960 0.72336823 0.86671680
1.30107439 4.60997820 2.02751279 0.48737293 0.72452068 0.86145532
1.80391431 4.74027157 1.79127228 0.67573309 0.74499804 0.76108074
2.10139084 4.77494431 1.78754425 0.78716558 0.75044733 0.75949681
1.66430295 4.63610697 2.02322626 0.62343568 0.72862715 0.85963404
1.95492303 4.67974234 2.03212833 0.73229986 0.73548508 0.86341637
0.63331938 4.88533163 1.36454129 0.23723680 0.76779622 0.57977009
0.89430076 4.96873760 1.35914421 0.33499852 0.78090459 0.57747698
0.64545190 6.21438122 2.08106351 0.24178155 0.97667438 0.88420808
0.96370935 6.14145470 2.02742624 0.36099845 0.96521300 0.86141855
1.23862600 4.97064447 1.33801329 0.46398023 0.78120428 0.56849885
1.53456020 5.04729080 1.33014286 0.57483500 0.79325032 0.56515479
1.90463638 5.10061073 1.32040751 0.71346283 0.80163026 0.56101841
2.23563123 5.16749668 1.30544138 0.83745104 0.81214225 0.55465961
1.74832296 4.99122000 1.57074416 0.65490896 0.78443801 0.66738218
2.00248671 4.89825439 1.51588225 0.75011683 0.76982719 0.64407229
0.60395056 5.67196655 1.26089895 0.22623545 0.89142656 0.53573430
0.92298681 5.82747650 1.27132297 0.34574410 0.91586709 0.54016328
0.56471014 4.61501741 1.81038141 0.21153627 0.72531265 0.76919991
0.81198746 4.66742992 1.81096089 0.30416456 0.73355001 0.76944613
1.14636791 4.69102287 1.80172825 0.42942101 0.73725796 0.76552331
1.41076505 4.70814037 1.78943384 0.52846223 0.73994821 0.76029962
1.03810763 4.70932817 2.08499932 0.38886750 0.74013489 0.88588035
1.26911175 4.60745001 2.02276397 0.47539997 0.72412336 0.85943758
1.77149045 4.74445057 1.78856111 0.66358733 0.74565482 0.75992882
2.07588625 4.79843235 1.79150307 0.77761179 0.75413883 0.76117885
1.63271940 4.63950014 2.02014017 0.61160469 0.72916043 0.85832280
1.92193115 4.68338108 2.02835202 0.71994132 0.73605692 0.86181188
0.60124689 4.87775183 1.36126220 0.22522268 0.76660496 0.57837689
0.86137772 4.96476746 1.35648274 0.32266578 0.78028065 0.57634616
0.60497159 6.20322657 2.07592988 0.22661792 0.97492129 0.88202691
0.93174088 6.19054031 2.04191303 0.34902331 0.97292751 0.86757374
1.20737028 4.97832870 1.33801329 0.45227206 0.78241199 0.56849885
1.49611223 5.03458643 1.32413185 0.56043267 0.79125363 0.56260085
1.05083764 4.80089998 1.55669355 0.39363608 0.75452662 0.66141230
1.31457102 4.84081793 1.54089820 0.49242866 0.76080030 0.65470111
1.85735524 5.07050467 1.30929863 0.69575167 0.79689866 0.55629843
2.20619011 5.18859243 1.30729353 0.82642263 0.81545776 0.55544651
1.71139896 4.98579454 1.56551445 0.64107752 0.78358531 0.66516018
1.95434391 4.86806011 1.50238287 0.73208290 0.76508176 0.63833666
0.56680173 5.66011906 1.25735581 0.21231978 0.88956457 0.53422886
0.88035351 5.79456902 1.26268029 0.32977396 0.91069520 0.53649116
0.53487778 4.61108494 1.80742872 0.20036130 0.72469461 0.76794535
0.78043526 4.65958452 1.80587566 0.29234532 0.73231697 0.76728547
1.11517227 4.69085169 1.79888296 0.41773537 0.73723108 0.76431441
1.38062096 4.71511412 1.78873754 0.51717049 0.74104422 0.76000381
1.00774717 4.71217442 2.08338857 0.37749469 0.74058223 0.88519597
1.23820078 4.60824585 2.01959825 0.46382093 0.72424841 0.85809255
1.73716533 4.74310112 1.78381670 0.65072942 0.74544275 0.75791299
2.03004026 4.77495384 1.77764750 0.76043820 0.75044882 0.75529182
1.60115910 4.64267969 2.01705408 0.59978247 0.72966015 0.85701156
1.89176762 4.69364977 2.02759671 0.70864230 0.73767078 0.86149096
0.57338828 4.90628672 1.36836696 0.21478705 0.77108961 0.58139557
0.83114225 4.97578239 1.35807967 0.31133980 0.78201181 0.57702470
0.56233495 6.16539145 2.06181288 0.21064655 0.96897501 0.87602884
0.89587152 6.21692991 2.04884171 0.33558691 0.97707498 0.87051761
1.17781103 4.99334478 1.34008408 0.44119936 0.78477192 0.56937867
1.46663797 5.05131674 1.32613552 0.54939181 0.79388303 0.56345218
1.01871502 4.79809380 1.55361199 0.38160318 0.75408560 0.66010302
1.28214586 4.84161186 1.53850019 0.48028243 0.76092505 0.65368223
1.83000433 5.09487772 1.31267953 0.68550622 0.80072922 0.55773497
2.17203283 5.19876671 1.30636752 0.81362760 0.81705678 0.55505306
1.68847966 5.02187681 1.57364953 0.63249213 0.78925616 0.66861659
1.93295848 4.90341997 1.50969505 0.72407210 0.77063906 0.64144343
0.53052640 5.65579844 1.25558424 0.19873130 0.88888556 0.53347611
0.84565532 5.81157446 1.26527309 0.31677628 0.91336787 0.53759277
0.50686753 4.62359762 1.81111968 0.18986887 0.72666115 0.76951361
0.75083882 4.66255760 1.80514920 0.28125870 0.73278427 0.76697683
1.08939588 4.71417284 1.80528474 0.40807971 0.74089628 0.76703441
1.35201395 4.72729683 1.79013002 0.50645453 0.74295890 0.76059544
0.97848403 4.72020721 2.08419394 0.36653295 0.74184465 0.88553816
1.21158719 4.62480831 2.02355552 0.45385167 0.72685146 0.85977393
1.70732951 4.75392246 1.78381670 0.63955313 0.74714345 0.75791299
2.01322126 4.81892157 1.78952372 0.75413793 0.75735897 0.76033783
1.56728983 4.63864374 2.01088190 0.58709526 0.72902584 0.85438913
1.84778297 4.66933966 2.01173639 0.69216597 0.73385012 0.85475218
0.53848135 4.87153053 1.35743654 0.20171116 0.76562721 0.57675141
0.79610217 4.95807981 1.35169220 0.29821405 0.77922958 0.57431078
0.41963533 4.89440775 1.62867212 0.15719232 0.76922262 0.69199479
0.85785204 6.22995424 2.05136108 0.32134509 0.97912192 0.87158805
1.42737544 5.03438187 1.31912255 0.53468436 0.79122150 0.56047249
0.99305648 4.82678223 1.56100786 0.37199166 0.75859439 0.66324538
1.24782515 4.83480787 1.53370416 0.46742615 0.75985569 0.65164453
1.78456473 5.06778145 1.30253673 0.66848487 0.79647070 0.55342543
2.14007068 5.21410894 1.30683053 0.80165482 0.81946802 0.55524981
1.66990614 5.07242680 1.58643317 0.62553459 0.79720074 0.67404819
1.89371693 4.89402151 1.50294530 0.70937246 0.76916194 0.63857561
0.49775049 5.69206047 1.26311338 0.18645369 0.89458460 0.53667516
0.80884790 5.81483984 1.26484096 0.30298850 0.91388106 0.53740919
0.47725821 4.62114191 1.80890512 0.17877743 0.72627521 0.76857269
0.72035801 4.65982199 1.80224335 0.26984084 0.73235428 0.76574218
1.05573702 4.70266914 1.79817176 0.39547133 0.73908830 0.76401222
1.31614482 4.71405363 1.78177500 0.49301821 0.74087757 0.75704557
0.92199844 4.58973932 2.02298260 0.34537387 0.72133988 0.85953051
1.17881000 4.61810827 2.01722383 0.44157359 0.72579843 0.85708368
1.67310226 4.75211430 1.77907228 0.62673181 0.74685931 0.75589722
1.95106292 4.75474644 1.76049316 0.73085386 0.74727297 0.74800324
1.53296220 4.63261223 2.00393820 0.57423639 0.72807795 0.85143888
1.82111871 4.68775129 2.01475739 0.68217772 0.73674381 0.85603577
0.51035053 4.89970398 1.36454129 0.19117357 0.77005500 0.57977009
0.76523548 4.96488810 1.35222447 0.28665161 0.78029960 0.57453692
0.38560566 4.85350227 1.61391330 0.14444506 0.76279378 0.68572402
0.82350230 6.27096558 2.06332850 0.30847794 0.98556739 0.87667280
1.10425007 4.95868063 1.32662439 0.41364399 0.77932400 0.56365991
1.39833391 5.05257130 1.32162714 0.52380562 0.79408020 0.56153661
1.21931374 4.84994698 1.53610218 0.45674598 0.76223505 0.65266341
1.75143552 5.07522011 1.30157065 0.65607488 0.79763979 0.55301499
2.10579944 5.22384834 1.30590451 0.78881705 0.82099873 0.55485636
1.65424395 5.13388300 1.60270321 0.61966765 0.80685943 0.68096101
1.86430633 4.90940619 1.50407028 0.69835550 0.77157986 0.63905358
0.46016741 5.67174149 1.25779867 0.17237534 0.89139122 0.53441703
0.77466875 5.83722115 1.26873016 0.29018524 0.91739857 0.53906161
0.44821349 4.62404919 1.80890512 0.16789749 0.72673213 0.76857269
0.69218969 4.67162466 1.80514920 0.25928918 0.73420924 0.76697683
1.01797295 4.67082071 1.78323424 0.38132522 0.73408294 0.75766551
1.28199673 4.70596790 1.77550864 0.48022658 0.73960674 0.75438309
0.89860547 4.62421846 2.03586912 0.33661103 0.72675872 0.86500573
1.14346087 4.60049534 2.00614357 0.42833206 0.72303033 0.85237586
1.63350642 4.73403358 1.76822782 0.61189955 0.74401766 0.75128955
1.93540323 4.80187845 1.77368879 0.72498786 0.75468040 0.75360984
1.49708855 4.62105942 1.99468005 0.56079841 0.72626227 0.84750521
1.78029430 4.66973019 2.00191808 0.66688520 0.73391151 0.85058057
0.47919616 4.89898300 1.36344826 0.17950337 0.76994169 0.57930571
0.73228878 4.95816183 1.34903073 0.27431002 0.77924246 0.57317996
0.34416065 4.69708776 1.56001139 0.12892005 0.73821115 0.66282201
0.78142947 6.25530481 2.05639982 0.29271775 0.98310608 0.87372887
1.06946766 4.94851208 1.32196522 0.40061474 0.77772588 0.56168026
1.35478497 5.01830864 1.31010604 0.50749254 0.78869534 0.55664152
1.18558896 4.84455204 1.53190565 0.44411293 0.76138717 0.65088034
1.71152258 5.06219244 1.29529178 0.64112383 0.79559231 0.55034721
2.05848336 5.20084620 1.29664385 0.77109277 0.81738359 0.55092168
1.83206892 4.91743135 1.50294530 0.68627959 0.77284110 0.63857561
0.42660019 5.70370197 1.26444209 0.15980130 0.89641422 0.53723967
0.74074304 5.86327505 1.27348363 0.27747691 0.92149329 0.54108131
0.42658079 4.62796164 1.80964327 0.15979403 0.72734702 0.76888627
0.66798860 4.66008759 1.79933751 0.25022364 0.73239607 0.76450753
0.99824095 4.68654537 1.78750217 0.37393373 0.73655427 0.75947893
1.26029801 4.71376657 1.77620494 0.47209841 0.74083245 0.75467891
0.87846929 4.63740206 2.03989625 0.32906815 0.72883070 0.86671680
1.12265360 4.60939789 2.00772643 0.42053780 0.72442949 0.85304844
1.61237597 4.74524689 1.76958334 0.60398424 0.74577999 0.75186551
1.89443827 4.76540136 1.75653434 0.70964271 0.74894756 0.74632120
1.47529578 4.62806320 1.99468005 0.55263501 0.72736299 0.84750521
1.75629318 4.67287493 1.99965227 0.65789455 0.73440576 0.84961784
0.45218697 4.85711145 1.35087824 0.16938592 0.76336104 0.57396489
0.70751381 4.95202112 1.34636927 0.26502949 0.77827740 0.57204914
0.32323596 4.71756124 1.56642830 0.12108182 0.74142879 0.66554844
0.74915344 6.23631048 2.04884171 0.28062737 0.98012090 0.87051761
1.04770291 4.96106386 1.32403588 0.39246184 0.77969855 0.56256008
1.33665657 5.04520416 1.31561613 0.50070173 0.79292238 0.55898267
1.69310212 5.08679581 1.29963875 0.63422364 0.79945904 0.55219412
2.02181268 5.17972088 1.28877246 0.75735623 0.81406349 0.54757726
1.95383358 6.31562233 1.97226679 0.73189175 0.99258584 0.83798224
1.80687022 4.92061281 1.50125790 0.67684036 0.77334112 0.63785863
0.40075254 5.72121716 1.26798522 0.15011896 0.89916700 0.53874511
0.71795076 5.90545368 1.28212631 0.26893908 0.92812222 0.54475343
0.39658898 4.61943483 1.80521405 0.14855933 0.72600693 0.76700437
0.63999933 4.67341805 1.80296981 0.23973906 0.73449111 0.76605088
0.96507353 4.67440271 1.78038907 0.36150947 0.73464584 0.75645667
1.22585154 4.70346880 1.76924229 0.45919499 0.73921400 0.75172061
0.86314559 4.72032404 2.07452893 0.32332802 0.74186301 0.88143164
1.08892798 4.59672117 1.99902046 0.40790445 0.72243714 0.84934938
1.57372546 4.72846746 1.75941670 0.58950603 0.74314290 0.74754590
1.43860030 4.61254787 1.98387873 0.53888911 0.72492456 0.84291595
1.71718252 4.65779352 1.98832333 0.64324397 0.73203552 0.84480435
0.42102689 4.85218716 1.34869218 0.15771359 0.76258713 0.57303607
0.67396963 4.93918657 1.34157860 0.25246409 0.77626026 0.57001364
0.29358846 4.71949911 1.56642830 0.10997608 0.74173337 0.66554844
0.70907241 6.23335314 2.04632211 0.26561332 0.97965610 0.86944705
1.01309395 4.95050144 1.31937683 0.37949756 0.77803856 0.56058049
1.29854214 5.02915573 1.30910420 0.48642436 0.79040015 0.55621582
1.07309532 5.94485712 1.92155600 0.40197363 0.93431503 0.81643605
1.65397561 5.07516241 1.29384279 0.61956716 0.79763067 0.54973155
1.98993051 5.19413662 1.28923547 0.74541336 0.81632912 0.54777396
1.90807998 6.30760574 1.96587491 0.71475279 0.99132591 0.83526641
1.76605892 4.90481997 1.49282086 0.66155273 0.77085906 0.63427389
0.36514887 5.72946262 1.26931381 0.13678209 0.90046287 0.53930962
0.68221247 5.92148304 1.28471923 0.25555179 0.93064147 0.54585510
0.36811349 4.62924957 1.80816686 0.13789262 0.72754943 0.76825899
0.60962623 4.66996002 1.80006397 0.22836152 0.73394763 0.76481622
0.93747765 4.68954659 1.78394556 0.35117227 0.73702592 0.75796777
1.19768178 4.71652412 1.77133107 0.44864282 0.74126583 0.75260812
0.83378041 4.72745800 2.07533431 0.31232804 0.74298424 0.88177383
1.06128418 4.60883665 2.00139475 0.39754927 0.72434127 0.85035819
1.54398465 4.73826170 1.75941670 0.57836533 0.74468219 0.74754590
1.81530035 4.73953915 1.73806036 0.67999822 0.74488294 0.73847193
1.40799785 4.61619425 1.98156416 0.52742565 0.72549760 0.84193254
1.68915665 4.67196894 1.98983383 0.63274568 0.73426336 0.84544617
0.39111659 4.86241007 1.35087824 0.14650941 0.76419377 0.57396489
0.64369202 4.94905615 1.34317541 0.24112231 0.77781141 0.57069212
0.26314864 4.70611668 1.56129479 0.09857355 0.73963016 0.66336727
0.67010212 6.23957205 2.04695201 0.25101534 0.98063350 0.86971468
0.98233700 4.95866537 1.31989443 0.36797625 0.77932161 0.56080043
1.27123427 5.05409861 1.31361246 0.47619504 0.79432023 0.55813134
1.05011725 6.03588343 1.94929051 0.39336622 0.94862103 0.82822001
1.62088954 5.08175182 1.29287684 0.60717332 0.79866630 0.54932112
1.95449054 5.19926214 1.28738332 0.73213780 0.81713468 0.54698700
1.86894763 6.32130718 1.96645606 0.70009410 0.99347925 0.83551335
1.74877036 4.95377350 1.50463271 0.65507656 0.77855277 0.63929254
0.32935244 5.73553896 1.27019966 0.12337301 0.90141785 0.53968596
0.64695483 5.94311762 1.28860843 0.24234454 0.93404162 0.54750752
0.33863723 4.62590790 1.80595231 0.12685102 0.72702426 0.76731807
0.57860911 4.66076088 1.79497874 0.21674272 0.73250186 0.76265556
0.90868825 4.69901800 1.78536820 0.34038797 0.73851448 0.75857222
1.16619313 4.71668339 1.76854610 0.43684739 0.74129087 0.75142479
0.78761661 4.63326931 2.03103685 0.29503542 0.72818118 0.86295259
1.03107941 4.61004162 1.99902046 0.38623479 0.72453064 0.84934938
1.50910342 4.73171425 1.75331664 0.56529909 0.74365318 0.74495405
1.77675855 4.72791052 1.72948313 0.66556072 0.74305534 0.73482764
1.37636709 4.61609745 1.97770655 0.51557702 0.72548240 0.84029347
1.64474809 4.64065886 1.97170770 0.61611056 0.72934258 0.83774465
0.35921568 4.84557962 1.34541309 0.13455956 0.76154864 0.57164288
0.61209482 4.94917822 1.34211087 0.22928624 0.77783054 0.57023984
0.23340282 4.70389271 1.56001139 0.08743098 0.73928064 0.66282201
0.63108176 6.24554729 2.04758191 0.23639861 0.98157257 0.86998230
0.95009398 4.95904350 1.31834137 0.35589823 0.77938104 0.56014055
1.23664665 5.05071306 1.31060696 0.46323878 0.79378814 0.55685437
1.02203178 6.10244417 1.96901286 0.38284561 0.95908195 0.83659971
1.58435953 5.07699680 1.28901279 0.59348947 0.79791898 0.54767936
1.92110443 5.20961666 1.28692031 0.71963161 0.81876200 0.54679030
1.82971847 6.33476543 1.96703708 0.68539912 0.99559444 0.83576024
1.71443784 4.95560694 1.50182045 0.64221585 0.77884096 0.63809764
0.29488426 5.77061367 1.27772880 0.11046148 0.90693033 0.54288501
0.61001205 5.95094919 1.28947270 0.22850604 0.93527246 0.54787475
0.30968124 4.62979984 1.80669045 0.11600432 0.72763592 0.76763171
0.54999131 4.66985369 1.79715812 0.20602271 0.73393095 0.76358157
0.87713242 4.69360113 1.78110039 0.32856739 0.73766315 0.75675893
1.13251865 4.70752859 1.76227975 0.42423320 0.73985207 0.74876237
0.74842256 4.57484913 2.00284743 0.28035361 0.71899968 0.85097539
1.00447762 4.62718868 2.00376916 0.37626997 0.72722554 0.85136706
1.47713113 4.73390865 1.75060558 0.55332249 0.74399805 0.74380219
1.75229883 4.75313187 1.73476148 0.65639830 0.74701923 0.73707032
1.34631896 4.62110662 1.97616351 0.50432122 0.72626966 0.83963788
1.61986196 4.66312933 1.97699451 0.60678840 0.73287410 0.83999097
0.33071733 4.87846088 1.35415745 0.12388428 0.76671636 0.57535821
0.58145118 4.95675421 1.34317541 0.21780735 0.77902126 0.57069212
0.21476740 4.98540449 1.65498149 0.08045029 0.78352404 0.70317316
0.59145743 6.24561071 2.04632211 0.22155562 0.98158252 0.86944705
0.91994864 4.97061777 1.31989443 0.34460601 0.78120011 0.56080043
1.20078361 5.04144716 1.30609870 0.44980472 0.79233187 0.55493885
0.98278010 6.10310698 1.96716380 0.36814222 0.95918614 0.83581406
1.54795349 5.07198381 1.28514886 0.57985204 0.79713112 0.54603761
1.87496603 5.18503952 1.27765977 0.70234853 0.81489938 0.54285568
1.78731108 6.33691931 1.96413171 0.66951364 0.99593294 0.83452576
1.70819271 5.03889322 1.52431929 0.63987648 0.79193050 0.64765704
0.25854039 5.77040386 1.27728581 0.09684733 0.90689731 0.54269677
0.57260936 5.95466471 1.28947270 0.21449527 0.93585640 0.54787475
0.28016835 4.62423038 1.80373776 0.10494901 0.72676063 0.76637715
0.51978177 4.66581297 1.79425228 0.19470644 0.73329586 0.76234692
0.84470868 4.68245125 1.77469862 0.31642169 0.73591083 0.75403893
1.10248351 4.71272755 1.76158345 0.41298226 0.74066913 0.74846649
0.73789674 4.69890118 2.05600452 0.27641070 0.73849612 0.87356097
0.99816310 4.73935509 2.05046463 0.37390459 0.74485403 0.87120712
1.44031477 4.71967077 1.74179447 0.53953135 0.74176037 0.74005848
1.69968259 4.70199394 1.71166897 0.63668865 0.73898220 0.72725868
1.31278002 4.61348295 1.96921992 0.49175778 0.72507149 0.83668768
1.57422543 4.62594700 1.95660245 0.58969331 0.72703040 0.83132672
0.29774719 4.84010696 1.34268045 0.11153392 0.76068854 0.57048184
0.54765111 4.93732691 1.33678794 0.20514609 0.77596796 0.56797820
0.18381067 4.99801493 1.65883160 0.06885413 0.78550595 0.70480901
0.43337959 4.95245075 1.61423790 0.16234082 0.77834487 0.68586189
0.88703948 4.96678448 1.31730604 0.33227849 0.78059763 0.55970067
1.16730702 5.04135370 1.30409491 0.43726465 0.79231721 0.55408746
0.94896591 6.13926172 1.97702503 0.35547566 0.96486837 0.84000391
0.99682784 4.82260609 1.51212227 0.37340441 0.75793803 0.64247471
1.51495957 5.07788610 1.28418291 0.56749272 0.79805875 0.54562724
1.84891951 5.21503210 1.28228998 0.69259167 0.81961310 0.54482293
1.75147772 6.36279726 1.96878028 0.65609074 1.00000000 0.83650088
1.68567467 5.07681417 1.53275633 0.63144135 0.79789031 0.65124178
0.19882153 5.10140562 1.12493169 0.07447708 0.80175519 0.47796413
0.53735977 5.98147678 1.29465830 0.20129102 0.94007033 0.55007803
0.25808761 4.61993074 1.80152309 0.09667773 0.72608483 0.76543617
0.49717215 4.66265440 1.79207289 0.18623704 0.73279947 0.76142097
0.82231855 4.68453741 1.77398729 0.30803451 0.73623866 0.75373667
1.07941091 4.71421909 1.76019096 0.40433940 0.74090356 0.74787486
0.71922612 4.72586870 2.06647491 0.26941684 0.74273443 0.87800962
0.95353931 4.63795328 2.00376916 0.35718885 0.72891736 0.85136706
1.41912448 4.73001480 1.74315000 0.53159362 0.74338609 0.74063444
1.68519449 4.73126364 1.71958637 0.63126153 0.74358231 0.73062265
1.29004681 4.61605978 1.96767688 0.48324206 0.72547650 0.83603203
1.55121744 4.62980700 1.95509195 0.58107466 0.72763705 0.83068496
0.27513754 4.84529877 1.34377348 0.10306451 0.76150453 0.57094622
0.52458990 4.94176912 1.33732021 0.19650753 0.77666610 0.56820434
0.16168703 5.04995060 1.67615724 0.06056678 0.79366833 0.71217036
0.40494359 4.89581347 1.59471226 0.15168890 0.76944357 0.67756581
0.85845631 4.94043493 1.30902314 0.32157144 0.77645642 0.55618143
1.14527857 5.05434513 1.30609870 0.42901295 0.79435897 0.55493885
0.92829359 6.20014334 1.99551463 0.34773198 0.97443670 0.84785986
1.48724127 5.07191753 1.28080189 0.55710965 0.79712069 0.54419070
1.82691693 5.23102474 1.28414214 0.68434972 0.82212657 0.54560989
2.03688502 6.21801329 1.88261390 0.76300222 0.97724521 0.79989028
0.17377652 5.06914520 1.11740255 0.06509541 0.79668504 0.47476512
0.22863555 4.61217642 1.79783213 0.08564520 0.72486615 0.76386791
0.46573257 4.64529991 1.78408194 0.17446001 0.73007196 0.75802571
0.79013515 4.67301226 1.76758564 0.29597884 0.73442733 0.75101674
1.04728150 4.70993710 1.75601339 0.39230397 0.74023056 0.74609989
0.68464798 4.69585466 2.05117202 0.25646412 0.73801732 0.87150770
0.94562560 4.74824381 2.04967332 0.35422441 0.74625099 0.87087095
1.38572347 4.72618341 1.73840559 0.51908183 0.74278390 0.73861861
1.25815046 4.61338043 1.96304774 0.47129393 0.72505540 0.83406520
1.51566637 4.62013245 1.94678414 0.56775749 0.72611654 0.82715505
0.24424367 4.83732271 1.34104085 0.09149189 0.76025099 0.56978518
0.49313107 4.94113255 1.33625567 0.18472329 0.77656609 0.56775206
0.12880352 4.99783993 1.65818989 0.04824885 0.78547841 0.70453638
0.36259073 4.75446177 1.54684293 0.13582383 0.74722821 0.65722692
0.83019716 4.96289110 1.31368232 0.31098577 0.77998573 0.55816102
1.11053467 5.04821587 1.30259216 0.41599813 0.79339570 0.55344898
0.89274812 6.23034954 2.00352693 0.33441690 0.97918403 0.85126412
1.45428991 5.07742596 1.27983594 0.54476637 0.79798645 0.54378027
1.79274011 5.23872328 1.28321612 0.67154729 0.82333648 0.54521644
1.28097332 4.84260368 1.48590720 0.47984320 0.76108092 0.63133639
2.01907659 6.29641771 1.90286291 0.75633126 0.98956758 0.80849373
0.14145538 5.05063915 1.11297369 0.05298815 0.79377651 0.47288337
0.20001300 4.62280893 1.80152309 0.07492340 0.72653723 0.76543617
0.43781254 4.66111612 1.78916705 0.16400136 0.73255771 0.76018631
0.76017410 4.67419195 1.76616299 0.28475565 0.73461276 0.75041229
1.01444221 4.70177603 1.75044334 0.38000262 0.73894793 0.74373323
0.63871777 4.57851267 1.99720943 0.23925899 0.71957546 0.84857994
0.91435307 4.74688292 2.04650760 0.34250996 0.74603713 0.86952585
1.35344791 4.72574139 1.73501670 0.50699168 0.74271446 0.73717874
1.22633886 4.61048365 1.95841861 0.45937756 0.72460014 0.83209836
1.48488677 4.62428188 1.94451833 0.55622768 0.72676867 0.82619238
0.21392213 4.84068441 1.34158742 0.08013366 0.76077932 0.57001740
0.46263725 4.94988966 1.33785248 0.17330052 0.77794236 0.56843048
0.33214849 4.74907398 1.54432344 0.12442039 0.74638146 0.65615648
0.79840010 4.96419239 1.31264699 0.29907483 0.78019023 0.55772114
1.07509005 5.03806591 1.29808390 0.40272084 0.79180050 0.55153352
0.85534793 6.24903727 2.00784111 0.32040706 0.98212105 0.85309714
1.42235899 5.08646345 1.27983594 0.53280526 0.79940683 0.54378027
1.74916148 5.21856165 1.27534461 0.65522307 0.82016784 0.54187196
1.26556849 4.90991879 1.50450158 0.47407269 0.77166039 0.63923681
1.96845174 6.27421904 1.89217591 0.73736757 0.98607874 0.80395299
0.11165086 5.16063070 1.13777554 0.04182360 0.81106317 0.48342124
0.17041866 4.60725403 1.79487944 0.06383758 0.72409254 0.76261342
0.40783477 4.65635252 1.78626132 0.15277192 0.73180902 0.75895172
0.72994894 4.67333174 1.76402903 0.27343351 0.73447752 0.74950558
0.98213863 4.69522238 1.74556959 0.36790192 0.73791796 0.74166250
0.62511855 4.70045614 2.04956126 0.23416483 0.73874050 0.87082332
0.88657165 4.76336002 2.05125618 0.33210325 0.74862671 0.87154347
1.31973505 4.71963835 1.72959447 0.49436307 0.74175525 0.73487490
1.19734633 4.61809778 1.95841861 0.44851714 0.72579676 0.83209836
1.45523989 4.63175583 1.94376314 0.54512221 0.72794330 0.82587153
0.18363276 4.84577847 1.34268045 0.06878749 0.76157987 0.57048184
0.43082649 4.94501925 1.33572340 0.16138445 0.77717692 0.56752586
0.06618056 5.01989985 1.66524851 0.02479075 0.78894544 0.70753545
0.30294597 4.76053667 1.54747272 0.11348134 0.74818301 0.65749454
0.76719362 4.96911097 1.31264699 0.28738511 0.78096324 0.55772114
1.04261470 5.04093218 1.29708207 0.39055583 0.79225093 0.55110782
0.81726795 6.26372528 2.01092267 0.30614260 0.98442948 0.85440642
1.38734972 5.08405399 1.27693796 0.51969105 0.79902816 0.54254895
1.72186005 5.24606609 1.27951181 0.64499617 0.82449055 0.54364258
1.23469377 4.91777325 1.50450158 0.46250722 0.77289486 0.63923681
1.93809009 6.31579304 1.90117538 0.72599435 0.99261266 0.80777669
0.08031391 5.25679064 1.15947711 0.03008500 0.82617605 0.49264187
0.14166261 4.61566639 1.79783213 0.05306578 0.72541463 0.76386791
0.37729818 4.64397001 1.78044963 0.14133313 0.72986293 0.75648242
0.70057130 4.67782593 1.76402903 0.26242888 0.73518389 0.74950558
0.94843709 4.68110514 1.73791075 0.35527757 0.73569924 0.73840839
0.59512830 4.70065641 2.04795027 0.22293070 0.73877198 0.87013882
0.85363436 4.75257874 2.04413319 0.31976518 0.74693227 0.86851704
1.17097199 4.63627529 1.96304774 0.43863752 0.72865361 0.83406520
1.43052030 4.65495157 1.94980514 0.53586239 0.73158884 0.82843864
0.15402573 4.87760735 1.35142481 0.05769691 0.76658225 0.57419717
0.40088961 4.96107531 1.33944941 0.15017031 0.77970034 0.56910902
0.03472484 5.05052471 1.67551553 0.01300767 0.79375857 0.71189773
0.27197832 4.74529409 1.54180396 0.10188109 0.74578738 0.65508598
0.73430663 4.96235991 1.30954087 0.27506587 0.77990228 0.55640137
1.00859463 5.03600121 1.29407656 0.37781215 0.79147595 0.54983085
0.77789593 6.26873684 2.01092267 0.29139411 0.98521715 0.85440642
1.34701598 5.06075430 1.26872706 0.50458229 0.79536629 0.53906029
1.67983508 5.22902822 1.27256644 0.62925392 0.82181281 0.54069155
1.20242965 4.91985178 1.50275838 0.45042133 0.77322149 0.63849616
1.89781165 6.32600880 1.90061295 0.71090633 0.99421817 0.80753773
0.04747308 5.29424763 1.16789210 0.01778307 0.83206290 0.49621725
0.11254743 4.61089039 1.79561758 0.04215944 0.72466403 0.76292700
0.34811202 4.64624929 1.78044963 0.13040021 0.73022115 0.75648242
0.66962236 4.67102671 1.75976121 0.25083563 0.73411530 0.74769229
0.91384614 4.66123581 1.72816312 0.34232005 0.73257649 0.73426676
0.56326377 4.68429947 2.03909087 0.21099448 0.73620129 0.86637461
0.82247251 4.75061464 2.04096723 0.30809218 0.74662364 0.86717188
1.16606498 4.74398708 2.00625277 0.43679941 0.74558198 0.85242230
1.39314020 4.63727760 1.93847632 0.52186012 0.72881114 0.82362521
0.12325412 4.87270832 1.34978521 0.04617009 0.76581228 0.57350051
0.36865315 4.95004225 1.33572340 0.13809477 0.77796638 0.56752586
0.00293242 5.06769133 1.68129075 0.00109846 0.79645652 0.71435153
0.24247204 4.75259542 1.54369354 0.09082825 0.74693489 0.65588880
0.70337594 4.96878958 1.31005847 0.26347947 0.78091276 0.55662131
0.97693282 5.04223919 1.29407656 0.36595187 0.79245639 0.54983085
0.73827684 6.27161026 2.01030636 0.27655309 0.98566872 0.85414457
1.31567204 5.07099867 1.26921010 0.49284109 0.79697633 0.53926551
1.64694715 5.23947954 1.27256644 0.61693430 0.82345539 0.54069155
1.14581823 4.81735754 1.46847498 0.42921510 0.75711316 0.62392974
1.84875166 6.30652666 1.89105093 0.69252884 0.99115634 0.80347502
0.01396597 5.50312853 1.21528125 0.00523155 0.86489141 0.51635212
0.09070433 4.60393524 1.79266477 0.03397718 0.72357094 0.76167244
0.32635188 4.64969635 1.78117609 0.12224902 0.73076290 0.75679106
0.64859748 4.68154097 1.76260638 0.24295986 0.73576772 0.74890113
0.89510977 4.68205070 1.73442948 0.33530155 0.73584783 0.73692924
0.52986324 4.58501196 1.99398780 0.19848289 0.72059691 0.84721112
0.77383184 4.60240030 1.97448552 0.28987172 0.72332972 0.83892494
1.23097599 4.71439743 1.71942770 0.46111459 0.74093157 0.73055524
1.14454567 4.75302076 2.00779581 0.42873842 0.74700177 0.85307789
1.37020838 4.64024305 1.93696582 0.51327002 0.72927719 0.82298344
0.10016450 4.86554050 1.34759915 0.03752089 0.76468575 0.57257169
0.34518063 4.94980192 1.33519101 0.12930213 0.77792859 0.56729966
-0.03019256 6.20227528 2.06566286 -0.01130991 0.97477180 0.87766463
0.22179934 4.78780985 1.55503106 0.08308440 0.75246936 0.66070592
0.67919135 4.96630383 1.30850542 0.25442010 0.78052211 0.55596143
0.95022613 5.03157711 1.29006922 0.35594773 0.79078066 0.54812819
0.70809215 6.26934576 2.00845742 0.26524612 0.98531282 0.85335898
1.27997994 5.03007412 1.25713515 0.47947112 0.79054445 0.53413510
1.62340164 5.25089598 1.27349246 0.60811436 0.82524961 0.54108500
1.13546968 4.87680674 1.48532617 0.42533863 0.76645643 0.63108951
1.80505216 6.26726007 1.87642670 0.67615932 0.98498505 0.79726142
-0.01287145 5.65720797 1.25026953 -0.00482155 0.88910705 0.53121799
0.06172517 4.59883833 1.79045022 0.02312180 0.72276992 0.76073152
0.29649621 4.64235973 1.77754378 0.11106531 0.72960991 0.75524777
0.61703777 4.66883612 1.75620472 0.23113783 0.73377103 0.74618119
0.86671919 4.69310904 1.73651826 0.32466665 0.73758584 0.73781675
0.49970955 4.57550573 1.98834991 0.18718754 0.71910286 0.84481567
0.74068421 4.58180475 1.96340525 0.27745488 0.72009283 0.83421713
1.20178676 4.72386408 1.72010553 0.45018050 0.74241942 0.73084325
1.08408046 4.62704182 1.95070338 0.40608859 0.72720248 0.82882029
1.33633912 4.63276625 1.93016851 0.50058281 0.72810215 0.82009536
0.06965005 4.87184525 1.34923875 0.02609040 0.76567662 0.57326835
0.31355381 4.94417906 1.33306193 0.11745496 0.77704489 0.56639510
-0.06995443 6.25689077 2.08427191 -0.02620441 0.98335534 0.88557124
0.19994201 4.97495317 1.61675739 0.07489681 0.78188145 0.68693238
0.64676416 4.96089029 1.30591702 0.24227311 0.77967125 0.55486166
0.91894817 5.03935194 1.29057014 0.34423125 0.79200262 0.54834104
0.66966474 6.28313398 2.01153898 0.25085151 0.98747981 0.85466832
1.25018764 5.04555941 1.25906718 0.46831113 0.79297817 0.53495598
1.58239889 5.23494768 1.26701009 0.59275502 0.82274312 0.53833079
1.35481870 4.83492231 1.43657362 0.50750518 0.75987369 0.61037540
-0.05249317 5.99244976 1.32644665 -0.01966356 0.94179487 0.56358439
0.03287422 4.61586428 1.79709399 0.01231444 0.72544575 0.76355433
0.26801306 4.65529013 1.78190255 0.10039572 0.73164207 0.75709975
0.58701485 4.66705418 1.75407076 0.21989146 0.73349094 0.74527448
0.47130963 4.58219910 1.98996079 0.17654914 0.72015482 0.84550011
0.74055874 4.76592970 2.04175878 0.27740788 0.74903059 0.86750817
1.17074788 4.72583675 1.71807218 0.43855357 0.74272943 0.72997928
1.39035618 4.60370827 1.64503062 0.52081722 0.72353530 0.69894522
1.05056560 4.61395216 1.94221675 0.39353418 0.72514522 0.82521451
1.30771399 4.64285135 1.93092370 0.48986006 0.72968715 0.82041627
0.03896433 4.85294819 1.34377348 0.01459575 0.76270670 0.57094622
0.28189352 4.93643045 1.33040047 0.10559525 0.77582711 0.56526428
-0.10789280 6.19004297 2.06181288 -0.04041585 0.97284931 0.87602884
0.17329143 5.09751034 1.65706849 0.06491370 0.80114299 0.70405990
0.61351222 4.94759321 1.30125797 0.22981718 0.77758145 0.55288213
0.88418049 5.02787542 1.28606176 0.33120751 0.79019892 0.54642552
0.62888807 6.27396107 2.00722480 0.23557687 0.98603821 0.85283530
1.21532822 5.04009581 1.25568616 0.45525303 0.79211950 0.53351945
1.54445207 5.22801208 1.26284289 0.57854044 0.82165313 0.53656024
1.32955086 4.86183167 1.44219840 0.49804002 0.76410288 0.61276531
0.00387143 4.61597967 1.79709399 0.00145021 0.72546387 0.76355433
0.23813674 4.64571905 1.77754378 0.08920427 0.73013783 0.75524777
0.55554360 4.65208006 1.74695778 0.20810255 0.73113757 0.74225229
0.44234192 4.58324671 1.98915529 0.16569804 0.72031945 0.84515786
0.70837301 4.75596476 2.03542709 0.26535133 0.74746448 0.86481798
1.15229845 4.78070736 1.73569441 0.43164256 0.75135309 0.73746669
1.40477395 4.75703526 1.69781351 0.52621800 0.74763268 0.72137177
1.02077353 4.61685514 1.94067371 0.38237429 0.72560149 0.82455885
1.27502775 4.63849115 1.92563689 0.47761604 0.72900188 0.81816995
0.00842945 4.87041187 1.34869218 0.00315761 0.76545137 0.57303607
0.25214046 4.96120358 1.33678794 0.09444997 0.77972054 0.56797820
-0.14760172 6.21954012 2.07207990 -0.05529052 0.97748518 0.88039112
0.14125961 5.09849882 1.65706849 0.05291481 0.80129832 0.70405990
0.58263153 4.95326948 1.30177557 0.21824950 0.77847356 0.55310202
0.85124832 5.02570057 1.28405809 0.31887138 0.78985709 0.54557419
0.58825314 6.26452446 2.00291061 0.22035532 0.98455507 0.85100228
1.18363655 5.04763222 1.25568616 0.44338158 0.79330397 0.53351945
1.51594496 5.25255156 1.26654708 0.56786186 0.82550979 0.53813404
1.03356898 4.85050917 1.47079921 0.38716736 0.76232338 0.62491727
0.15630838 5.30418062 1.13995373 0.05855197 0.83362401 0.48434672
-0.02513151 4.61591291 1.79709399 -0.00941408 0.72545338 0.76355433
0.20912598 4.65084553 1.77899671 0.07833706 0.73094356 0.75586510
0.52569723 4.64990425 1.74482381 0.19692233 0.73079562 0.74134564
0.41337961 4.58411169 1.98834991 0.15484898 0.72045541 0.84481567
0.68087828 4.77667665 2.04255033 0.25505200 0.75071961 0.86784446
1.12983072 4.82086086 1.74789441 0.42322630 0.75766373 0.74265027
1.37167251 4.75489664 1.69385481 0.51381844 0.74729657 0.71968979
0.98643547 4.59789610 1.92987239 0.36951149 0.72262180 0.81996959
1.24001217 4.62497091 1.91657388 0.46449947 0.72687697 0.81431925
-0.02192033 4.84151173 1.34049428 -0.00821120 0.76090932 0.56955296
0.21899714 4.92225266 1.32560980 0.08203472 0.77359885 0.56322879
-0.18579467 6.19198465 2.06309605 -0.06959732 0.97315449 0.87657404
0.10912579 5.09549046 1.65580869 0.04087772 0.80082554 0.70352465
0.55005741 4.94338655 1.29815185 0.20604748 0.77692032 0.55156237
0.81869739 5.02522039 1.28255534 0.30667803 0.78978163 0.54493570
1.15232193 5.05686331 1.25616920 0.43165135 0.79475474 0.53372467
1.47542632 5.23578215 1.26006472 0.55268389 0.82287425 0.53537983
1.00079584 4.84565306 1.46731281 0.37489077 0.76156020 0.62343597
1.26001406 4.84661055 1.43263638 0.47199202 0.76171064 0.60870254
0.12255648 5.28944159 1.13649654 0.04590876 0.83130759 0.48287782
-0.05407348 4.61194658 1.79561758 -0.02025553 0.72483003 0.76292700
0.17949922 4.64275932 1.77536440 0.06723909 0.72967267 0.75432181
0.49761224 4.66427231 1.74909163 0.18640190 0.73305374 0.74315894
0.38485861 4.59026861 1.98996079 0.14416522 0.72142303 0.84550011
0.65238488 4.79177380 2.04729891 0.24437860 0.75309235 0.86986208
1.09664619 4.81501007 1.74315000 0.41079563 0.75674421 0.74063444
1.34696352 4.78157282 1.70045257 0.50456268 0.75148910 0.72249305
0.95715886 4.60219526 1.92910087 0.35854471 0.72329748 0.81964177
1.21378398 4.64340878 1.92110538 0.45467457 0.72977477 0.81624460
-0.05239757 4.84512568 1.34158742 -0.01962775 0.76147729 0.57001740
0.18896249 4.94471884 1.33146501 0.07078397 0.77712971 0.56571656
-0.22462121 6.18880224 2.06245446 -0.08414146 0.97265434 0.87630141
0.07678130 5.07899475 1.65014005 0.02876171 0.79823297 0.70111609
0.51704937 4.92752409 1.29297507 0.19368291 0.77442735 0.54936284
0.78587914 5.02261829 1.28055167 0.29438457 0.78937268 0.54408437
0.83966225 6.29985809 1.96174622 0.31453133 0.99010825 0.83351219
1.12052619 5.06400394 1.25616920 0.41974089 0.79587698 0.53372467
1.44511485 5.25431967 1.26237977 0.54132944 0.82578766 0.53636342
1.14456391 5.74206161 1.74274218 0.42874524 0.90244299 0.74046117
1.20655537 4.76521921 1.40563774 0.45196679 0.74891889 0.59723127
0.08984586 5.31548786 1.14211440 0.03365560 0.83540112 0.48526475
-0.07588357 4.61535740 1.79709399 -0.02842543 0.72536612 0.76355433
0.15769020 4.64541578 1.77609086 0.05906959 0.73009020 0.75463045
0.47290486 4.63865948 1.73842204 0.17714669 0.72902834 0.73862559
0.36213297 4.57742643 1.98351741 0.13565235 0.71940476 0.84276241
0.60214895 4.59094667 1.95865655 0.22556058 0.72152960 0.83219945
1.01450133 4.54805756 1.64283884 0.38002476 0.71478903 0.69801396
1.30602682 4.72243261 1.67670035 0.48922807 0.74219441 0.71240115
0.93366408 4.59760523 1.92524326 0.34974372 0.72257608 0.81800276
1.18487644 4.62219810 1.90977657 0.44384602 0.72644120 0.81143123
-0.07515313 4.84097815 1.34049428 -0.02815181 0.76082546 0.56955296
0.16515182 4.93206930 1.32773900 0.06186466 0.77514166 0.56413347
-0.25453722 6.20470715 2.06822968 -0.09534778 0.97515398 0.87875521
0.05322922 5.10587263 1.65895808 0.01993928 0.80245721 0.70486271
0.49493125 4.94144392 1.29608107 0.18539762 0.77661502 0.55068254
0.76309586 5.03200531 1.28205442 0.28585011 0.79084796 0.54472286
1.09342682 5.05403996 1.25230527 0.40958968 0.79431099 0.53208297
1.42136669 5.26482439 1.26330590 0.53243357 0.82743865 0.53675693
1.14547312 5.89401627 1.78806603 0.42908582 0.92632473 0.75971848
1.21839833 4.90669298 1.44669819 0.45640308 0.77115345 0.61467719
0.06470250 5.30999470 1.14081800 0.02423708 0.83453780 0.48471394
-0.10498188 4.61850595 1.79857039 -0.03932544 0.72586095 0.76418161
0.12849927 4.64631510 1.77609086 0.04813489 0.73023152 0.75463045
0.44714573 4.67876959 1.75264812 0.16749752 0.73533219 0.74467003
0.33386445 4.58691692 1.98673904 0.12506318 0.72089630 0.84413123
0.57164353 4.58188820 1.95311630 0.21413347 0.72010595 0.82984549
1.01867199 4.70896721 1.69977212 0.38158706 0.74007815 0.72220391
0.90649825 4.61244154 1.92910087 0.33956760 0.72490782 0.81964177
1.15581119 4.62955189 1.90977657 0.43295839 0.72759694 0.81143123
-0.10561824 4.84233332 1.34104085 -0.03956382 0.76103842 0.56978518
0.13422002 4.93493652 1.32827127 0.05027784 0.77559227 0.56435961
-0.29351726 6.20298529 2.06822968 -0.10994942 0.97488338 0.87875521
0.46352854 4.94060802 1.29504573 0.17363440 0.77648365 0.55024266
0.72974837 5.02521086 1.27904892 0.27335837 0.78978014 0.54344589
1.06751490 5.08932543 1.25955021 0.39988324 0.79985660 0.53516120
1.38624978 5.26613235 1.26145375 0.51927900 0.82764423 0.53596997
1.18021166 4.88443136 1.43769860 0.44209865 0.76765472 0.61085337
-0.13362597 4.60660839 1.79414117 -0.05005531 0.72399110 0.76229972
0.09920734 4.64330482 1.77463794 0.03716234 0.72975844 0.75401312
0.41600066 4.66099882 1.74482381 0.15583080 0.73253924 0.74134564
0.86670399 6.09860373 2.25174880 0.32466096 0.95847839 0.95672929
0.30458423 4.58161545 1.98351741 0.11409502 0.72006309 0.84276241
0.54082793 4.56898212 1.94599330 0.20259018 0.71807760 0.82681906
0.99057877 4.72264767 1.70248330 0.37106356 0.74222821 0.72335583
0.87312382 4.59446096 1.91907120 0.32706580 0.72208196 0.81538033
1.12180579 4.61694813 1.90146863 0.42022023 0.72561610 0.80790132
-0.13653813 4.85695744 1.34541309 -0.05114618 0.76333684 0.57164288
0.10321046 4.93568230 1.32827127 0.03866188 0.77570951 0.56435961
-0.00888021 6.22229528 2.02931595 -0.00332646 0.97791821 0.86222142
