11.33785439 -0.57811153 2.18309116 0.76286137 -0.31747028 0.80631554
11.61458397 -1.22469056 2.13942504 0.78148097 -0.67253953 0.79018760
13.46535301 -0.77458876 1.59060502 0.90600896 -0.42536587 0.58748323
11.25563622 -1.38782799 2.66442847 0.75732940 -0.76212656 0.98409539
11.38048553 -0.50854528 2.19075871 0.76572978 -0.27926794 0.80914748
11.63574409 -1.15307140 2.14198661 0.78290474 -0.63320982 0.79113370
13.45608711 -0.68923748 1.58882439 0.90538555 -0.37849516 0.58682561
11.26799774 -1.31753862 2.66535449 0.75816113 -0.72352713 0.98443747
11.37364769 -0.43667099 2.18884182 0.76526970 -0.23979813 0.80843949
11.63492870 -1.07919955 2.14052272 0.78284985 -0.59264308 0.79059303
13.47996807 -0.60559750 1.59136820 0.90699238 -0.33256423 0.58776516
11.21804905 -1.24019575 2.65146375 0.75480038 -0.68105423 0.97930694
11.38990116 -0.36561644 2.19152546 0.76636332 -0.20077848 0.80943066
11.61405945 -1.00365651 2.13539982 0.78144568 -0.55115855 0.78870094
13.51720333 -0.52224159 1.59569275 0.90949768 -0.28678927 0.58936238
11.22755432 -1.16989172 2.65192676 0.75543994 -0.64244670 0.97947794
11.39786053 -0.29418626 2.19267559 0.76689887 -0.16155256 0.80985546
11.57702255 -0.92713517 2.12734938 0.77895367 -0.50913680 0.78572750
13.54202652 -0.43803898 1.59849107 0.91116792 -0.24054936 0.59039593
11.42855835 -0.24104054 2.19842601 0.76896435 -0.13236755 0.81197935
11.57342148 -0.87196499 2.12588573 0.77871138 -0.47884008 0.78518695
13.64903545 -0.37728071 1.61197352 0.91836798 -0.20718393 0.59537560
11.24555016 -1.04692161 2.65331578 0.75665075 -0.57491761 0.97999102
11.47891617 -0.16986769 2.20801044 0.77235264 -0.09328295 0.81551933
11.58259487 -0.79950798 2.12661743 0.77932864 -0.43905029 0.78545719
11.26159668 -0.97710192 2.65563083 0.75773042 -0.53657609 0.98084605
11.64071178 -0.09882589 2.23944712 0.78323901 -0.05427029 0.82713032
11.59327602 -0.72709662 2.12771535 0.78004730 -0.39928553 0.78586268
11.71176815 -0.02571611 2.25324845 0.78801996 -0.01412202 0.83222783
11.57798576 -0.65309829 2.12405586 0.77901852 -0.35864931 0.78451109
11.27686596 -0.83580571 2.65655684 0.75875783 -0.45898321 0.98118806
11.72151279 0.04792828 2.25516534 0.78867567 0.02631984 0.83293581
11.60738754 -0.58166319 2.12881303 0.78099680 -0.31942070 0.78626812
11.26442623 -0.76371902 2.65238976 0.75792080 -0.41939676 0.97964895
11.61277771 -0.50881034 2.12917900 0.78135943 -0.27941349 0.78640330
11.22434139 -0.69010103 2.64174008 0.75522375 -0.37896937 0.97571558
11.63272762 -0.45480320 2.13247228 0.78270179 -0.24975544 0.78761965
11.23135376 -0.63742763 2.64266610 0.75569558 -0.35004374 0.97605759
11.63535595 -0.38170412 2.13247228 0.78287864 -0.20961304 0.78761965
11.23707962 -0.56694835 2.64312911 0.75608081 -0.31134003 0.97622859
11.62769699 -0.30831218 2.13064265 0.78236330 -0.16930981 0.78694385
11.25013828 -0.49677971 2.64544439 0.75695944 -0.27280688 0.97708374
11.67068577 -0.23615488 2.13832712 0.78525579 -0.12968460 0.78978211
11.26275826 -0.42646930 2.64775944 0.75780857 -0.23419586 0.97793877
11.69356537 -0.16316099 2.14235234 0.78679520 -0.08959996 0.79126883
11.27104950 -0.35589010 2.64914846 0.75836647 -0.19543725 0.97845179
11.71795368 -0.08990739 2.14674354 0.78843617 -0.04937270 0.79289067
11.30418205 -0.28590852 2.65655684 0.76059574 -0.15700683 0.98118806
11.82048988 -0.03516715 2.16577196 0.79533523 -0.01931206 0.79991871
11.34236240 -0.23346286 2.66535449 0.76316470 -0.12820627 0.98443747
12.06625748 0.03949356 2.21151304 0.81187159 0.02168791 0.81681299
11.37084103 -0.16263081 2.67183685 0.76508087 -0.08930881 0.98683167
11.41444111 -0.09160274 2.68202353 0.76801449 -0.05030370 0.99059409
11.46148682 -0.02004689 2.69313622 0.77117991 -0.01100876 0.99469852
11.32495308 -1.47400832 2.55900931 0.76199335 -0.80945253 0.94515932
11.38626289 -1.40919816 2.57096720 0.76611853 -0.77386200 0.94957590
12.44296074 -1.76107621 2.15589190 0.83721787 -0.96709603 0.79626960
11.09652615 -1.30314016 2.50276232 0.74662375 -0.71562016 0.92438471
12.04169941 -1.62785578 2.08344579 0.81021923 -0.89393795 0.76951194
11.24215031 -1.24842942 2.53420734 0.75642198 -0.68557572 0.93599880
11.93832397 -1.53775609 2.06353164 0.80326366 -0.84445965 0.76215672
11.19738960 -1.17237973 2.52224946 0.75341028 -0.64381301 0.93158221
11.93797016 -1.46153486 2.06181502 0.80323988 -0.80260271 0.76152271
11.22200680 -1.10368836 2.52623534 0.75506663 -0.60609108 0.93305439
11.88796616 -1.39868224 2.05185795 0.79987538 -0.76808715 0.75784510
11.18824005 -1.04722893 2.51737761 0.75279468 -0.57508636 0.92978281
11.89847755 -1.32417548 2.05220127 0.80058259 -0.72717172 0.75797188
11.18682575 -0.97624683 2.51560593 0.75269949 -0.53610653 0.92912847
11.60216427 -1.65291035 2.55908775 0.78064531 -0.90769666 0.94518828
11.85560608 -1.24412990 2.04327416 0.79769802 -0.68321466 0.75467467
11.19273853 -0.90593910 2.51560593 0.75309736 -0.49749699 0.92912847
11.26411724 -1.53198719 2.48130322 0.75790000 -0.84129167 0.91645890
11.88083839 -1.17132461 2.04636431 0.79939580 -0.64323360 0.75581604
11.20793629 -0.83630365 2.51782036 0.75411993 -0.45925665 0.92994630
11.30643368 -1.46550882 2.48864961 0.76074725 -0.80478501 0.91917223
11.83498192 -1.09185600 2.03709388 0.79631037 -0.59959334 0.75239205
11.21102333 -0.76573670 2.51737761 0.75432765 -0.42050475 0.92978281
11.29991722 -1.39250159 2.48519254 0.76030880 -0.76469308 0.91789538
11.85731602 -1.01879609 2.03984070 0.79781306 -0.55947244 0.75340658
12.66619301 -1.76225007 2.12753534 0.85223794 -0.96774065 0.78579623
11.19614506 -0.69410962 2.51294875 0.75332654 -0.38117069 0.92814702
11.26384354 -1.31618237 2.47525334 0.75788158 -0.72278231 0.91422439
11.85216427 -0.96212840 2.03812408 0.79746646 -0.52835339 0.75277251
12.21319962 -1.63984895 2.04887080 0.82175851 -0.90052402 0.75674176
11.20123863 -0.64144945 2.51339149 0.75366926 -0.35225233 0.92831057
11.26603985 -1.26264644 2.47438908 0.75802940 -0.69338304 0.91390514
11.83439541 -0.88591594 2.03400397 0.79627091 -0.48650125 0.75125080
12.16263580 -1.55522478 2.03853774 0.81835634 -0.85405260 0.75292534
11.20504761 -0.57105780 2.51339149 0.75392556 -0.31359673 0.92831057
11.23103714 -1.18724215 2.46488214 0.75567424 -0.65197474 0.91039383
13.55969810 -1.57056427 1.52711999 0.91235691 -0.86247629 0.56403536
11.81417084 -0.80983347 2.02954030 0.79491007 -0.44472054 0.74960214
12.13106537 -1.47371185 2.03153801 0.81623214 -0.80928975 0.75033998
11.39742470 -0.50874281 2.55635190 0.76686954 -0.27937642 0.94417781
11.24410343 -1.11724222 2.46617842 0.75655341 -0.61353421 0.91087258
13.63048649 -1.49194121 1.53463125 0.91711992 -0.81930041 0.56680959
11.83672619 -0.73665845 2.03263044 0.79642773 -0.40453643 0.75074351
12.10874653 -1.39380121 2.02620482 0.81473047 -0.76540673 0.74837023
11.32438374 -0.43434227 2.53907919 0.76195502 -0.23851931 0.93779820
11.21007633 -1.04270017 2.45710373 0.75426394 -0.57259941 0.90752089
13.57441330 -1.39964724 1.52663541 0.91334707 -0.76861709 0.56385636
11.84505558 -0.66248536 2.03331709 0.79698813 -0.36380422 0.75099707
12.11530495 -1.31747627 2.02587152 0.81517172 -0.72349286 0.74824709
11.27425385 -0.36158782 2.52712107 0.75858206 -0.19856617 0.93338150
11.24363899 -0.97465515 2.46315360 0.75652218 -0.53523242 0.90975541
11.85488892 -0.58833092 2.03434730 0.79764980 -0.32308227 0.75137758
12.09392166 -1.23826587 2.02087164 0.81373298 -0.67999440 0.74640042
11.26655483 -0.29050916 2.52490664 0.75806403 -0.15953328 0.93256360
11.21450901 -0.90111184 2.45537519 0.75456214 -0.49484611 0.90688246
11.57089520 -1.62565935 2.46478081 0.77854139 -0.89273179 0.91035640
13.68388748 -1.25889659 1.53826571 0.92071295 -0.69132382 0.56815195
11.86934090 -0.53296983 2.03640723 0.79862219 -0.29268071 0.75213844
12.08588600 -1.17989683 2.01853824 0.81319231 -0.64794105 0.74553859
11.34384823 -0.23887882 2.54217935 0.76326466 -0.13118044 0.93894321
11.21863079 -0.84825492 2.45537519 0.75483948 -0.46581969 0.90688246
11.23144341 -1.52464640 2.38990569 0.75570160 -0.83726048 0.88270158
13.69944000 -1.17356002 1.53923488 0.92175943 -0.64446115 0.56850994
11.85276508 -0.45765612 2.03297377 0.79750687 -0.25132212 0.75087029
12.07931614 -1.10265815 2.01620507 0.81275022 -0.60552537 0.74467683
11.36267662 -0.16782689 2.54616547 0.76453155 -0.09216224 0.94041550
11.21010399 -0.77678031 2.45235014 0.75426579 -0.42656937 0.90576518
11.32034302 -1.46419156 2.40705585 0.76168317 -0.80406165 0.88903594
13.69664669 -1.08669078 1.53802335 0.92157143 -0.59675688 0.56806242
11.88494778 -0.38407853 2.03812408 0.79967225 -0.21091695 0.75277251
12.06439495 -1.02486789 2.01253843 0.81174630 -0.56280679 0.74332261
11.22645569 -0.70708793 2.45494294 0.75536597 -0.38829777 0.90672284
11.30796242 -1.39044797 2.40245461 0.76085013 -0.76356530 0.88733649
13.70518398 -1.00075305 1.53826571 0.92214590 -0.54956412 0.56815195
13.61908722 -1.45880151 1.45561564 0.91635293 -0.80110168 0.53762549
11.88515663 -0.30934823 2.03778076 0.79968631 -0.16987877 0.75264573
12.05487061 -0.94778234 2.00987196 0.81110543 -0.52047521 0.74233770
11.43605137 -0.02505959 2.56255245 0.76946855 -0.01376149 0.94646794
11.23067665 -0.63653654 2.45494294 0.75564998 -0.34955442 0.90672284
12.70413876 -1.74117148 2.04133582 0.85479110 -0.95616531 0.75395876
11.27178574 -1.31424153 2.39283371 0.75841600 -0.72171652 0.88378304
13.69337177 -0.91345882 1.53608501 0.92135108 -0.50162643 0.56734651
13.68924904 -1.37946713 1.46278429 0.92107368 -0.75753516 0.54027319
13.11629486 -1.66779697 1.79156399 0.88252282 -0.91587168 0.66170663
11.89868546 -0.23487908 2.03984070 0.80059659 -0.12898399 0.75340658
12.07042027 -0.87274873 2.01153851 0.81215167 -0.47927049 0.74295324
11.56275272 0.04753945 2.59134030 0.77799356 0.02610632 0.95710063
11.24615479 -0.56657064 2.45753574 0.75669146 -0.31113261 0.90768045
12.34279442 -1.61330545 1.98062527 0.83047825 -0.88594764 0.73153561
11.25648880 -1.24086368 2.38781428 0.75738674 -0.68142104 0.88192916
13.72064114 -0.82868761 1.53875029 0.92318588 -0.45507428 0.56833094
13.69764614 -1.29342842 1.46278429 0.92163873 -0.71028697 0.54027319
11.92159843 -0.16036785 2.04361749 0.80213827 -0.08806609 0.75480151
12.05402279 -0.79542655 2.00787187 0.81104839 -0.43680894 0.74159902
11.25534534 -0.49616683 2.45883226 0.75730979 -0.27247030 0.90815932
12.49769974 -1.55350983 2.00427032 0.84090096 -0.85311085 0.74026877
11.25044346 -1.16872299 2.38488603 0.75698000 -0.64180493 0.88084757
13.73232365 -0.76445132 1.53971946 0.92397195 -0.41979888 0.56868887
13.54927540 -1.21479762 1.44474697 0.91165566 -0.66710681 0.53361118
11.96753788 -0.10450577 2.05151463 0.80522931 -0.05738940 0.75771827
12.06550980 -0.73911023 2.00920534 0.81182128 -0.40588281 0.74209154
11.28487396 -0.44424653 2.46488214 0.75929666 -0.24395825 0.91039383
12.44213772 -1.48720229 1.99404550 0.83716249 -0.81669801 0.73649228
11.23636055 -1.11379957 2.38070321 0.75603241 -0.61164367 0.87930268
13.74280453 -0.67843896 1.54044640 0.92467713 -0.37256515 0.56895739
13.64175892 -1.13686240 1.45469069 0.91787833 -0.62430865 0.53728390
13.55633831 -1.48558176 1.85225534 0.91213089 -0.81580812 0.68412268
12.04479980 -0.02936755 2.06490517 0.81042784 -0.01612720 0.76266402
12.05810261 -0.66261721 2.00720525 0.81132293 -0.36387664 0.74135280
11.28353882 -0.37319714 2.46401787 0.75920677 -0.20494142 0.91007459
12.43161488 -1.40680909 1.99085021 0.83645445 -0.77255005 0.73531210
11.23924065 -1.04282355 2.37986660 0.75622624 -0.57266718 0.87899369
13.77456570 -0.59323245 1.54383850 0.92681420 -0.32577395 0.57021022
13.66447639 -1.05237067 1.45654058 0.91940689 -0.57790995 0.53796715
12.06793690 -0.58713877 2.00820518 0.81198460 -0.32242760 0.74172211
11.30518055 -0.30285171 2.46833920 0.76066297 -0.16631119 0.91167068
12.40093899 -1.32454205 1.98445952 0.83439046 -0.72737306 0.73295176
11.22023678 -0.97004098 2.37442875 0.75494754 -0.53269857 0.87698525
11.54123211 -1.61756635 2.35326529 0.77654552 -0.88828748 0.86916858
13.80182934 -0.50751352 1.54674602 0.92864859 -0.27870134 0.57128412
13.65694904 -0.96549278 1.45492184 0.91890043 -0.53020096 0.53736925
12.07335758 -0.51138937 2.00853872 0.81234932 -0.28082979 0.74184531
11.33809662 -0.23251027 2.47525334 0.76287770 -0.12768315 0.91422439
12.39919281 -1.24562836 1.98286188 0.83427298 -0.68403757 0.73236167
11.24170876 -0.90074497 2.37777519 0.75639230 -0.49464464 0.87822121
13.94762516 -0.42492917 1.56419146 0.93845838 -0.23335010 0.57772750
13.66274548 -0.87966514 1.45492184 0.91929042 -0.48306862 0.53736925
13.62412262 -1.43216074 1.40199327 0.91669172 -0.78647190 0.51782030
13.22418118 -1.68781400 1.74014628 0.88978189 -0.92686403 0.64271569
12.07239151 -0.43537185 2.00787187 0.81228435 -0.23908471 0.74159902
11.36276436 -0.16164204 2.48043895 0.76453745 -0.08876582 0.91613966
12.38908100 -1.16606176 1.97998619 0.83359259 -0.64034349 0.73129952
11.23154068 -0.82897049 2.37442875 0.75570816 -0.45522964 0.87698525
11.37993240 -1.44907379 2.31593585 0.76569259 -0.79575974 0.85538113
13.66007042 -0.79333031 1.45399690 0.91911042 -0.43565780 0.53702760
13.65065479 -1.34826195 1.40400505 0.91847694 -0.74039882 0.51856333
12.08474350 -0.35982072 2.00953865 0.81311542 -0.19759576 0.74221462
11.41237164 -0.09072002 2.49124241 0.76787525 -0.04981895 0.92012990
12.39419651 -1.08802688 1.97966659 0.83393681 -0.59749061 0.73118150
11.27946186 -0.76120460 2.38363123 0.75893247 -0.41801596 0.88038415
11.59106255 -1.40237069 2.35768056 0.77989835 -0.77011269 0.87079936
14.86227322 -1.37189686 1.53990841 1.00000000 -0.75337797 0.56875867
13.52367878 -1.55402660 1.77979028 0.90993339 -0.85339463 0.65735805
12.11042309 -0.28447887 2.01353836 0.81484324 -0.15622175 0.74369192
11.46739388 -0.01920118 2.50334215 0.77157736 -0.01054434 0.92459887
12.38307571 -1.00871718 1.97679090 0.83318853 -0.55393761 0.73011941
13.37296295 -1.82099414 2.02720404 0.89979255 -1.00000000 0.74873924
11.24302292 -0.68788493 2.37484694 0.75648069 -0.37775242 0.87713969
13.75527477 -0.64732295 1.46417177 0.92551619 -0.35547778 0.54078567
13.72405815 -1.20320630 1.41071081 0.92341584 -0.66074145 0.52104008
13.54069233 -1.49137950 1.78118610 0.91107816 -0.81899190 0.65787357
12.12345886 -0.22764890 2.01553845 0.81572038 -0.12501353 0.74443060
11.60014439 0.03500554 2.53272748 0.78050941 0.01922331 0.93545222
12.39162922 -0.95064795 1.97742999 0.83376408 -0.52204889 0.73035544
12.80128193 -1.68085480 1.93783188 0.86132729 -0.92304242 0.71573001
11.25199795 -0.63521612 2.37610197 0.75708461 -0.34882930 0.87760323
11.50257874 -1.26331985 2.33640671 0.77394480 -0.69375283 0.86294198
13.71937370 -0.55920684 1.45954680 0.92310065 -0.30708876 0.53907746
13.65804386 -1.11109853 1.40244043 0.91897410 -0.61016041 0.51798546
12.15225506 -0.15186214 2.02020502 0.81765789 -0.08339518 0.74615419
12.37569141 -0.87128115 1.97391510 0.83269167 -0.47846454 0.72905719
11.24990654 -0.56422234 2.37484694 0.75694388 -0.30984303 0.87713969
11.28815556 -1.16764259 2.29064822 0.75951743 -0.64121163 0.84604126
14.77482796 -0.51082343 1.58210826 0.99411631 -0.28051898 0.58434498
13.65484524 -1.02453232 1.40132272 0.91875887 -0.56262255 0.51757264
12.18649292 -0.07576916 2.02587152 0.81996155 -0.04160868 0.74824709
12.39077377 -0.79412091 1.97551274 0.83370650 -0.43609196 0.72964728
11.27276993 -0.49434805 2.37902999 0.75848222 -0.27147153 0.87868470
11.27187157 -1.09438038 2.28583145 0.75842178 -0.60097963 0.84426218
13.66101265 -0.93871677 1.40132272 0.91917384 -0.51549685 0.51757264
12.53577709 0.00024226 2.08486986 0.84346294 0.00013304 0.77003789
12.37383556 -0.71503490 1.97199798 0.83256680 -0.39266184 0.72834915
11.27956295 -0.42364961 2.37986660 0.75893927 -0.23264743 0.87899369
11.47752380 -1.04195571 2.32677341 0.77225900 -0.57219058 0.85938394
13.66465759 -0.85274327 1.40109921 0.91941911 -0.46828446 0.51749009
13.82367039 -1.69227827 1.74545920 0.93011814 -0.92931563 0.64467800
12.37808418 -0.63727421 1.97199798 0.83285266 -0.34995949 0.72834915
11.28591156 -0.35288534 2.38070321 0.75936645 -0.19378719 0.87930268
11.47603607 -0.96914691 2.32516789 0.77215886 -0.53220761 0.85879093
11.76933479 -1.71995604 2.28890204 0.79189330 -0.94451487 0.84539634
13.68562222 -0.76773643 1.40288746 0.92082965 -0.42160290 0.51815057
13.42840385 -1.55891764 1.69021153 0.90352285 -0.85608053 0.62427253
12.38578892 -0.55966014 1.97263706 0.83337110 -0.30733770 0.72858518
11.32310104 -0.28278309 2.38823247 0.76186872 -0.15529050 0.88208359
11.45260239 -0.89468133 2.31914687 0.77058214 -0.49131477 0.85656714
11.44293022 -1.61780107 2.22296190 0.76993138 -0.88841641 0.82104158
13.65732765 -0.70165181 1.39931107 0.91892588 -0.38531250 0.51682967
13.29769421 -1.48047924 1.67143798 0.89472812 -0.81300604 0.61733854
12.40012550 -0.50174701 1.97455418 0.83433574 -0.27553466 0.72929329
11.34190655 -0.22974621 2.39199710 0.76313406 -0.12616527 0.88347405
11.26912689 -0.82660496 2.28061342 0.75823712 -0.45393059 0.84233493
12.39711285 -0.42363277 1.97359562 0.83413303 -0.23263818 0.72893924
11.36854935 -0.15878844 2.39743495 0.76492667 -0.08719876 0.88548249
11.25846004 -0.75470650 2.27740216 0.75751936 -0.41444752 0.84114891
11.52077579 -1.48128843 2.23446321 0.77516913 -0.81345040 0.82528955
13.70081615 -0.53131115 1.40333450 0.92185199 -0.29176983 0.51831567
13.69516659 -1.03111982 1.31190181 0.92147183 -0.56624007 0.48454541
12.43110847 -0.34656021 1.97870803 0.83642042 -0.19031374 0.73082745
11.41430473 -0.08762023 2.40705585 0.76800531 -0.04811670 0.88903594
11.18880939 -1.36780477 2.16737294 0.75283295 -0.75113082 0.80051005
13.16235638 -0.23823340 1.78318274 0.88562202 -0.13082601 0.65861100
12.43896198 -0.26856509 1.97966659 0.83694881 -0.14748268 0.73118150
11.46743584 -0.01588025 2.41834974 0.77158022 -0.00872065 0.89320725
11.49788857 -0.62615234 2.32476640 0.77362919 -0.34385192 0.85864264
11.34930325 -1.31482589 2.19727588 0.76363170 -0.72203743 0.81155455
12.46804142 -0.19078183 1.98414004 0.83890539 -0.10476796 0.73283374
11.59638691 0.05703282 2.44595742 0.78025663 0.03131961 0.90340406
11.52899265 -0.55526495 2.33038592 0.77572203 -0.30492407 0.86071819
11.36124420 -1.24391091 2.19804263 0.76443517 -0.68309438 0.81183779
13.62813377 -1.58255363 1.62036824 0.91696161 -0.86906028 0.59847617
12.48676300 -0.11257080 1.98701584 0.84016508 -0.06181832 0.73389590
11.50876427 -0.48179081 2.32556915 0.77436095 -0.26457572 0.85893917
11.35721684 -1.18935394 2.19612575 0.76416421 -0.65313441 0.81112981
13.48956776 -1.50185335 1.60154366 0.90763825 -0.82474363 0.59152341
12.53058910 -0.05384342 1.99404550 0.84311390 -0.02956815 0.73649228
11.18394947 -0.41482952 2.25853682 0.75250596 -0.22780387 0.83418107
11.34883499 -1.11646187 2.19305873 0.76360023 -0.61310571 0.80999696
13.45928574 -1.41286540 1.59645593 0.90560073 -0.77587587 0.58964425
11.34780598 -1.04442787 2.19152546 0.76353097 -0.57354820 0.80943066
13.42447186 -1.32392216 1.59085941 0.90325832 -0.72703260 0.58757722
11.55650139 -0.28395465 2.33399844 0.77757293 -0.15593386 0.86205250
11.32480335 -0.97064543 2.18577480 0.76198328 -0.53303051 0.80730671
11.87679577 -1.66957271 2.19797373 0.79912376 -0.91684681 0.81181234
13.22421741 -0.24530444 1.72534955 0.88978428 -0.13470908 0.63725060
13.39894962 -1.23639870 1.58653486 0.90154105 -0.67896909 0.58597994
11.33263588 -0.89962274 2.18615818 0.76251024 -0.49402836 0.80744833
11.68052864 -1.56684983 2.15918517 0.78591806 -0.86043650 0.79748595
13.41040611 -1.15253246 1.58704364 0.90231192 -0.63291389 0.58616787
11.32827473 -0.82770270 2.18424129 0.76221681 -0.45453343 0.80674028
11.67454338 -1.49140823 2.15625787 0.78551531 -0.81900769 0.79640472
13.37981415 -1.06520200 1.58221030 0.90025353 -0.58495629 0.58438271
11.49514580 -0.06559882 2.32075262 0.77344465 -0.03602363 0.85716021
11.33009052 -0.77418017 2.18385792 0.76233900 -0.42514148 0.80659872
11.60925007 -1.42737341 2.14271832 0.78112209 -0.78384292 0.79140395
13.38270760 -1.00198841 1.58195591 0.90044820 -0.55024254 0.58428872
11.54626846 -0.01156948 2.33118868 0.77688444 -0.00635338 0.86101472
11.32297516 -0.70226830 2.18155766 0.76186025 -0.38565105 0.80574912
11.60822582 -1.35324728 2.14088869 0.78105319 -0.74313653 0.79072821
13.37686539 -0.91705108 1.58042955 0.90005511 -0.50359917 0.58372498
11.41898441 -1.53594184 2.70748997 0.76832020 -0.84346336 1.00000000
11.70481682 0.06153621 2.36370134 0.78755224 0.03379265 0.87302309
11.35656548 -0.63269585 2.18730831 0.76412034 -0.34744531 0.80787307
11.61259174 -1.27984679 2.14015675 0.78134692 -0.70282859 0.79045784
13.39028263 -0.83348918 1.58144712 0.90095788 -0.45771107 0.58410084
11.32036018 -1.45012760 2.68156052 0.76168430 -0.79633844 0.99042308
12.82357979 -0.12304278 1.92454684 0.86282760 -0.06756901 0.71082324
11.35051250 -0.56086159 2.18539143 0.76371306 -0.30799747 0.80716509
11.58911800 -1.20355368 2.13430190 0.77976751 -0.66093218 0.78829539
13.78544998 -0.27196318 1.72668564 0.92754656 -0.14934874 0.63774407
13.39525509 -0.74933964 1.58144712 0.90129250 -0.41150030 0.58410084
11.26552582 -1.37110007 2.66628051 0.75799477 -0.75294042 0.98477948
