6.78914309 0.46080327 1.35982168 0.74983883 0.31585866 0.62714541
5.06563568 1.11372638 2.02371955 0.55948305 0.76340634 0.93333298
4.88617182 0.81506610 1.89523017 0.53966182 0.55868894 0.87407410
6.96149063 0.03114090 1.32548535 0.76887405 0.02134560 0.61130959
4.94905186 0.48739377 1.85649872 0.54660672 0.33408520 0.85621125
5.01640034 0.23344688 1.82912052 0.55404514 0.16001670 0.84358454
4.69827032 0.56973064 2.04553413 0.51890874 0.39052320 0.94339377
4.70720434 0.32528242 1.99664617 0.51989543 0.22296560 0.92084682
5.15559864 -0.10084602 1.82177234 0.56941915 -0.06912514 0.84019560
5.33758163 -0.37785247 1.83438909 0.58951861 -0.25899985 0.84601438
4.79108858 -0.00369087 1.96690536 0.52916020 -0.00252992 0.90713042
4.99461746 -0.25818080 2.00342846 0.55163932 -0.17697063 0.92397481
5.44616079 1.04035497 1.80445576 0.60151082 0.71311373 0.83220923
5.48377609 0.67622077 1.75453281 0.60566527 0.46351710 0.80918491
5.66728067 0.40921247 1.75012326 0.62593275 0.28049564 0.80715126
7.08985567 -0.08868097 1.72998691 0.78305155 -0.06078658 0.79786444
5.79171181 0.04294414 1.72356677 0.63967580 0.02943616 0.79490346
5.99786615 -0.26729143 1.72455931 0.66244489 -0.18321553 0.79536122
8.46294022 0.44454575 1.26029491 0.93470430 0.30471492 0.58124399
6.79393148 0.50400782 1.36142719 0.75036770 0.34547332 0.62788588
5.05491543 1.14469719 2.02224326 0.55829901 0.78463537 0.93265212
4.89014053 0.84730357 1.89886248 0.54010016 0.58078617 0.87574929
6.95330667 0.07477295 1.32395184 0.76797020 0.05125329 0.61060232
4.95704126 0.51969469 1.86076653 0.54748917 0.35622594 0.85817957
5.02607059 0.26550907 1.83329797 0.55511320 0.18199381 0.84551114
4.72338867 0.35615441 2.00456071 0.52168298 0.24412687 0.92449695
5.16553831 -0.06853845 1.82516122 0.57051694 -0.04697984 0.84175849
5.33231544 -0.34379363 1.83174992 0.58893692 -0.23565415 0.84479719
4.79839754 0.02648432 1.96999145 0.52996743 0.01815374 0.90855372
5.08122492 -0.23100288 2.03817034 0.56120479 -0.15834147 0.93999761
5.44697094 1.07599759 1.80697525 0.60160029 0.73754507 0.83337122
8.06161022 0.43409866 2.05397344 0.89037871 0.29755393 0.94728595
5.48130512 0.71091443 1.75514913 0.60539240 0.48729795 0.80946916
5.64747334 0.44352970 1.74472773 0.62374514 0.30401847 0.80466282
7.07668734 -0.04408704 1.72660601 0.78159720 -0.03021956 0.79630518
5.77793360 0.07910292 1.71949923 0.63815403 0.05422128 0.79302752
6.02243853 -0.23055942 1.73130894 0.66515881 -0.15803750 0.79847413
8.09557819 0.90287769 1.28437173 0.89413035 0.61887962 0.59234816
7.11178017 0.42164093 1.05407488 0.78547305 0.28901476 0.48613596
6.77890968 0.54577672 1.35901892 0.74870861 0.37410393 0.62677515
5.03496313 1.17343223 2.01707578 0.55609536 0.80433184 0.93026888
4.91041517 0.88252223 1.90903294 0.54233944 0.60492688 0.88043988
6.93896198 0.11818584 1.32126820 0.76638585 0.08101076 0.60936469
5.01868677 0.29677406 1.83120930 0.55429769 0.20342447 0.84454787
4.71190119 0.38511637 2.00060344 0.52041423 0.26397890 0.92267191
5.14893198 -0.03602967 1.81906116 0.56868285 -0.02469662 0.83894521
5.30987310 -0.30876464 1.82317269 0.58645827 -0.21164344 0.84084141
4.95861340 -0.19372042 1.98756814 0.54766279 -0.13278611 0.91666007
5.44940901 1.11206424 1.81012452 0.60186958 0.76226699 0.83482361
8.10318375 0.48730427 2.06549454 0.89497036 0.33402383 0.95259947
5.47296143 0.74481320 1.75391650 0.60447085 0.51053393 0.80890065
5.65218210 0.47962287 1.74712574 0.62426519 0.32875860 0.80576879
7.07488394 0.00037199 1.72612298 0.78139800 0.00025498 0.79608238
5.78114891 0.11549485 1.72066140 0.63850915 0.07916622 0.79356354
6.00650549 -0.19210443 1.72624671 0.66339904 -0.13167843 0.79613948
7.22738218 0.47374353 1.07219088 0.79824096 0.32472861 0.49449101
6.78315687 0.58901352 1.36062443 0.74917769 0.40374067 0.62751561
4.91210651 0.91469228 1.91193879 0.54252625 0.62697792 0.88178003
6.94200706 0.16188502 1.32203496 0.76672220 0.11096446 0.60971826
4.93156385 0.57968581 1.85365355 0.54467523 0.39734697 0.85489911
5.05415058 0.33059862 1.84513438 0.55821455 0.22660959 0.85097009
4.72769213 0.41624683 2.00851798 0.52215827 0.28531736 0.92632204
5.15846491 -0.00364703 1.82245004 0.56973571 -0.00249986 0.84050810
5.31359339 -0.27550080 1.82383251 0.58686918 -0.18884267 0.84114569
4.76263571 0.08599649 1.95533252 0.52601767 0.05894649 0.90179312
4.88015413 -0.15962610 1.95509195 0.53899723 -0.10941608 0.90168214
5.44045544 1.14589727 1.80949461 0.60088068 0.78545797 0.83453310
5.47382116 0.78001195 1.75576544 0.60456580 0.53466100 0.80975342
5.62814856 0.51329583 1.74053121 0.62161076 0.35183981 0.80272740
7.09997129 0.04505688 1.73240197 0.78416884 0.03088435 0.79897821
6.57289267 -0.30247191 1.53139901 0.72595471 -0.20733006 0.70627630
5.76500607 0.15136057 1.71601284 0.63672626 0.10375045 0.79141963
5.99992037 -0.15413773 1.72399676 0.66267174 -0.10565407 0.79510176
7.12582541 0.88308632 1.12812209 0.78702432 0.60531360 0.52028632
8.53392506 0.60956305 1.27267420 0.94254434 0.41782641 0.58695328
6.77932215 0.63162142 1.36062443 0.74875414 0.43294635 0.62751561
5.07045841 1.24084210 2.03700709 0.56001568 0.85053807 0.93946117
4.92056322 0.94022590 1.91702402 0.54346025 0.64448005 0.88412535
6.93528080 0.19441427 1.32088482 0.76597929 0.13326171 0.60918784
7.42191410 -0.17776884 1.34755373 0.81972635 -0.12185206 0.62148744
4.90466928 0.59986943 1.84440660 0.54170483 0.41118190 0.85063440
5.05440712 0.35453567 1.84583068 0.55824286 0.24301730 0.85129118
4.70707989 0.68378454 2.05600452 0.51988173 0.46870169 0.94822270
4.72201872 0.43819711 2.00693488 0.52153164 0.30036321 0.92559195
5.14337254 0.02054197 1.81702781 0.56806880 0.01408054 0.83800739
5.30163336 -0.24978554 1.81921399 0.58554822 -0.17121609 0.83901566
4.75111055 0.10813955 1.95070338 0.52474475 0.07412451 0.89965814
4.79200649 -0.13376980 1.91883957 0.52926159 -0.09169282 0.88496268
5.47027922 1.17899263 1.82146204 0.60417461 0.80814326 0.84005249
5.48513556 0.80807167 1.76069605 0.60581541 0.55389458 0.81202739
5.62756729 0.53998750 1.74113071 0.62154657 0.37013569 0.80300391
7.09773970 0.07848707 1.73191893 0.78392231 0.05379914 0.79875547
6.56647015 -0.27114949 1.52954698 0.72524536 -0.18586004 0.70542216
5.75849104 0.17832778 1.71426952 0.63600665 0.12223519 0.79061562
5.93918133 -0.12436616 1.70599771 0.65596330 -0.08524708 0.78680068
8.53292942 0.64991677 1.27297604 0.94243437 0.44548696 0.58709246
6.69358397 0.99917918 1.41318369 0.73928463 0.68488967 0.65175581
6.78992414 0.66485697 1.36343420 0.74992514 0.45572776 0.62881148
4.93285370 0.97466195 1.92428863 0.54481769 0.66808426 0.88747573
6.93588400 0.23805888 1.32126820 0.76604593 0.16317801 0.60936469
7.26365232 -0.12788300 1.31791353 0.80224687 -0.08765770 0.60781747
4.94156837 0.63609093 1.86005533 0.54578018 0.43601000 0.85785156
5.05955982 0.38682795 1.84861565 0.55881196 0.26515213 0.85257560
4.69907331 0.71278173 2.05439377 0.51899743 0.48857790 0.94747984
5.12808990 0.05264390 1.81160557 0.56638092 0.03608488 0.83550668
5.29178143 -0.21596429 1.81525528 0.58446008 -0.14803322 0.83718991
4.72267485 0.13706727 1.93913066 0.52160412 0.09395308 0.89432085
4.85754776 -0.10533475 1.94527364 0.53650039 -0.07220195 0.89715397
6.20310450 1.22490776 1.71098983 0.68511277 0.83961588 0.78910303
5.47945452 1.21698356 1.82713079 0.60518801 0.83418423 0.84266686
7.18413210 0.55905044 1.82956088 0.79346412 0.38320243 0.84378761
5.46679354 0.84044743 1.75638175 0.60378963 0.57608664 0.81003761
5.63165855 0.57608503 1.74352872 0.62199843 0.39487883 0.80410987
7.06994057 0.12253265 1.72515702 0.78085202 0.08399029 0.79563689
5.76108122 0.21466169 1.71543169 0.63629276 0.14714035 0.79115158
5.98014402 -0.08777554 1.71780956 0.66048753 -0.06016595 0.79224825
8.54050255 0.70446467 1.27478766 0.94327080 0.48287696 0.58792800
6.78171396 0.70711118 1.36263144 0.74901831 0.48469099 0.62844127
4.92297792 1.00490594 1.92283571 0.54372698 0.68881512 0.88680565
6.89895248 0.28009605 1.31436753 0.76196694 0.19199249 0.60618210
7.22499132 -0.08168664 1.31059492 0.79797685 -0.05599229 0.60444218
4.91155529 0.66351712 1.85009694 0.54246539 0.45480934 0.85325879
5.03833866 0.41713846 1.84165311 0.55646819 0.28592852 0.84936452
4.69088793 0.74170536 2.05278277 0.51809335 0.50840366 0.94673681
4.76182461 0.50212085 2.02672124 0.52592808 0.34417990 0.93471736
5.11825180 0.08467039 1.80821669 0.56529433 0.05803752 0.83394372
5.27982712 -0.18220435 1.81063676 0.58313978 -0.12489240 0.83505988
4.73278284 0.16717614 1.94375980 0.52272052 0.11459128 0.89645576
4.85996532 -0.07484826 1.94602895 0.53676742 -0.05130492 0.89750230
5.67541695 1.29720199 1.89641535 0.62683141 0.88917011 0.87462068
7.17468786 0.60370761 1.82805812 0.79242104 0.41381279 0.84309453
5.44826174 0.87262470 1.75206757 0.60174286 0.59814262 0.80804795
5.61843967 0.61046183 1.74053121 0.62053847 0.41844249 0.80272740
7.09813309 0.16772275 1.73240197 0.78396577 0.11496595 0.79897821
5.76726484 0.25121522 1.71775603 0.63697571 0.17219606 0.79222357
5.95754766 -0.04992807 1.71105993 0.65799183 -0.03422331 0.78913534
8.58515072 0.76236773 1.28233600 0.94820207 0.52256674 0.59140927
6.69400692 1.08544397 1.41611171 0.73933136 0.74402010 0.65310621
6.79077387 0.75117505 1.36544108 0.75001895 0.51489466 0.62973708
4.93846560 1.04033911 1.93155324 0.54543751 0.71310288 0.89082617
6.91077995 0.32412171 1.31705117 0.76327324 0.22216998 0.60741979
7.23715925 -0.03638183 1.31279051 0.79932076 -0.02493801 0.60545480
4.91653776 0.69571137 1.85365355 0.54301566 0.47687697 0.85489911
5.03561783 0.44878682 1.84165311 0.55616766 0.30762196 0.84936452
4.70599127 0.77451915 2.06164241 0.51976150 0.53089595 0.95082289
4.81153631 0.53772366 2.04967332 0.53141856 0.36858392 0.94530278
5.11197567 0.11667618 1.80618334 0.56460112 0.07997596 0.83300596
5.26954556 -0.14866368 1.80667806 0.58200425 -0.10190187 0.83323413
4.72979593 0.19682497 1.94298828 0.52239060 0.13491413 0.89609998
4.84182215 -0.04406461 1.93847632 0.53476357 -0.03020419 0.89401907
7.15532207 0.64742315 1.82405078 0.79028213 0.44377771 0.84124637
5.47830820 0.91291249 1.76377761 0.60506135 0.62575799 0.81344861
5.62966347 0.64744073 1.74532723 0.62177807 0.44378975 0.80493933
7.09111977 0.21212725 1.73095298 0.78319120 0.14540312 0.79830998
5.76557255 0.28744683 1.71775603 0.63678879 0.19703110 0.79222357
5.98077440 -0.01262189 1.71780956 0.66055715 -0.00865170 0.79224825
8.61365795 0.81939864 1.28746891 0.95135057 0.56165868 0.59377652
6.79760027 0.79515874 1.36784947 0.75077289 0.54504341 0.63084781
6.89684772 0.36687648 1.31475091 0.76173449 0.25147635 0.60635889
7.23134613 0.00910017 1.31169271 0.79867876 0.00623774 0.60494846
4.92315722 0.72827554 1.85792136 0.54374677 0.49919817 0.85686737
5.01402760 0.47871092 1.83469057 0.55378312 0.32813352 0.84615344
4.70103168 0.80407226 2.06164241 0.51921374 0.55115318 0.95082289
4.74783945 0.56108725 2.02355552 0.52438349 0.38459855 0.93325734
5.10738039 0.14866869 1.80482781 0.56409359 0.10190530 0.83238083
5.26848793 -0.11550277 1.80601835 0.58188742 -0.07917164 0.83292991
4.74504995 0.22740504 1.94993186 0.52407539 0.15587531 0.89930230
4.84755898 -0.01368086 1.94074214 0.53539717 -0.00937758 0.89506406
7.15111303 0.69236827 1.82405078 0.78981727 0.47458544 0.84124637
5.47059059 0.94698405 1.76316130 0.60420901 0.64911240 0.81316435
5.63495922 0.68391550 1.74832475 0.62236297 0.46879146 0.80632180
7.10904026 0.25743538 1.73578286 0.78517044 0.17645968 0.80053747
7.34155035 -0.12086447 1.71290600 0.81085044 -0.08284684 0.78998679
5.77320433 0.32423723 1.72066140 0.63763171 0.22224917 0.79356354
5.96538162 0.02494458 1.71330988 0.65885705 0.01709832 0.79017305
8.64572144 0.87720776 1.29320562 0.95489192 0.60128409 0.59642231
6.80997705 0.83996010 1.37146199 0.75213987 0.57575262 0.63251388
6.89440680 0.41020313 1.31475091 0.76146489 0.28117469 0.60635889
7.21934891 0.05447979 1.30949712 0.79735368 0.03734330 0.60393590
4.90371466 0.75685251 1.85223091 0.54159939 0.51878631 0.85424298
5.00532293 0.50965816 1.83260179 0.55282170 0.34934637 0.84519005
4.71209669 0.83654255 2.06889105 0.52043581 0.57341003 0.95416594
4.85910749 0.60472101 2.07341671 0.53667265 0.41450742 0.95625317
5.10446548 0.18068211 1.80415010 0.56377167 0.12384897 0.83206826
5.26155901 -0.08225060 1.80337918 0.58112216 -0.05637886 0.83171272
4.71221256 0.25538185 1.93681610 0.52044863 0.17505208 0.89325339
4.81977034 0.01679772 1.92941320 0.53232801 0.01151404 0.88983917
7.15240145 0.73786581 1.82555354 0.78995955 0.50577182 0.84193945
5.45704651 0.97996521 1.76069605 0.60271311 0.67171943 0.81202739
5.64001846 0.72048229 1.75132215 0.62292176 0.49385625 0.80770415
7.34605598 -0.07478446 1.71383202 0.81134808 -0.05126118 0.79041386
5.77105331 0.36050469 1.72066140 0.63739413 0.24710877 0.79356354
8.64003849 0.93151271 1.29320562 0.95426422 0.63850754 0.59642231
6.81039667 0.88347048 1.37266612 0.75218624 0.60557687 0.63306922
5.07065868 1.15939379 1.99184930 0.56003779 0.79470915 0.91863453
6.88652134 0.44229284 1.31360078 0.76059395 0.30317065 0.60582846
7.21507978 0.08846232 1.30876529 0.79688215 0.06063670 0.60359836
4.91485214 0.78236336 1.85792136 0.54282951 0.53627276 0.85686737
5.02338219 0.53534240 1.84026062 0.55481631 0.36695167 0.84872228
4.71530056 0.86008292 2.07211280 0.52078968 0.58954585 0.95565176
4.82157516 0.62328303 2.05837917 0.53252733 0.42723081 0.94931787
5.11671591 0.20531461 1.80889452 0.56512469 0.14073338 0.83425635
5.26188803 -0.05745526 1.80337918 0.58115846 -0.03938284 0.83171272
4.71648121 0.27793416 1.93913066 0.52092004 0.19051062 0.89432085
4.84186077 0.03959848 1.93847632 0.53476781 0.02714287 0.89401907
7.15654755 0.77237171 1.82755721 0.79041749 0.52942395 0.84286350
5.45797777 1.00672591 1.76254499 0.60281593 0.69006258 0.81288010
5.63277578 0.74656427 1.75012326 0.62212181 0.51173419 0.80715126
5.77119923 0.38783106 1.72124243 0.63741022 0.26583970 0.79383147
9.05413628 1.01835096 1.35751724 1.00000000 0.69803101 0.62608260
6.80810022 0.91580927 1.37306762 0.75193262 0.62774360 0.63325441
5.15041924 1.21137393 2.02671933 0.56884712 0.83033907 0.93471646
6.89535236 0.48641643 1.31590104 0.76156932 0.33341527 0.60688937
7.17702770 0.13320653 1.30181265 0.79267943 0.09130672 0.60039181
4.91536808 0.81416756 1.86005533 0.54288650 0.55807304 0.85785156
5.01432753 0.56628579 1.83817184 0.55381620 0.38816190 0.84775895
4.72777700 0.89316726 2.08016682 0.52216762 0.61222357 0.95936626
4.89587021 0.66385525 2.09241152 0.54073298 0.45504111 0.96501350
5.10592890 0.23698603 1.80550563 0.56393331 0.16244262 0.83269340
5.25459337 -0.02432873 1.80074000 0.58035278 -0.01667618 0.83049554
4.66678238 0.30423388 1.91907120 0.51543099 0.20853782 0.88506949
4.80818367 0.06967777 1.92488170 0.53104830 0.04776079 0.88774925
7.14578056 0.81667882 1.82605445 0.78922832 0.55979437 0.84217048
5.44033909 1.03881693 1.75884712 0.60086781 0.71205950 0.81117463
5.62041092 0.78091782 1.74772525 0.62075615 0.53528196 0.80604529
5.78772926 0.42555490 1.72705317 0.63923591 0.29169759 0.79651141
6.82356215 0.96151173 1.37748289 0.75364029 0.65907043 0.63529068
5.15177059 1.24586606 2.03035164 0.56899637 0.85398179 0.93639165
6.88824654 0.52941895 1.31513429 0.76078451 0.36289144 0.60653573
7.18587780 0.17851454 1.30364227 0.79365689 0.12236320 0.60123563
4.92304134 0.84730732 1.86503446 0.54373395 0.58078879 0.86014789
5.02184582 0.59906793 1.84234941 0.55464661 0.41063249 0.84968567
4.74002361 0.92644215 2.08822107 0.52352023 0.63503194 0.96308088
4.77151299 0.67805499 2.04017591 0.52699816 0.46477437 0.94092262
5.09494591 0.26853001 1.80211675 0.56272024 0.18406452 0.83113045
5.24897861 0.00869968 1.79876065 0.57973266 0.00596322 0.82958263
4.82801914 0.10022391 1.93318951 0.53323907 0.06869871 0.89158082
7.12897015 0.86020166 1.82304895 0.78737164 0.58962721 0.84078431
5.45981836 1.07823515 1.76747561 0.60301924 0.73907876 0.81515408
5.62483883 0.81755471 1.75072277 0.62124521 0.56039476 0.80742770
6.82708216 1.00576544 1.37948978 0.75402910 0.68940425 0.63621628
6.88478422 0.57268834 1.31513429 0.76040208 0.39255056 0.60653573
7.15906334 0.22293787 1.29888523 0.79069531 0.15281329 0.59904170
4.91762018 0.87822276 1.86503446 0.54313523 0.60197985 0.86014789
5.01239920 0.62993020 1.84026062 0.55360323 0.43178710 0.84872228
4.71618032 0.95250612 2.08016682 0.52088684 0.65289754 0.95936626
4.71989202 0.70120543 2.01959825 0.52129680 0.48064288 0.93143225
5.06498909 0.29876208 1.79194999 0.55941164 0.20478716 0.82644159
5.23371601 0.04161818 1.79348242 0.57804698 0.02852728 0.82714838
4.80507708 0.13004982 1.92412639 0.53070521 0.08914296 0.88740093
7.11958170 0.90449983 1.82204711 0.78633469 0.61999148 0.84032232
5.45293570 1.11251867 1.76747561 0.60225910 0.76257849 0.81515408
5.62714100 0.85399842 1.75312066 0.62149948 0.58537519 0.80853361
6.87293863 1.05652583 1.39032745 0.75909382 0.72419810 0.64121455
6.88105011 0.61593515 1.31513429 0.75998968 0.42219418 0.60653573
7.15162611 0.26771098 1.29778743 0.78987390 0.18350312 0.59853542
4.93955469 0.91431844 1.87570405 0.54555780 0.62672168 0.86506867
5.01578140 0.66236335 1.84304559 0.55397677 0.45401850 0.85000670
4.72800779 0.98593229 2.08822107 0.52219313 0.67580956 0.96308088
4.74626923 0.73549825 2.03305292 0.52421004 0.50414896 0.93763751
5.07052040 0.33110073 1.79466116 0.56002253 0.22695376 0.82769197
5.24467897 0.07461879 1.79744112 0.57925779 0.05114762 0.82897407
4.82082510 0.16072337 1.93092370 0.53244448 0.11016821 0.89053583
7.14063740 0.95272446 1.82905996 0.78866023 0.65304720 0.84355658
5.44769859 1.14715719 1.76809192 0.60168064 0.78632158 0.81543833
5.61223555 0.88788068 1.75012326 0.61985320 0.60859990 0.80715126
7.33334398 0.14426306 1.71105385 0.80994409 0.09888545 0.78913254
6.87704420 0.65915763 1.31513429 0.75954723 0.45182112 0.60653573
7.13801527 0.31215852 1.29559183 0.78837067 0.21396978 0.59752280
4.93004370 0.94461793 1.87428141 0.54450732 0.64749056 0.86441261
5.01523685 0.69436449 1.84443820 0.55391663 0.47595376 0.85064900
4.73960066 1.01954460 2.09627509 0.52347350 0.69884920 0.96679538
4.76151371 0.76844007 2.04175878 0.52589375 0.52672905 0.94165260
5.06458759 0.36266917 1.79330564 0.55936730 0.24859242 0.82706684
5.23277998 0.10738198 1.79348242 0.57794356 0.07360523 0.82714838
4.79380941 0.19009268 1.92035007 0.52946073 0.13029946 0.88565928
7.16520405 1.00177467 1.83707476 0.79137355 0.68666875 0.84725296
5.47568226 1.18916345 1.77980196 0.60477138 0.81511486 0.82083899
5.63103533 0.92706788 1.75791669 0.62192959 0.63546085 0.81074554
7.34979916 0.19074254 1.71522117 0.81176150 0.13074492 0.79105449
6.88557673 0.69277090 1.31743455 0.76048964 0.47486141 0.60759658
7.13842916 0.34588161 1.29595768 0.78841639 0.23708536 0.59769154
4.94752979 0.97225362 1.88281703 0.54643863 0.66643351 0.86834919
5.03047895 0.72057462 1.85140073 0.55560011 0.49391955 0.85386008
4.75439167 1.04627812 2.10513473 0.52510715 0.71717376 0.97088140
5.06844902 0.38698363 1.79533899 0.55979377 0.26525882 0.82800460
5.23032808 0.13199930 1.79282260 0.57767278 0.09047922 0.82684404
4.80581331 0.21320055 1.92563689 0.53078651 0.14613882 0.88809758
7.23133612 1.04558325 1.85560882 0.79867762 0.71669745 0.85580087
5.63036919 0.95421731 1.75911570 0.62185603 0.65407050 0.81129855
7.18183422 0.60004967 1.75896668 0.79321033 0.41130543 0.81122983
6.87523460 0.73537678 1.31628442 0.75934738 0.50406569 0.60706615
7.12237024 0.39001319 1.29339623 0.78664273 0.26733544 0.59651017
4.92484999 0.99990642 1.87641525 0.54393369 0.68538815 0.86539668
5.01472044 0.75054711 1.84722316 0.55385959 0.51446426 0.85193342
4.76556063 1.08025122 2.11318874 0.52634072 0.74046069 0.97459590
5.06216812 0.41849673 1.79398334 0.55910003 0.28685954 0.82737935
5.22562075 0.16475528 1.79150307 0.57715285 0.11293189 0.82623547
7.84519529 1.18294525 2.01790714 0.86647642 0.81085259 0.93065232
5.63178349 0.99087071 1.76151371 0.62201226 0.67919463 0.81240445
7.17792225 0.64516234 1.75896668 0.79277825 0.44222802 0.81122983
5.93829632 0.34241575 1.70824754 0.65586555 0.23470967 0.78783828
6.89192581 0.78105474 1.32050145 0.76119089 0.53537577 0.60901105
7.14529705 0.43624157 1.29815328 0.78917491 0.29902279 0.59870416
4.95502853 1.03864682 1.89064145 0.54726684 0.71194285 0.87195778
5.01732016 0.78316748 1.85000825 0.55414677 0.53682399 0.85321790
4.77470875 1.11398256 2.12043738 0.52735108 0.76358193 0.97793895
4.77828407 0.85597134 2.05521345 0.52774596 0.58672756 0.94785786
5.06505966 0.45081773 1.79601669 0.55941939 0.30901405 0.82831717
5.21127415 0.19713727 1.78688455 0.57556832 0.13512820 0.82410544
4.79350805 0.27308628 1.92186069 0.52942741 0.18718763 0.88635600
7.75915337 1.22008598 1.99736941 0.85697335 0.83631074 0.92118037
5.62920332 1.02690792 1.76271272 0.62172723 0.70389640 0.81295747
7.16986418 0.68986684 1.75800061 0.79188824 0.47287083 0.81078428
5.89196491 0.37705278 1.69531071 0.65074843 0.25845170 0.78187186
6.88688231 0.82434225 1.32050145 0.76063383 0.56504732 0.60901105
7.11494446 0.47935581 1.29303026 0.78582257 0.32857555 0.59634143
4.94657946 1.06935716 1.88993013 0.54633367 0.73299336 0.87162971
5.02526283 0.81673014 1.85488200 0.55502397 0.55982959 0.85546565
4.82274389 1.15743065 2.14540529 0.53265643 0.79336351 0.98945403
4.73485899 0.87909627 2.03859305 0.52294981 0.60257858 0.94019258
5.08646870 0.48505238 1.80482781 0.56178397 0.33248028 0.83238083
5.22502470 0.23048350 1.79216278 0.57708704 0.15798545 0.82653975
4.78245449 0.30265358 1.91808438 0.52820659 0.20745459 0.88461435
6.95609760 1.14075518 1.78898633 0.76827842 0.78193331 0.82507479
5.64702940 1.06677485 1.77050614 0.62369609 0.73122329 0.81655174
7.16345835 0.73469907 1.75751770 0.79118073 0.50360119 0.81056154
5.87990475 0.41342536 1.69249833 0.64941645 0.28338337 0.78057480
6.88935375 0.86860222 1.32203496 0.76090682 0.59538543 0.60971826
7.11571503 0.52432835 1.29376221 0.78590769 0.35940209 0.59667897
4.95981455 1.10496759 1.89775443 0.54779541 0.75740260 0.87523824
5.02188206 0.84859347 1.85557830 0.55465060 0.58167034 0.85578674
4.82425404 1.18993819 2.14943218 0.53282320 0.81564587 0.99131125
4.76354027 0.91526985 2.05363059 0.52611756 0.62737381 0.94712788
5.07583570 0.51621044 1.80211675 0.56060958 0.35383764 0.83113045
5.21970129 0.26313311 1.79084325 0.57649910 0.18036520 0.82593119
4.79709005 0.33378306 1.92488170 0.52982306 0.22879237 0.88774925
6.91059971 1.17804205 1.77896786 0.76325333 0.80749166 0.82045430
5.64583683 1.10331285 1.77230465 0.62356436 0.75626838 0.81738120
7.14712763 0.77840006 1.75461972 0.78937709 0.53355610 0.80922502
5.88676167 0.45106167 1.69531071 0.65017372 0.30918127 0.78187186
6.92071819 0.91687775 1.32931912 0.76437092 0.62847596 0.61307770
7.12796354 0.57023686 1.29668963 0.78726047 0.39087018 0.59802908
4.95459414 1.13653421 1.89846575 0.54721886 0.77904004 0.87556630
5.02384281 0.88139647 1.85836327 0.55486715 0.60415524 0.85707116
4.79195309 0.95183831 2.06866813 0.52925569 0.65243977 0.95406312
5.06688213 0.54746366 1.80008340 0.55962068 0.37526023 0.83019269
5.22737217 0.29642189 1.79414213 0.57734632 0.20318307 0.82745260
4.78750944 0.36338791 1.92186069 0.52876490 0.24908508 0.88635600
6.52153969 1.15507293 1.67878377 0.72028291 0.79174739 0.77424967
5.65376616 1.14173341 1.77710068 0.62444013 0.78260380 0.81959313
5.87233210 0.48712778 1.69193590 0.64858001 0.33390287 0.78031540
6.90899038 0.95951647 1.32816899 0.76307559 0.65770280 0.61254728
7.11248350 0.61403042 1.29449403 0.78555077 0.42088857 0.59701651
4.98188829 1.17593849 1.91198051 0.55023342 0.80604976 0.88179928
5.02928114 0.91491395 1.86254084 0.55546778 0.62712991 0.85899788
4.80208492 0.98518306 2.07579112 0.53037471 0.67529601 0.95734823
5.06147385 0.57906747 1.79940557 0.55902338 0.39692315 0.82988006
5.19901991 0.32770059 1.78490520 0.57421488 0.22462313 0.82319254
4.78882456 0.39374924 1.92337120 0.52891016 0.26989633 0.88705266
5.63900375 1.17570293 1.77470267 0.62280971 0.80588830 0.81848717
5.87680435 0.52467120 1.69418573 0.64907402 0.35963708 0.78135306
6.96459818 1.00089359 1.34005356 0.76921731 0.68606484 0.61802840
7.12909698 0.64926797 1.29815328 0.78738564 0.44504225 0.59870416
5.08158731 1.22522378 1.95323622 0.56124485 0.83983248 0.90082628
5.04151344 0.94163591 1.86880720 0.55681884 0.64544654 0.86188787
4.82077646 1.01261318 2.08608007 0.53243911 0.69409806 0.96209347
5.07549667 0.60498387 1.80550563 0.56057215 0.41468760 0.83269340
5.21249151 0.35315901 1.79018342 0.57570279 0.24207367 0.82562685
4.79798937 0.41722742 1.92790270 0.52992237 0.28598949 0.88914257
6.34852219 1.19707584 1.63670635 0.70117372 0.82053840 0.75484371
5.65394258 1.20657110 1.78129709 0.62445962 0.82704699 0.82152849
5.86088657 0.55114740 1.69024849 0.64731592 0.37778527 0.77953720
7.13662195 0.69515872 1.30034888 0.78821677 0.47649816 0.59971672
5.03733969 0.97364241 1.86950338 0.55635786 0.66738546 0.86220896
4.81252241 1.04250145 2.08528852 0.53152752 0.71458507 0.96172839
5.04733658 0.63371766 1.79669452 0.55746198 0.43438324 0.82862973
5.20263624 0.38537437 1.78754425 0.57461429 0.26415575 0.82440966
4.83475494 0.70019168 2.00625277 0.53398299 0.47994801 0.92527735
4.77867174 0.44588754 1.92110538 0.52778882 0.30563465 0.88600767
5.89987755 1.29693055 1.86282897 0.65162235 0.88898408 0.85913074
7.13642120 0.94787353 1.75703466 0.78819460 0.64972210 0.81033874
5.87641096 0.58981228 1.69587326 0.64903057 0.40428820 0.78213131
7.13993835 0.74077487 1.30181265 0.78858304 0.50776583 0.60039181
5.04400253 1.00779402 1.87437725 0.55709374 0.69079477 0.86445677
4.82561398 1.07703853 2.09399462 0.53297341 0.73825854 0.96574360
5.06003571 0.66770065 1.80279446 0.55886453 0.45767695 0.83144301
5.21328974 0.41906339 1.79216278 0.57579094 0.28724799 0.82653975
4.85031605 0.73367417 2.01473951 0.53570169 0.50289863 0.92919141
4.79605484 0.47783786 1.92941320 0.52970868 0.32753506 0.88983917
7.12263870 0.99160177 1.75510263 0.78667235 0.67969573 0.80944771
5.85540724 0.62494910 1.69081092 0.64671075 0.42837280 0.77979660
7.14491844 0.78666979 1.30364227 0.78913307 0.53922462 0.60123563
5.04675961 1.04132438 1.87785852 0.55739826 0.71377820 0.86606234
4.82591867 1.10895324 2.09716034 0.53300709 0.76013458 0.96720362
5.05387783 0.69921511 1.80211675 0.55818444 0.47927862 0.83113045
5.19926405 0.45087624 1.78820407 0.57424188 0.30905417 0.82471400
4.79111528 0.50777531 1.92865801 0.52916312 0.34805575 0.88949090
7.16042185 1.04289246 1.76621151 0.79084539 0.71485305 0.81457108
7.31542110 0.67434776 1.71383202 0.80796456 0.46223325 0.79041386
5.86853552 0.66360897 1.69587326 0.64816070 0.45487231 0.78213131
7.14374208 0.83199072 1.30437410 0.78900313 0.57028997 0.60157317
5.05847025 1.07684505 1.88482106 0.55869162 0.73812592 0.86927342
4.86000681 1.14880383 2.11536360 0.53677201 0.78745025 0.97559893
5.06241274 0.73289454 1.80686116 0.55912709 0.50236428 0.83331859
5.20197058 0.48403788 1.79018342 0.57454079 0.33178487 0.82562685
4.70788479 0.77219665 1.95841861 0.51997060 0.52930397 0.90321636
4.79335403 0.53846550 1.93092370 0.52941042 0.36909243 0.89053583
6.36568832 1.36665022 1.64973032 0.70306963 0.93677354 0.76085037
7.29360867 0.71862966 1.70966482 0.80555540 0.49258637 0.78849196
5.87759590 0.70201617 1.69981050 0.64916140 0.48119861 0.78394717
7.16960907 0.88060671 1.31022894 0.79186010 0.60361391 0.60427338
5.04793882 1.10781753 1.88342857 0.55752850 0.75935608 0.86863124
4.86519861 1.18230259 2.12090373 0.53734541 0.81041205 0.97815400
5.06886387 0.76642007 1.81092787 0.55983961 0.52534443 0.83519411
5.19506741 0.51635420 1.78886390 0.57377833 0.35393620 0.82501829
4.71384573 0.80366886 1.96304774 0.52062899 0.55087668 0.90535134
4.78251648 0.56773007 1.92790270 0.52821344 0.38915190 0.88914257
6.42129803 1.42064178 1.66676164 0.70921153 0.97378218 0.76870513
7.29862738 0.76543009 1.71197999 0.80610973 0.52466583 0.78955966
5.89592981 0.74172866 1.70656013 0.65118635 0.50841963 0.78706008
7.17513561 0.91559982 1.31205869 0.79247046 0.62760001 0.60511726
5.06463432 1.13643277 1.89178371 0.55937243 0.77897048 0.87248456
4.91310835 1.21826267 2.14464736 0.54263687 0.83506095 0.98910451
5.03361034 0.78524131 1.79940557 0.55594593 0.53824550 0.82988006
5.19821262 0.54139441 1.79084325 0.57412571 0.37110007 0.82593119
4.89161587 0.85851437 2.04019952 0.54026312 0.58847064 0.94093347
4.77243233 0.58938390 1.92488170 0.52709967 0.40399456 0.88774925
6.45043945 1.45889068 1.67627919 0.71243012 1.00000000 0.77309459
5.92473602 0.77361858 1.71612215 0.65436786 0.53027862 0.79147005
5.08299160 1.17403960 1.90153122 0.56139994 0.80474818 0.87698013
5.06198645 0.82241684 1.81160557 0.55908000 0.56372756 0.83550668
5.19283056 0.57384473 1.79018342 0.57353133 0.39334321 0.82562685
4.88431120 0.88889432 2.03942823 0.53945637 0.60929465 0.94057775
4.76863480 0.61935812 1.92488170 0.52668023 0.42454046 0.88774925
7.21437073 0.83709997 1.69392192 0.79680383 0.57379210 0.78123134
5.91975832 0.81082922 1.71612215 0.65381813 0.55578476 0.79147005
7.28188562 1.02203262 1.33438027 0.80426067 0.70055461 0.61541188
5.17593288 1.22940004 1.93982542 0.57166499 0.84269512 0.89464128
5.07526064 0.85741353 1.81838346 0.56054610 0.58771610 0.83863264
5.19287491 0.60688448 1.79150307 0.57353622 0.41599038 0.82623547
4.89131260 0.92201006 2.04482865 0.54022962 0.63199395 0.94306844
4.77750111 0.65100402 1.93016851 0.52765954 0.44623220 0.89018756
7.24374294 0.88657010 1.70225632 0.80004793 0.60770154 0.78507519
5.74288607 1.13055420 1.74216115 0.63428313 0.77494103 0.80347914
5.90504313 0.84667832 1.71330988 0.65219289 0.58035761 0.79017305
5.33035994 1.30085766 2.00179243 0.58872098 0.89167589 0.92322028
5.08088541 0.89127970 1.82245004 0.56116730 0.61092973 0.84050810
5.21895504 0.64307845 1.80205953 0.57641667 0.44079962 0.83110410
4.79349566 0.68380100 1.93847632 0.52942604 0.46871299 0.89401907
7.26891613 0.93595600 1.70966482 0.80282819 0.64155322 0.78849196
5.77877140 1.17553806 1.75552583 0.63824660 0.80577528 0.80964291
5.94138622 0.88987684 1.72568417 0.65620685 0.60996813 0.79588002
5.08998442 0.92593837 1.82787228 0.56217229 0.63468659 0.84300882
5.19982529 0.67397380 1.79678130 0.57430387 0.46197692 0.82866979
4.79643583 0.71496713 1.94149733 0.52975076 0.49007589 0.89541233
6.39122963 1.20746934 1.58412254 0.70589060 0.82766265 0.73059225
7.21467066 0.97522807 1.69808912 0.79683697 0.66847235 0.78315324
5.93757486 0.92747962 1.72624671 0.65578592 0.63574308 0.79613948
5.09884834 0.96074653 1.83329451 0.56315124 0.65854591 0.84550953
5.18987274 0.70589018 1.79480195 0.57320464 0.48385406 0.82775688
4.78818655 0.74453598 1.93998682 0.52883971 0.51034391 0.89471573
7.17949247 1.01652932 1.69114375 0.79295164 0.69678241 0.77995008
5.92404842 0.96356112 1.72399676 0.65429193 0.66047519 0.79510176
5.19584131 0.73161900 1.79810083 0.57386380 0.50148994 0.82927835
4.96920776 1.05893290 2.08803391 0.54883289 0.72584802 0.96299458
4.77913523 0.76623499 1.93772101 0.52784002 0.52521753 0.89367074
7.16884470 1.04952109 1.68975461 0.79177564 0.71939665 0.77930939
5.94406366 0.99550498 1.73130894 0.65650254 0.68237120 0.79847413
5.19488001 0.76478624 1.79942048 0.57375765 0.52422452 0.82988697
4.96785784 1.09134352 2.09034848 0.54868382 0.74806392 0.96406204
4.82175350 0.80396926 1.95735776 0.53254706 0.55108261 0.90272713
5.94525957 1.03412282 1.73355877 0.65663463 0.70884192 0.79951173
5.20117569 0.79908830 1.80337918 0.57445300 0.54773694 0.83171272
4.91954756 1.11300409 2.07260346 0.54334807 0.76291126 0.95587808
4.80747652 0.83270687 1.95358145 0.53097022 0.57078087 0.90098548
5.93864441 1.07145739 1.73355877 0.65590400 0.73443294 0.79951173
5.20164824 0.83262593 1.80535853 0.57450521 0.57072538 0.83262557
5.95256090 1.11255860 1.73974597 0.65744108 0.76260591 0.80236524
5.18699646 0.86377752 1.80205953 0.57288694 0.59207833 0.83110410
4.85497713 1.16249990 2.05100083 0.53621650 0.79683828 0.94591504
4.90595484 0.91293472 1.99889696 0.54184681 0.62577325 0.92188489
6.54551125 1.12867177 1.54621601 0.72293049 0.77365071 0.71310985
5.95299530 1.15136993 1.74199593 0.65748906 0.78920919 0.80340296
5.20008326 0.89949745 1.80865741 0.57433236 0.61656260 0.83414698
4.92096424 1.21135926 2.08263326 0.54350454 0.83032900 0.96050382
4.86554337 0.93722796 1.98454702 0.53738350 0.64242506 0.91526675
6.45014143 1.15428329 1.52491665 0.71239722 0.79120618 0.70328665
5.93057728 1.18579102 1.73749614 0.65501302 0.81280321 0.80132765
5.19392633 0.92366880 1.80799770 0.57365233 0.63313091 0.83384275
4.92289400 0.97209311 2.01022577 0.54371768 0.66632348 0.92710966
5.96819830 1.22243834 1.75043297 0.65916818 0.83792317 0.80729407
5.21031713 0.96030581 1.81591511 0.57546264 0.65824383 0.83749425
4.92758512 1.00518203 2.01475739 0.54423583 0.68900436 0.92919964
6.12388134 1.29390025 1.79936802 0.67636281 0.88690692 0.82986277
5.20974827 0.99406427 1.81789446 0.57539982 0.68138367 0.83840710
5.00641680 1.05371094 2.05025458 0.55294251 0.72226858 0.94557083
5.22008276 1.03000391 1.82383251 0.57654124 0.70601857 0.84114569
5.02143335 1.08977342 2.05931759 0.55460101 0.74698770 0.94975066
5.21535969 1.06315219 1.82449234 0.57601959 0.72874016 0.84145004
5.00725126 1.11971438 2.05629659 0.55303466 0.76751083 0.94835740
5.21412420 1.09704506 1.82647169 0.57588309 0.75197208 0.84236288
4.93508911 1.13645363 2.02910733 0.54506457 0.77898479 0.93581778
5.22552156 1.12511730 1.83240974 0.57714194 0.77121425 0.84510148
4.96757126 1.16845059 2.04496765 0.54865211 0.80091715 0.94313252
5.22941780 1.16033959 1.83636844 0.57757223 0.79535747 0.84692723
4.93490744 1.19364512 2.03439403 0.54504454 0.81818682 0.93825603
5.28834248 1.20806229 1.86012077 0.58408028 0.82806909 0.85788172
5.05863762 1.25671029 2.08952785 0.55871010 0.86141497 0.96368355
5.43333054 1.27655184 1.91488290 0.60009372 0.87501544 0.88313788
5.71151972 -0.46822274 1.90588212 0.63081884 -0.32094437 0.87898672
5.55753183 -0.42102256 1.85262191 0.61381137 -0.28859091 0.85442328
5.26339245 -0.49902132 2.06358218 0.58132464 -0.34205532 0.95171750
5.44605541 -0.38719103 1.81412053 0.60149914 -0.26540098 0.83666658
5.14973783 -0.45606935 2.01707578 0.56877184 -0.31261379 0.93026888
5.14323616 -0.42297858 2.01338482 0.56805378 -0.28993165 0.92856663
5.42211962 -0.31717205 1.80449522 0.59885556 -0.21740632 0.83222741
5.15506220 -0.39132154 2.01707578 0.56935990 -0.26823226 0.93026888
6.42932463 -0.49026540 1.79684114 0.71009809 -0.33605355 0.82869738
5.05540562 -0.35222748 1.97647512 0.55835319 -0.24143514 0.91154397
6.31902122 -0.44229734 1.76459634 0.69791543 -0.30317375 0.81382620
5.41242886 -0.24845412 1.80000329 0.59778523 -0.17030345 0.83015573
7.38480663 -0.34842345 1.64444160 0.81562793 -0.23882766 0.75841123
4.98329830 -0.31605288 1.94694746 0.55038917 -0.21663918 0.89792591
6.08739042 -0.38842031 1.69792044 0.67233253 -0.26624361 0.78307545
6.68718433 -0.27533823 1.48544407 0.73857784 -0.18873122 0.68508202
4.97174025 -0.29185677 1.94178009 0.54911262 -0.20005390 0.89554274
6.17175150 -0.36433336 1.72142100 0.68164992 -0.24973315 0.79391384
5.36371326 -0.18733603 1.78267777 0.59240472 -0.12840992 0.82216525
6.62603140 -0.24173857 1.47127163 0.73182368 -0.16570027 0.67854577
4.84722567 -0.25451416 1.89158285 0.53536034 -0.17445733 0.87239194
4.93972921 -0.22787628 1.92775440 0.54557705 -0.15619832 0.88907415
5.36374998 -0.11988544 1.78203607 0.59240878 -0.08217575 0.82186931
4.94292116 -0.19690110 1.92849255 0.54592961 -0.13496631 0.88941461
7.34706211 -0.12724784 1.63425517 0.81145918 -0.08722233 0.75371325
4.91619110 -0.16501997 1.91741967 0.54297739 -0.11311332 0.88430780
5.17546129 -0.43919253 1.98894346 0.57161289 -0.30104554 0.91729432
5.35157299 -0.05239546 1.77754414 0.59106392 -0.03591459 0.81979764
7.33601475 -0.08098594 1.63159776 0.81023908 -0.05551200 0.75248766
4.92642212 -0.13434260 1.92111063 0.54410738 -0.09208544 0.88601005
7.28566980 -0.03479052 1.62008262 0.80467862 -0.02384724 0.74717689
4.91956663 -0.11098900 1.91815782 0.54335016 -0.07607766 0.88464826
5.03878498 -0.37128454 1.93373263 0.55651748 -0.25449786 0.89183128
5.33667183 0.00637429 1.77241063 0.58941811 0.00436927 0.81743008
5.52443743 -0.27645680 1.80004680 0.61015618 -0.18949796 0.83017582
7.04586124 -0.00111195 1.56560719 0.77819252 -0.00076219 0.72205305
4.90158081 -0.07985079 1.91077590 0.54136372 -0.05473391 0.88124371
5.03358364 -0.33908683 1.93082678 0.55594301 -0.23242785 0.89049113
5.51279259 -0.24111098 1.79563773 0.60887009 -0.16527008 0.82814234
7.28738499 -0.12883447 1.23606563 0.80486804 -0.08830988 0.57006949
7.01842546 0.04291216 1.55940676 0.77516234 0.02941424 0.71919340
4.88525677 -0.04895389 1.90413213 0.53956079 -0.03355556 0.87817961
4.99842548 -0.30503228 1.91629755 0.55205989 -0.20908509 0.88379031
6.31109571 -0.38596880 1.71098983 0.69704008 -0.26456320 0.78910303
5.34564018 0.07360104 1.77561915 0.59040862 0.05045000 0.81890988
5.51988840 -0.20670260 1.79752731 0.60965377 -0.14168479 0.82901382
7.24076509 -0.08263740 1.22782528 0.79971904 -0.05664400 0.56626910
7.04336882 0.08739688 1.56516433 0.77791727 0.05990640 0.72184879
6.74229145 -0.26783496 1.45886993 0.74466425 -0.18358810 0.67282611
4.88918543 -0.01825657 1.90560853 0.53999466 -0.01251401 0.87886053
5.00396395 -0.27383918 1.91775048 0.55267161 -0.18770370 0.88446039
5.51538706 -0.17181797 1.79563773 0.60915661 -0.11777303 0.82814234
7.08362865 0.13253337 1.57446504 0.78236383 0.09084531 0.72613823
4.87433386 0.01236348 1.89970303 0.53835440 0.00847458 0.87613696
4.98325539 -0.24122097 1.90903294 0.55038440 -0.16534548 0.88043988
5.33861303 0.14059751 1.77369404 0.58963251 0.09637289 0.81802201
5.49738312 -0.13661884 1.78933918 0.60716814 -0.09364570 0.82523751
7.24320221 0.00836468 1.22816873 0.79998821 0.00573359 0.56642747
7.35559845 0.18464477 1.63646960 0.81240201 0.12656519 0.75473452
4.87230110 0.04296523 1.89896476 0.53812987 0.02945062 0.87579644
4.98467302 -0.20990568 1.90903294 0.55054098 -0.14388034 0.88043988
4.88277340 -0.42352828 2.11963201 0.53928649 -0.29030845 0.97756749
5.39820051 0.17634526 1.79422808 0.59621376 0.12087627 0.82749224
5.49813318 -0.10207529 1.78933918 0.60725099 -0.06996774 0.82523751
7.25482798 0.05399572 1.23022878 0.80127221 0.03701149 0.56737757
8.17880821 0.25902116 1.82381201 0.90332288 0.17754665 0.84113628
4.86832762 0.06585903 1.89748836 0.53769100 0.04514322 0.87511557
4.98002148 -0.18618208 1.90685356 0.55002725 -0.12761894 0.87943476
4.93399382 -0.40434888 2.14137816 0.54494363 -0.27716187 0.98759675
5.33485174 0.19921105 1.77305233 0.58921707 0.13654967 0.81772608
5.48147154 -0.07586511 1.78367043 0.60541075 -0.05200192 0.82262307
5.94970083 -0.47499257 1.89813578 0.65712517 -0.32558477 0.87541413
7.53227520 0.09233803 1.27864063 0.83191538 0.06329332 0.58970499
4.87153435 0.09653530 1.89896476 0.53804517 0.06617035 0.87579644
4.96805716 -0.15442961 1.90176833 0.54870582 -0.10585414 0.87708944
4.90539503 -0.37112042 2.12768626 0.54178500 -0.25438535 0.98128211
5.50271940 -0.04165798 1.79059887 0.60775751 -0.02855456 0.82581848
5.74188852 -0.42283398 1.82972407 0.63417298 -0.28983253 0.84386289
7.46654081 0.13828155 1.26731026 0.82465523 0.09478541 0.58447945
7.34868050 -0.07426307 1.59196770 0.81163794 -0.05090380 0.73421043
4.84853649 0.12646684 1.89010644 0.53550512 0.08668699 0.87171102
4.96334124 -0.12305011 1.89958894 0.54818493 -0.08434498 0.87608433
5.39703465 -0.49555719 2.02650070 0.59608495 -0.33968082 0.93461561
4.88388205 -0.33874375 2.11721587 0.53940892 -0.23219268 0.97645319
5.33949327 0.26663998 1.77561915 0.58972973 0.18276899 0.81890988
5.49338150 -0.00703548 1.78744960 0.60672617 -0.00482249 0.82436603
5.63999701 -0.38008788 1.79582644 0.62291938 -0.26053211 0.82822943
7.31189871 0.18096261 1.24052918 0.80757552 0.12404124 0.57212806
4.84207344 0.15672462 1.88789189 0.53479129 0.10742725 0.87068969
4.93979836 -0.09131487 1.89014494 0.54558474 -0.06259198 0.87172878
5.31247950 -0.45448247 1.99306941 0.58674616 -0.31152606 0.91919720
4.87129402 -0.30719012 2.11077261 0.53801864 -0.21056418 0.97348160
5.32258606 0.29927507 1.77048564 0.58786237 0.20513879 0.81654233
5.47243643 0.02745322 1.78052104 0.60441285 0.01881787 0.82117063
5.62517834 -0.34366095 1.79027951 0.62128270 -0.23556319 0.82567120
7.08416176 0.21924183 1.20104432 0.78242272 0.15027982 0.55391777
4.85027885 0.18754296 1.89158285 0.53569758 0.12855175 0.87239194
4.94772720 -0.06039721 1.89305079 0.54646045 -0.04139941 0.87306899
5.21084881 -0.41322547 1.95323622 0.57552135 -0.28324637 0.90082628
4.84387779 -0.27503917 2.09788585 0.53499061 -0.18852623 0.96753824
5.30925989 0.33195913 1.76663542 0.58639055 0.22754216 0.81476659
5.48923969 0.06196633 1.78618979 0.60626870 0.04247497 0.82378501
5.63292694 -0.30860206 1.79212844 0.62213850 -0.21153200 0.82652390
7.20273638 0.26856551 1.22198844 0.79551888 0.18408886 0.56357718
6.80591822 0.06101670 1.47183394 0.75169158 0.04182404 0.67880511
4.85643053 0.21837933 1.89453566 0.53637701 0.14968862 0.87375379
4.94800901 -0.02930874 1.89305079 0.54649156 -0.02008974 0.87306899
5.12196779 -0.37416545 1.91838229 0.56570476 -0.25647259 0.88475174
4.83819532 -0.24426045 2.09466434 0.53436297 -0.16742890 0.96605247
5.32596207 0.36668450 1.77305233 0.58823526 0.25134474 0.81772608
5.46976137 0.09619159 1.77989125 0.60411739 0.06593475 0.82088012
5.60244179 -0.27175352 1.78165102 0.61877155 -0.18627408 0.82169175
7.20090675 0.31381604 1.22198844 0.79531682 0.21510594 0.56357718
4.85720396 0.24136223 1.89527380 0.53646243 0.16544230 0.87409419
4.92759514 -0.00588248 1.88505983 0.54423690 -0.00403216 0.86938357
5.07144308 -0.34666428 1.89846575 0.56012446 -0.23762183 0.87556630
4.83197641 -0.22115432 2.09144258 0.53367615 -0.15159073 0.96456665
5.28073692 0.38841552 1.75829351 0.58324027 0.26624033 0.81091934
5.46545172 0.12189554 1.77863145 0.60364145 0.08355357 0.82029915
6.98337555 -0.45912063 1.84068251 0.77129120 -0.31470531 0.84891689
5.60366011 -0.24534971 1.78165102 0.61890608 -0.16817552 0.82169175
7.20131588 0.34784651 1.22233176 0.79536200 0.23843220 0.56373549
7.13636351 -0.01352152 1.17222774 0.78818822 -0.00926836 0.54062766
4.83703709 0.27075922 1.88789189 0.53423506 0.18559253 0.87068969
4.92567158 0.02507663 1.88433337 0.54402447 0.01718884 0.86904854
5.08471775 -0.31544259 1.90273356 0.56159061 -0.21622086 0.87753463
4.81131649 -0.19001576 2.08177757 0.53139430 -0.13024674 0.96010917
4.99866009 -0.45858991 2.12644386 0.55208582 -0.31434152 0.98070908
5.33104658 0.42601353 1.77626085 0.58879679 0.29201198 0.81920582
5.46078253 0.15613897 1.77737176 0.60312575 0.10702582 0.81971818
6.31684208 -0.37740555 1.66104686 0.69767475 -0.25869352 0.76606947
5.59558344 -0.20981432 1.77856934 0.61801404 -0.14381772 0.82027048
7.19702101 0.39297357 1.22198844 0.79488766 0.26936466 0.56357718
7.17377615 0.03137519 1.17856097 0.79232031 0.02150620 0.54354852
6.62814760 0.17451282 1.43294179 0.73205739 0.11962022 0.66086817
6.85142279 -0.24377070 1.43200707 0.75671744 -0.16709319 0.66043705
4.83709526 0.30126899 1.88863003 0.53424150 0.20650554 0.87103009
4.91982698 0.05598434 1.88215399 0.54337895 0.03837460 0.86804336
5.06419849 -0.28232959 1.89419794 0.55932432 -0.19352347 0.87359804
4.81790495 -0.15994087 2.08419394 0.53212196 -0.10963184 0.96122354
4.94838953 -0.42242566 2.10349202 0.54653358 -0.28955266 0.97012377
5.29619169 0.45661202 1.76535213 0.58494723 0.31298578 0.81417477
5.45589924 0.19032855 1.77611208 0.60258639 0.13046114 0.81913722
6.35767698 -0.33964640 1.67140043 0.70218480 -0.23281141 0.77084452
5.57967377 -0.17418039 1.77302253 0.61625689 -0.11939235 0.81771231
7.20227528 0.43868709 1.22336185 0.79546797 0.30069908 0.56421059
7.75516796 0.08099864 1.27689159 0.85653317 0.05552071 0.58889830
6.61520863 0.21580894 1.43034899 0.73062837 0.14792675 0.65967238
6.80785179 -0.19953385 1.42238617 0.75190514 -0.13677093 0.65599996
4.82398367 0.33084533 1.88420093 0.53279334 0.22677870 0.86898744
4.90633535 0.08671876 1.87706876 0.54188883 0.05944157 0.86569810
5.03973007 -0.24931726 1.88423967 0.55662185 -0.17089510 0.86900532
4.80417299 -0.12933396 2.07775068 0.53060532 -0.08865226 0.95825195
4.91250706 -0.38812920 2.08687139 0.54257047 -0.26604405 0.96245837
5.45080185 0.22446293 1.77485240 0.60202342 0.15385863 0.81855625
5.59397364 -0.13940246 1.77733672 0.61783624 -0.09555374 0.81970203
5.93781137 -0.45057872 1.83585155 0.65581203 -0.30885023 0.84668887
7.20527315 0.48434439 1.22439182 0.79579908 0.33199498 0.56468558
7.74859047 0.12964043 1.27589166 0.85580671 0.08886234 0.58843714
6.82461405 -0.15706860 1.42573261 0.75375652 -0.10766304 0.65754330
4.84960413 0.36334801 1.89527380 0.53562307 0.24905774 0.87409419
4.90941954 0.11761808 1.87852168 0.54222947 0.08062159 0.86636817
5.03932953 -0.21757388 1.88352835 0.55657762 -0.14913653 0.86867726
4.79207802 -0.09893595 2.07211280 0.52926946 -0.06781588 0.95565176
4.88188457 -0.35472259 2.07262540 0.53918833 -0.24314542 0.95588821
5.30887938 0.52506441 1.77176893 0.58634853 0.35990661 0.81713414
5.46824789 0.25953615 1.78115094 0.60395026 0.17789966 0.82146108
5.57571459 -0.10396664 1.77117348 0.61581957 -0.07126417 0.81685954
5.87963009 -0.40881643 1.81666756 0.64938611 -0.28022417 0.83784127
7.18637085 0.52840638 1.22164512 0.79371136 0.36219737 0.56341881
7.70227575 0.17739871 1.26822519 0.85069138 0.12159836 0.58490139
4.80833292 0.39048797 1.87977171 0.53106481 0.26766089 0.86694467
4.88250494 0.14778168 1.86835122 0.53925687 0.10129730 0.86167759
5.03499222 -0.18572268 1.88139439 0.55609858 -0.12730405 0.86769307
5.39977789 -0.48121989 1.97742331 0.59638798 -0.32985330 0.91198128
4.79443550 -0.06884320 2.07291818 0.52952987 -0.04718873 0.95602322
4.85836649 -0.32223308 2.06154513 0.53659081 -0.22087541 0.95077801
5.28852749 0.55656135 1.76599383 0.58410072 0.38149628 0.81447071
5.45323849 0.29322478 1.77674198 0.60229254 0.20099160 0.81942773
5.55723190 -0.06876577 1.76501036 0.61377823 -0.04713566 0.81401712
5.79450750 -0.36602581 1.78909063 0.63998455 -0.25089324 0.82512289
7.20450878 0.57533503 1.22542191 0.79571462 0.39436471 0.56516063
7.00118828 0.20712021 1.14989507 0.77325857 0.14197102 0.53032792
6.60801554 0.34036252 1.42991686 0.72983390 0.23330228 0.65947306
4.84465551 0.42425963 1.89527380 0.53507650 0.29080975 0.87409419
4.91500378 0.17954205 1.88142753 0.54284626 0.12306751 0.86770833
5.03419113 -0.15403379 1.88068318 0.55601007 -0.10558283 0.86736506
5.32424307 -0.44049141 1.94818056 0.58804536 -0.30193585 0.89849466
4.77646732 -0.03864754 2.06486392 0.52754533 -0.02649105 0.95230865
5.29998064 0.59151721 1.77112734 0.58536565 0.40545684 0.81683826
5.44939327 0.32737571 1.77611208 0.60186779 0.22440045 0.81913722
5.56135941 -0.03385678 1.76624298 0.61423409 -0.02320721 0.81458563
5.77764750 -0.32846093 1.78309560 0.63812244 -0.22514431 0.82235795
7.18112612 0.61884356 1.22198844 0.79313213 0.42418775 0.56357718
7.16925097 0.25669345 1.17856097 0.79182053 0.17595112 0.54354852
7.10033178 0.78303295 1.58775163 0.78420866 0.53673178 0.73226595
4.81669998 0.44458404 1.88493907 0.53198892 0.30474117 0.86932784
4.89175749 0.20187220 1.87270999 0.54027873 0.13837376 0.86368787
5.02551746 -0.13010503 1.87712657 0.55505210 -0.08918080 0.86572474
5.22722101 -0.40729323 1.91127884 0.57732964 -0.27918008 0.88147569
4.76744318 -0.01614667 2.06083703 0.52654862 -0.01106777 0.95045143
4.95145750 -0.27413791 2.10032606 0.54687244 -0.18790847 0.96866363
5.29149199 0.61580765 1.76920223 0.58442813 0.42210677 0.81595039
5.44210577 0.35270452 1.77422249 0.60106295 0.24176213 0.81826574
5.57477570 -0.00761882 1.77055717 0.61571592 -0.00522234 0.81657529
5.76960564 -0.30070078 1.78009820 0.63723421 -0.20611605 0.82097560
7.20559406 0.65525216 1.22679532 0.79583448 0.44914412 0.56579405
7.20146227 0.29173726 1.18422747 0.79537815 0.19997197 0.54616189
7.07719374 0.81419927 1.58332276 0.78165311 0.55809480 0.73022336
4.83599997 0.47712219 1.89379740 0.53412050 0.32704452 0.87341326
4.88480759 0.23236145 1.87053061 0.53951114 0.15927270 0.86268270
5.00380754 -0.09817754 1.86859095 0.55265433 -0.06729602 0.86178815
