-25.94944191 5.49058962 1.27527988 -0.96586335 0.99592561 0.62867403
-25.68599892 5.26669216 1.25910437 -0.95605773 0.95531332 0.62070000
-25.65795517 4.92587948 1.25410271 -0.95501393 0.89349413 0.61823434
-25.82194710 4.78923225 1.26133907 -0.96111786 0.86870795 0.62180167
-25.84169769 4.62514257 1.26080704 -0.96185297 0.83894414 0.62153935
-25.86123848 4.50297451 1.26070058 -0.96258032 0.81678432 0.62148690
-25.88705063 4.34006739 1.26059413 -0.96354109 0.78723496 0.62143439
-25.88071251 5.36158371 1.12192237 -0.96330518 0.97252554 0.55307347
-25.92958450 4.17986012 1.26144552 -0.96512425 0.75817537 0.62185413
-25.73763275 5.16336346 1.11335158 -0.95797962 0.93657076 0.54884833
-25.97902298 4.02050495 1.26272261 -0.96696436 0.72927028 0.62248367
-25.81858826 5.01110220 1.11573231 -0.96099281 0.90895247 0.55002195
-26.00772285 3.85777879 1.26293540 -0.96803260 0.69975376 0.62258857
-25.86330605 4.85137033 1.11639893 -0.96265727 0.87997907 0.55035061
-25.84262466 4.46009159 2.02375770 -0.96188748 0.80900592 0.99765074
-26.06111336 3.69847894 1.26453161 -0.97001988 0.67085868 0.62337548
-25.86772728 4.68412447 1.11516094 -0.96282184 0.84964269 0.54974031
-25.92715263 4.30714750 2.02852321 -0.96503371 0.78126371 1.00000000
-26.08814621 3.57697701 1.26506376 -0.97102606 0.64881974 0.62363780
-25.91311836 4.56635237 1.11630368 -0.96451133 0.82828033 0.55030364
-26.12991142 3.41556406 1.26612794 -0.97258061 0.61954141 0.62416244
-25.94720650 4.40445423 1.11658943 -0.96578014 0.79891396 0.55044448
-26.16274834 3.25278783 1.26676643 -0.97380280 0.59001583 0.62447715
-25.98816681 4.24360132 1.11725605 -0.96730471 0.76973724 0.55077314
-26.18663597 3.08880424 1.26697934 -0.97469193 0.56027120 0.62458211
-26.02615738 4.08209658 1.11782742 -0.96871877 0.74044222 0.55105478
-25.83122444 4.60465193 1.87804043 -0.96146315 0.83522737 0.92581660
-26.25118256 2.92926788 1.26942694 -0.97709441 0.53133327 0.62578875
-26.07104492 3.92147660 1.11877978 -0.97038954 0.71130776 0.55152428
-25.92947197 4.84482574 0.99686307 -0.96512002 0.87879193 0.49142304
-25.88519859 4.44662905 1.88003254 -0.96347213 0.80656397 0.92679864
-25.99882507 5.49443626 1.73872983 -0.96770144 0.99662334 0.85714072
-26.29886436 2.76738214 1.27102315 -0.97886920 0.50196916 0.62657559
-26.10901070 3.75959492 1.11944640 -0.97180265 0.68194437 0.55185288
-25.93973541 4.67827988 0.99600345 -0.96550208 0.84858257 0.49099928
-25.98346329 4.29555511 1.88554907 -0.96712965 0.77916098 0.92951810
-25.79442596 5.28196239 1.72153831 -0.96009350 0.95808321 0.84866583
-26.31757545 2.64401579 1.27134240 -0.97956562 0.47959203 0.62673301
-26.13632965 3.63790250 1.11992252 -0.97281951 0.65987086 0.55208760
-25.97330284 4.55805349 0.99651927 -0.96675146 0.82677501 0.49125358
-25.66645813 5.12973452 1.71054709 -0.95533043 0.93047088 0.84324747
-26.37343979 2.48231888 1.27347088 -0.98164493 0.45026219 0.62778229
-26.17847252 3.47625732 1.12087476 -0.97438806 0.63055044 0.55255705
-25.75301933 4.97901344 1.71449268 -0.95855230 0.90313196 0.84519255
-26.42234039 2.31950498 1.27527988 -0.98346508 0.42072976 0.62867403
-26.22952271 3.31548643 1.12230325 -0.97628820 0.60138857 0.55326122
-26.06797791 4.23769426 0.99823850 -0.97027534 0.76866573 0.49210110
-25.77987289 4.81636906 1.71421087 -0.95955181 0.87363029 0.84505361
-26.47023392 2.15617442 1.27708900 -0.98524773 0.39110360 0.62956589
-26.26570320 3.15253377 1.12306511 -0.97763491 0.57183093 0.55363679
-26.53105927 1.99337018 1.27964306 -0.98751169 0.36157289 0.63082498
-26.38423157 2.99879670 1.12782669 -0.98204660 0.54394495 0.55598414
-25.88749313 4.50061893 1.71773362 -0.96355754 0.81635708 0.84679025
-25.88978195 5.46886396 1.58932269 -0.96364272 0.99198484 0.78348756
-26.58091736 1.82920861 1.28166509 -0.98936749 0.33179599 0.63182175
-25.79131317 4.31702948 1.70885611 -0.95997763 0.78305620 0.84241390
-25.65963554 5.25226307 1.57173371 -0.95507646 0.95269608 0.77481675
-26.63109970 1.70657933 1.28389978 -0.99123532 0.30955255 0.63292336
-25.95313454 4.21859932 1.71900189 -0.96600080 0.76520216 0.84741545
-25.77218437 5.14881325 1.57759678 -0.95926565 0.93393159 0.77770704
-26.70510292 1.54285622 1.28730524 -0.99398977 0.27985519 0.63460219
-26.13782310 2.51395059 1.11373246 -0.97287506 0.45599979 0.54903609
-26.11191177 4.45802164 0.83172220 -0.97191060 0.80863047 0.41001365
-25.80990601 4.98791313 1.57798755 -0.96066970 0.90474623 0.77789968
-26.76014519 1.37736011 1.28975284 -0.99603850 0.24983622 0.63580877
-26.36399651 2.36878538 1.12382698 -0.98129344 0.42966861 0.55401236
-26.10194016 4.28768444 0.83033210 -0.97153950 0.77773339 0.40932837
-25.96463966 3.88620114 1.71618366 -0.96642900 0.70490921 0.84602612
-25.80345535 4.81871510 1.57551205 -0.96042955 0.87405580 0.77667934
-26.86204529 1.21335983 1.29475451 -0.99983132 0.22008859 0.63827443
-26.56747437 2.21903062 1.13287401 -0.98886710 0.40250492 0.55847228
-26.09715080 3.73862910 1.72393382 -0.97136122 0.67814147 0.84984672
-26.63068390 2.05594182 1.13525474 -0.99121982 0.37292263 0.55964595
-26.14186668 3.57757545 1.72548389 -0.97302556 0.64892828 0.85061085
-25.94063187 4.50769377 1.58072364 -0.96553540 0.81764036 0.77924848
-25.91688919 5.51305199 1.44051445 -0.96465170 1.00000000 0.71012962
-26.75864792 1.89685750 1.14077818 -0.99598277 0.34406668 0.56236881
-26.15987206 3.41273260 1.72520208 -0.97369576 0.61902785 0.85047197
-25.90938377 4.33478212 1.57681501 -0.96437234 0.78627628 0.77732164
-25.69099808 5.29628944 1.42469490 -0.95624381 0.96068192 0.70233107
-26.23702240 3.29717827 1.72957039 -0.97656739 0.59806770 0.85262537
-25.92952347 4.21263933 1.57681501 -0.96512198 0.76412112 0.77732164
-25.69805908 5.17160654 1.42362440 -0.95650661 0.93806601 0.70180339
-26.25127792 3.13154864 1.72914767 -0.97709799 0.56802452 0.85241699
-25.85490036 4.03402472 1.57017028 -0.96234441 0.73172259 0.77404600
-25.78882599 5.02153301 1.42719269 -0.95988506 0.91084450 0.70356244
-26.53279877 2.36473894 1.00803840 -0.98757643 0.42893463 0.49693215
-26.03765869 3.89499378 1.58059335 -0.96914685 0.70650411 0.77918428
-25.80809784 4.85717392 1.42647910 -0.96060240 0.88103175 0.70321065
-26.50802422 1.80563796 1.90347803 -0.98665434 0.32752058 0.93835652
-26.33418083 2.80632424 1.73238873 -0.98018372 0.50903279 0.85401475
-26.26425552 4.15576696 0.70684618 -0.97758102 0.75380516 0.34845358
-26.06556892 3.73188114 1.58085394 -0.97018570 0.67691743 0.77931273
-25.81650352 4.69097948 1.42517066 -0.96091527 0.85088611 0.70256561
-26.60443306 1.64427269 1.91006720 -0.99024272 0.29825088 0.94160479
-26.37114143 2.64281201 1.73379779 -0.98155940 0.47937369 0.85470939
-26.17915916 3.97394776 0.70328987 -0.97441363 0.72082537 0.34670043
-26.12014389 3.57233620 1.58293855 -0.97221702 0.64797795 0.78034037
-25.84350204 4.52833176 1.42505181 -0.96192014 0.82138383 0.70250702
-26.72574425 1.48318386 1.91864860 -0.99475807 0.26903135 0.94583517
-26.41701889 2.47988582 1.73591149 -0.98326701 0.44982088 0.85575134
-26.29461861 3.82254076 0.70621115 -0.97871113 0.69336200 0.34814054
-26.15196800 3.40943146 1.58359003 -0.97340155 0.61842906 0.78066152
-26.41261673 2.73351264 0.83406335 -0.98310316 0.49582565 0.41116777
-26.45026970 2.35733628 1.73746157 -0.98450464 0.42759189 0.85651553
-26.35193443 3.70412302 0.70748127 -0.98084450 0.67188245 0.34876665
-26.20537186 3.29085159 1.58606553 -0.97538930 0.59692013 0.78188187
-26.22858620 4.29938173 1.44539106 -0.97625333 0.77985513 0.71253365
-26.48245049 2.19259429 1.73872983 -0.98570246 0.39770970 0.85714072
-26.38261414 3.53953409 0.70773524 -0.98198640 0.64202809 0.34889185
-26.23742294 3.12754273 1.58684719 -0.97658229 0.56729788 0.78226721
-26.00859261 4.09548998 1.43052316 -0.96806496 0.74287164 0.70520425
-26.44994354 3.37949085 0.70919585 -0.98449248 0.61299819 0.34961191
-26.28630638 2.96596122 1.58880162 -0.97840178 0.53798896 0.78323066
-25.98446465 3.92450142 1.42754960 -0.96716690 0.71185642 0.70373839
-26.49597168 1.85879469 1.73788428 -0.98620570 0.33716255 0.85672390
-26.38928604 3.20342088 0.70659214 -0.98223478 0.58106124 0.34832835
-26.32427025 2.80283976 1.59010446 -0.97981483 0.50840074 0.78387296
-26.06393051 3.76920319 1.43087995 -0.97012472 0.68368721 0.70538014
-26.60667229 1.69871163 1.74493003 -0.99032611 0.30812547 0.86019725
-26.50819588 3.04889488 0.70976740 -0.98666072 0.55303210 0.34989366
-26.35923576 2.63916087 1.59127700 -0.98111624 0.47871140 0.78445095
-26.09500694 3.60646486 1.43135571 -0.97128141 0.65416849 0.70561469
-26.70046997 1.53638172 1.75084841 -0.99381733 0.27868080 0.86311483
-26.40709114 2.47644711 1.59336174 -0.98289746 0.44919711 0.78547871
-26.12506866 3.44348454 1.43183148 -0.97240031 0.62460583 0.70584917
-26.75522423 1.41310370 1.75423038 -0.99585533 0.25631967 0.86478204
-26.44232559 2.35408497 1.59492517 -0.98420894 0.42700213 0.78624940
-26.16279030 3.32311940 1.43313992 -0.97380435 0.60277307 0.70649421
-26.69382858 1.24167132 1.74929833 -0.99357015 0.22522394 0.86235064
-26.49438667 2.19099379 1.59740067 -0.98614669 0.39741939 0.78746974
-26.21684456 3.16276002 1.43516195 -0.97581631 0.57368588 0.70749104
-26.86256409 1.08054280 1.76071239 -0.99985063 0.19599721 0.86797744
-26.52156067 2.02553582 1.59831262 -0.98715818 0.36740735 0.78791934
-26.24016571 2.99842978 1.43539989 -0.97668433 0.54387838 0.70760834
-26.51593590 3.24005580 0.52966136 -0.98694879 0.58770639 0.26110688
-26.29619789 2.83759856 1.43765974 -0.97876996 0.51470560 0.70872235
-26.32145309 2.67313266 1.43813550 -0.97970998 0.48487347 0.70895690
-26.71841621 1.53454542 1.60899639 -0.99448532 0.27834770 0.79318607
-26.36157799 2.50998759 1.43956292 -0.98120344 0.45528096 0.70966059
-26.74528122 1.40965652 1.61029923 -0.99548525 0.25569439 0.79382837
-26.41287613 2.38936210 1.44194174 -0.98311281 0.43340096 0.71083325
-26.66788292 1.23767102 1.60469687 -0.99260443 0.22449835 0.79106659
-26.45919609 2.22606134 1.44384480 -0.98483688 0.40378022 0.71177137
-26.86657715 1.07762229 1.61720455 -1.00000000 0.19546747 0.79723245
-26.50251579 2.06211638 1.44562900 -0.98644930 0.37404263 0.71265095
-26.50698471 1.89498103 1.44515324 -0.98661560 0.34372631 0.71241641
-26.82481956 1.45258498 1.46240008 -0.99844575 0.26348111 0.72091860
-26.66990089 1.27606356 1.45264661 -0.99267954 0.23146227 0.71611041
-26.83497047 1.11513543 1.46204317 -0.99882358 0.20227189 0.72074264
