18.80579376 2.67214918 2.17938352 0.91092837 0.62548286 0.70413089
18.00915527 2.67364430 2.08319163 0.87234026 0.62583286 0.67305255
17.35300827 2.57317066 2.93118048 0.84055734 0.60231447 0.94702685
16.82971001 2.60434675 2.84451604 0.81520945 0.60961205 0.91902667
18.79506493 3.42841482 1.53430140 0.91040868 0.80250561 0.49571311
16.49392128 2.63242626 2.78918433 0.79894429 0.61618471 0.90114975
18.88863754 3.56838274 1.54459298 0.91494125 0.83526856 0.49903819
16.53542900 2.74562788 2.79918408 0.80095482 0.64268237 0.90438050
18.93408585 2.71898127 2.08784723 0.91714269 0.63644505 0.67455667
16.48675346 2.84414196 2.79385090 0.79859704 0.66574204 0.90265745
18.15031242 2.72376251 1.99766064 0.87917769 0.63756424 0.64541858
16.43360901 2.94146299 2.78785110 0.79602283 0.68852246 0.90071899
18.92047501 3.63597202 2.21257806 0.91648340 0.85108954 0.71485561
20.33722115 2.66112089 2.85597491 0.98510873 0.62290144 0.92272890
16.42643929 3.04680324 2.78985095 0.79567552 0.71317995 0.90136510
18.84663963 3.74466753 2.20627832 0.91290689 0.87653244 0.71282029
16.38566208 3.14588881 2.78618431 0.79370034 0.73637336 0.90018046
18.79961014 3.82746649 2.20264387 0.91062886 0.89591354 0.71164602
17.79913330 2.52583289 2.48604655 0.86216706 0.59123391 0.80320978
16.38420296 3.22571921 2.78851771 0.79362965 0.75505966 0.90093434
18.81403732 3.95371819 2.20748997 0.91132772 0.92546588 0.71321172
17.06851006 2.53082919 2.38055921 0.82677662 0.59240341 0.76912820
16.36747742 3.32938123 2.78918433 0.79281950 0.77932435 0.90114975
18.82374001 4.07945728 2.21185112 0.91179770 0.95489824 0.71462077
19.61707306 2.74840140 2.08910966 0.95022571 0.64333159 0.67496455
16.90170670 2.61454868 2.35830569 0.81869686 0.61200005 0.76193833
16.37326241 3.43779492 2.79385090 0.79309970 0.80470127 0.90265745
16.91876793 2.55832958 2.73535252 0.81952327 0.59884053 0.88375735
18.93878174 2.77411819 2.01400542 0.91737014 0.64935124 0.65069938
16.71499825 2.69310164 2.33316207 0.80965292 0.63038731 0.75381476
16.36290550 3.54309273 2.79585075 0.79259801 0.82934880 0.90330356
16.46559143 2.59519553 2.66377807 0.79757202 0.60746998 0.86063260
18.21775246 2.78476906 1.93398333 0.88244444 0.65184432 0.62484527
16.63725281 2.78785944 2.32420301 0.80588704 0.65256774 0.75092024
16.36149979 3.65053129 2.79951739 0.79252994 0.85449749 0.90448821
16.52687454 2.71148014 2.67655921 0.80054051 0.63468927 0.86476201
17.91103935 4.23569345 2.10742116 0.86758763 0.99146920 0.68088078
18.91583443 3.78711557 2.10680962 0.91625863 0.88646841 0.68068320
16.60381317 2.88960528 2.32189083 0.80426729 0.67638385 0.75017321
19.04459381 2.58502889 2.57015681 0.92249554 0.60509020 0.83038473
16.37668991 3.76204467 2.80618382 0.79326570 0.88059998 0.90664202
16.47643280 2.80958533 2.67112708 0.79809713 0.65765321 0.86300695
18.96006584 3.88891959 2.11420941 0.91840112 0.91029817 0.68307400
16.57248306 2.96465898 2.31928992 0.80274969 0.69395202 0.74933285
18.00637054 2.53168392 2.42414427 0.87220538 0.59260350 0.78320998
16.39718819 3.84814072 2.81285024 0.79425865 0.90075290 0.90879589
16.42607117 2.88067245 2.66505623 0.79565769 0.67429292 0.86104554
18.92164803 4.00510645 2.11259079 0.91654021 0.93749464 0.68255103
16.52629280 3.06364465 2.31524372 0.80051231 0.71712208 0.74802560
17.38652611 2.55672622 2.33815598 0.84218091 0.59846526 0.75542825
16.43212891 3.96535993 2.82318330 0.79595113 0.92819095 0.91213435
16.41153145 2.98453426 2.66569519 0.79495341 0.69860435 0.86125195
16.51837540 3.16967297 2.31697774 0.80012882 0.74194068 0.74858582
17.08623123 2.62268376 2.29767442 0.82763499 0.61390424 0.74234915
16.47007370 4.08411407 2.83418298 0.79778910 0.95598829 0.91568822
16.38275528 3.08575225 2.66409755 0.79355955 0.72229695 0.86073577
20.31324577 2.68015718 3.09513974 0.98394740 0.62735736 1.00000000
16.48455048 3.27068543 2.31495476 0.79849035 0.76558512 0.74793226
16.86404228 2.69738889 2.26836014 0.81687248 0.63139087 0.73287809
16.37466812 3.19090652 2.66601467 0.79316777 0.74691087 0.86135519
19.92581177 2.75689745 3.03807449 0.96518064 0.64532030 0.98156297
18.68909836 2.83683014 1.85785460 0.90527582 0.66403055 0.60024905
16.46948814 3.37539458 2.31582189 0.79776078 0.79009491 0.74821240
16.81940651 2.79877639 2.26445150 0.81471038 0.65512311 0.73161525
20.64464569 2.66600633 2.67769694 1.00000000 0.62404495 0.86512959
16.33881760 3.29059076 2.66345859 0.79143125 0.77024448 0.86052936
18.14487076 2.62860227 2.76603317 0.87891412 0.61528963 0.89366990
18.57069969 2.93845582 1.84714139 0.89954072 0.68781853 0.59678769
16.44021225 3.47716069 2.31466579 0.79634267 0.81391579 0.74783885
16.77221107 2.89937472 2.26026392 0.81242424 0.67867064 0.73026234
18.75606155 2.54016829 2.42210937 0.90851945 0.59458947 0.78255248
16.33907700 3.39763236 2.66697335 0.79144382 0.79530019 0.86166495
16.97249603 2.56905437 2.58759093 0.82212579 0.60135096 0.83601749
16.42577362 3.58208442 2.31582189 0.79564327 0.83847582 0.74821240
16.73026657 3.00053239 2.25691366 0.81039250 0.70234913 0.72917992
18.18840981 2.57916379 2.34674716 0.88102311 0.60371733 0.75820392
16.33091545 3.50314116 2.66920996 0.79104847 0.81999719 0.86238754
16.53020668 2.60896826 2.52176976 0.80070186 0.61069381 0.81475151
16.46278000 3.67157602 2.32391405 0.79743582 0.85942352 0.75082684
16.69451141 3.07541728 2.25384259 0.80866057 0.71987778 0.72818768
17.67216682 2.59039927 2.27782178 0.85601693 0.60634726 0.73593503
16.33350563 3.58431482 2.67240524 0.79117393 0.83899790 0.86341989
16.54114914 2.69061637 2.52539277 0.80123192 0.62980556 0.81592208
16.47795105 3.78384614 2.32969403 0.79817069 0.88570315 0.75269431
16.67680550 3.18061924 2.25412178 0.80780292 0.74450290 0.72827786
16.36264229 3.69868588 2.68103266 0.79258525 0.86576927 0.86620730
16.48687172 2.78827477 2.51965618 0.79860282 0.65266496 0.81406862
16.54434776 3.90879989 2.34327745 0.80138683 0.91495168 0.75708294
16.58069611 3.27048397 2.24323368 0.80314755 0.76553798 0.72476006
19.83186150 2.87697077 1.87901211 0.96062976 0.67342645 0.60708475
17.18031502 2.73871994 2.21506453 0.83219230 0.64106542 0.71565896
16.37752724 3.81041622 2.68742323 0.79330629 0.89192253 0.86827201
16.44565392 2.88773441 2.51603293 0.79660624 0.67594594 0.81289798
16.56367874 4.02346992 2.34992456 0.80232322 0.94179302 0.75923049
16.70733833 3.40447474 2.26445150 0.80928189 0.79690182 0.73161525
19.09340286 2.89170194 1.80568564 0.92485982 0.67687464 0.58339387
17.14126587 2.84301996 2.21211457 0.83030081 0.66547942 0.71470588
16.39741325 3.92386460 2.69477224 0.79426956 0.91847795 0.87064642
16.41162109 2.98819351 2.51361752 0.79495776 0.69946086 0.81211764
16.62829018 4.15009308 2.36350775 0.80545294 0.97143233 0.76361907
16.67204666 3.50654507 2.26249743 0.80757242 0.82079393 0.73098391
18.75648499 2.96100163 1.77322972 0.90853995 0.69309592 0.57290781
17.09572601 2.94592094 2.20835972 0.82809490 0.68956596 0.71349275
19.34794235 2.60253716 2.36444879 0.93718934 0.60918844 0.76392311
16.46251488 4.04908514 2.70979023 0.79742301 0.94778889 0.87549853
16.38280678 3.08943105 2.51210785 0.79356200 0.72315806 0.81162989
16.67485237 3.61665583 2.26612663 0.80770832 0.84656811 0.73215646
18.66486931 3.06677723 1.76581693 0.90410221 0.71785533 0.57051283
17.07102585 3.05222440 2.20755529 0.82689846 0.71444893 0.71323282
18.49034309 2.60645485 2.25557137 0.89564836 0.61010545 0.72874624
16.33532906 4.12668991 2.69285512 0.79126227 0.96595424 0.87002701
16.38248062 3.19606781 2.51512718 0.79354620 0.74811900 0.81260538
16.65375710 3.69434047 2.26556826 0.80668652 0.86475211 0.73197609
18.61686134 3.14902115 1.76241100 0.90177673 0.73710656 0.56941241
17.03696442 3.12903237 2.20487332 0.82524860 0.73242772 0.71236634
17.93794250 2.61545539 2.18561506 0.86889076 0.61221230 0.70614421
16.35560226 3.27092052 2.51331544 0.79224426 0.76564014 0.81202000
16.68428993 3.81119013 2.27338552 0.80816549 0.89210367 0.73450172
18.60258675 3.26697040 1.76301205 0.90108532 0.76471555 0.56960660
16.97219658 3.22744775 2.19870496 0.82211131 0.75546426 0.71037340
17.67204475 2.69047475 2.15330815 0.85601103 0.62977242 0.69570631
16.35990524 3.37878823 2.51724076 0.79245269 0.79088926 0.81328827
18.34290314 4.03680038 1.84504080 0.88850653 0.94491339 0.59610903
16.70051193 3.92541265 2.27924824 0.80895126 0.91884029 0.73639590
18.57190514 3.38199544 1.76201034 0.89959913 0.79163998 0.56928295
17.01768684 3.34710503 2.20782351 0.82431477 0.78347301 0.71331948
17.61952019 2.79590154 2.14872909 0.85346681 0.65445018 0.69422686
16.34415627 3.48274231 2.51814651 0.79168981 0.81522232 0.81358087
16.73521042 4.04461861 2.28790307 0.81063199 0.94674343 0.73919219
18.55419922 3.49936056 1.76241100 0.89874148 0.81911224 0.56941241
20.29043388 3.04681587 1.76918006 0.98284245 0.71318293 0.57159942
17.01379585 3.45753622 2.21023703 0.82412630 0.80932218 0.71409929
17.58007050 2.90302181 2.14593077 0.85155594 0.67952436 0.69332272
16.35671806 3.59295917 2.52358127 0.79229832 0.84102130 0.81533676
16.79021454 4.16964102 2.29962873 0.81329632 0.97600800 0.74298060
18.60604858 3.63043118 1.77002418 0.90125299 0.84979254 0.57187212
18.93085861 2.96576691 1.64309394 0.91698635 0.69421136 0.53086263
17.02082443 3.57050562 2.21426010 0.82446676 0.83576548 0.71539909
17.55561638 3.01242280 2.14516759 0.85037142 0.70513237 0.69307619
16.35696602 3.70086741 2.52720451 0.79231036 0.86627990 0.81650740
18.60432434 3.75161409 1.77222800 0.90116948 0.87815845 0.57258415
18.88236237 3.07987618 1.64031672 0.91463727 0.72092152 0.52996534
17.04066086 3.68664908 2.22016025 0.82542765 0.86295176 0.71730536
17.51485443 3.11886692 2.14236951 0.84839696 0.73004824 0.69217217
16.39117432 3.81694961 2.53626251 0.79396731 0.89345181 0.81943393
18.63319969 3.84895420 1.77703631 0.90256816 0.90094328 0.57413769
19.40584564 3.25862646 1.69104743 0.93999410 0.76276243 0.54635578
17.49996376 3.20136881 2.14236951 0.84767568 0.74935985 0.69217217
16.38647270 3.89733458 2.53837585 0.79373962 0.91226792 0.82011670
18.69620895 3.98471236 1.78605187 0.90562022 0.93272084 0.57705051
18.92584419 3.30091166 1.64772272 0.91674346 0.77266032 0.53235811
17.48145294 3.31162739 2.14262390 0.84677905 0.77516860 0.69225430
16.44234657 4.01983976 2.55105710 0.79644603 0.94094330 0.82421386
18.82241058 3.40495920 1.63994646 0.91173327 0.79701525 0.52984571
17.49534988 3.42822671 2.14720273 0.84745216 0.80246156 0.69373369
16.46471786 4.13505173 2.55860543 0.79752970 0.96791154 0.82665265
18.82413864 3.52753258 1.64216828 0.91181701 0.82570660 0.53056353
17.47346306 3.53808498 2.14720273 0.84639198 0.82817662 0.69373369
18.81529045 3.64837670 1.64346433 0.91138840 0.85399318 0.53098226
17.47613716 3.65305114 2.15050983 0.84652156 0.85508734 0.69480217
18.81933784 3.77197385 1.64605641 0.91158444 0.88292414 0.53181976
17.49357414 3.77151752 2.15585184 0.84736615 0.88281733 0.69652814
17.50079727 3.85943699 2.15915895 0.84771603 0.90339708 0.69759661
17.53231621 3.98199916 2.16653609 0.84924275 0.93208575 0.69998008
17.57650948 4.10825443 2.17569399 0.85138345 0.96163893 0.70293885
17.77415276 4.27213812 2.20520282 0.86095703 1.00000000 0.71247280
