8.61717033 -0.17248166 2.01665235 0.83761108 -0.06488422 0.69970495
8.63638687 0.46792519 2.59111142 0.83947897 0.17602430 0.89902133
8.56988239 0.00003260 2.47658420 0.83301455 0.00001226 0.85928452
8.92979527 1.54142916 1.90384531 0.86799902 0.57985550 0.66056502
8.92399216 1.06591046 1.80697167 0.86743492 0.40097466 0.62695336
10.24831486 0.58735561 1.97070241 0.99616253 0.22095169 0.68376195
8.95912457 1.38478112 2.39460206 0.87084991 0.52092761 0.83083969
8.79047680 1.08344996 2.74768901 0.85445690 0.40757269 0.95334804
8.61679745 0.34346434 2.11155272 0.83757484 0.12920457 0.73263192
8.61224747 -0.11824141 2.01526332 0.83713257 -0.04448011 0.69922298
8.66574574 0.52422017 2.60098958 0.84233272 0.19720137 0.90244865
8.60042095 0.05399859 2.48558378 0.83598298 0.02031321 0.86240709
8.94495106 1.60204422 1.90928316 0.86947221 0.60265774 0.66245174
8.90350723 1.12027884 1.80416191 0.86544377 0.42142698 0.62597847
8.76160336 0.91318434 2.24432325 0.85165036 0.34352210 0.77869844
8.64028549 0.38524920 2.11783171 0.83985794 0.14492321 0.73481047
8.63411045 -0.07789949 2.02035666 0.83925772 -0.02930427 0.70099020
8.69182014 0.56698602 2.60970569 0.84486723 0.21328905 0.90547282
8.60390949 0.09455948 2.48670864 0.83632207 0.03557143 0.86279732
8.95268345 1.64704370 1.91262949 0.87022382 0.61958563 0.66361278
8.89812851 1.16222298 1.80416191 0.86492091 0.43720555 0.62597847
8.82143116 1.46270430 2.36147046 0.85746574 0.55024076 0.81934428
8.77686787 0.97050881 2.24983358 0.85313410 0.36508644 0.78061032
8.78748989 1.18128824 2.75068641 0.85416657 0.44437754 0.95438802
8.64738464 0.44004568 2.12024665 0.84054798 0.16553658 0.73564839
8.64026642 -0.02367833 2.02174568 0.83985609 -0.00890733 0.70147210
8.70907974 0.62313807 2.61609769 0.84654492 0.23441236 0.90769064
8.61849880 0.14884613 2.49120831 0.83774018 0.05599301 0.86435854
8.98440742 1.71140742 1.92183208 0.87330747 0.64379799 0.66680574
8.92366123 1.22255480 1.81098557 0.86740279 0.45990121 0.62834603
8.84061241 1.52308631 2.36923575 0.85933024 0.57295531 0.82203853
8.78213882 1.02695882 2.25283909 0.85364646 0.38632181 0.78165311
8.83092403 1.24354517 2.76687288 0.85838848 0.46779737 0.96000415
8.64251137 0.49425441 2.11976361 0.84007430 0.18592885 0.73548079
8.60327625 0.03056622 2.01294804 0.83626056 0.01149841 0.69841969
8.61931229 0.20303513 2.49177098 0.83781928 0.07637785 0.86455381
8.96388626 1.76591241 1.91974056 0.87131274 0.66430169 0.66608006
8.92162323 1.27942061 1.81218970 0.86720467 0.48129302 0.62876385
8.85177803 1.58238995 2.37493014 0.86041558 0.59526414 0.82401431
8.79858017 1.08490849 2.25885010 0.85524458 0.40812135 0.78373873
8.67409515 0.55084240 2.12845755 0.84314430 0.20721614 0.73849726
8.64182663 0.08491200 2.02220869 0.84000772 0.03194223 0.70163280
8.75966644 0.73764235 2.63411093 0.85146207 0.27748662 0.91394055
8.64664459 0.25797841 2.50020790 0.84047604 0.09704643 0.86748111
9.00433540 1.83284616 1.93103456 0.87524450 0.68948090 0.66999871
8.94636059 1.34031212 1.81901336 0.86960924 0.50419921 0.63113141
8.86444569 1.64224994 2.38114238 0.86164689 0.61778229 0.82616967
8.79351044 1.14041448 2.25935102 0.85475177 0.42900163 0.78391254
8.65691185 0.60435420 2.12507653 0.84147406 0.22734623 0.73732418
8.63334084 0.13910112 2.02035666 0.83918291 0.05232712 0.70099020
8.72437000 0.78983450 2.62481380 0.84803116 0.29712030 0.91071481
8.64485264 0.31230143 2.50020790 0.84030187 0.11748169 0.86748111
9.00794601 1.89263654 1.93438089 0.87559545 0.71197283 0.67115974
8.95519066 1.39917994 1.82262588 0.87046754 0.52634412 0.63238484
8.88429546 1.70380402 2.38942528 0.86357635 0.64093775 0.82904357
8.87637234 1.20770693 2.28289437 0.86280620 0.45431572 0.79208124
8.68196678 0.66101283 2.13232160 0.84390944 0.24866010 0.73983794
8.65758514 0.19384971 2.02637601 0.84153950 0.07292247 0.70307869
8.70400047 0.84312385 2.62016511 0.84605122 0.31716672 0.90910190
8.66189766 0.36738041 2.50583267 0.84195870 0.13820133 0.86943269
9.03408623 1.95756495 1.94274688 0.87813640 0.73639768 0.67406243
8.96750355 1.45883214 1.82704115 0.87166435 0.54878414 0.63391674
10.28779411 0.47330305 1.88254261 1.00000000 0.17804736 0.65317374
8.88288498 1.76149178 2.39201355 0.86343920 0.66263878 0.82994157
9.09487534 1.29516542 2.34200287 0.88404524 0.48721591 0.81258970
8.67570782 0.71538579 2.13183856 0.84330106 0.26911414 0.73967034
8.66203117 0.24839635 2.02776504 0.84197170 0.09344185 0.70356065
8.74801254 0.90301919 2.63527298 0.85032928 0.33969817 0.91434377
8.67475605 0.42250815 2.51033258 0.84320855 0.15893930 0.87099397
8.97168827 1.51740432 1.82985091 0.87207115 0.57081783 0.63489163
8.89764595 0.92943919 1.71307564 0.86487401 0.34963685 0.59437490
8.92179298 1.81305540 2.40495563 0.86722118 0.68203598 0.83443201
9.06376076 1.33439851 2.33549094 0.88102084 0.50197464 0.81033033
8.71090221 0.75972348 2.14149833 0.84672207 0.28579313 0.74302197
8.67048836 0.28951415 2.03008008 0.84279370 0.10890956 0.70436388
8.78550816 0.94885015 2.64805675 0.85397393 0.35693887 0.91877925
8.69183636 0.46436125 2.51595712 0.84486878 0.17468362 0.87294549
9.13017464 2.08402014 1.96868122 0.88747644 0.78396761 0.68306071
8.98181725 1.56264925 1.83346343 0.87305570 0.58783811 0.63614506
8.90918446 0.98731172 1.71652603 0.86599559 0.37140736 0.59557205
8.94424152 1.87629139 2.41427398 0.86940324 0.70582414 0.83766514
8.78526115 1.35045874 2.26486111 0.85394996 0.50801617 0.78582436
8.69243336 0.81314349 2.13811755 0.84492683 0.30588868 0.74184895
8.67238617 0.34413156 2.03100610 0.84297818 0.12945557 0.70468515
8.74705887 1.00026119 2.63817835 0.85023659 0.37627870 0.91535181
8.68874741 0.51896417 2.51595712 0.84456855 0.19522417 0.87294549
9.00075626 1.62420726 1.83948433 0.87489665 0.61099499 0.63823408
8.93593884 1.04722893 1.72304332 0.86859620 0.39394704 0.59783328
9.00021648 1.94730937 2.43291044 0.87484413 0.73253971 0.84413135
8.82441711 1.41317677 2.27738404 0.85775602 0.53160948 0.79016936
8.72383690 0.87149388 2.14729428 0.84797937 0.32783896 0.74503291
8.70115376 0.39997149 2.03841472 0.84577447 0.15046145 0.70725566
8.73300457 1.05426538 2.63585424 0.84887046 0.39659402 0.91454542
8.73703003 0.57684034 2.53114390 0.84926176 0.21699606 0.87821478
8.99422646 1.68143976 1.84028709 0.87426192 0.63252473 0.63851261
8.94281578 1.10506988 1.72572696 0.86926466 0.41570568 0.59876442
9.00476456 2.00764132 2.43756962 0.87528622 0.75523543 0.84574789
8.82873821 1.47079086 2.28089070 0.85817599 0.55328274 0.79138601
8.71240044 0.92566121 2.14584541 0.84686768 0.34821564 0.74453020
8.70041275 0.45473123 2.03887773 0.84570247 0.17106099 0.70741636
8.73569679 1.11034381 2.63875961 0.84913218 0.41768962 0.91555351
8.72748947 0.63132292 2.52945662 0.84833437 0.23749134 0.87762934
9.03352070 1.74748302 1.85072327 0.87808138 0.65736896 0.64213359
8.95126343 1.16329598 1.72879398 0.87008578 0.43760920 0.59982854
9.05219364 2.07814407 2.45413542 0.87989646 0.78175718 0.85149562
8.85940361 1.53307664 2.29140997 0.86115676 0.57671344 0.79503584
8.70255566 0.97994089 2.14487934 0.84591073 0.36863461 0.74419504
8.69349861 0.50916976 2.03795171 0.84503037 0.19153970 0.70709503
8.74940777 1.16804314 2.64515138 0.85046488 0.43939498 0.91777122
8.90515327 0.70002133 2.58289123 0.86560374 0.26333433 0.89616919
9.03966141 1.80762696 1.85433578 0.87867832 0.67999393 0.64338702
8.96322060 1.22221088 1.73262763 0.87124807 0.45977184 0.60115868
8.96651173 0.74040788 1.64029729 0.87156796 0.27852696 0.56912345
8.85912895 1.59040034 2.29391456 0.86113006 0.59827751 0.79590482
9.04110146 1.07644367 2.23133540 0.87881827 0.40493706 0.77419215
8.72313976 0.56584644 2.04582310 0.84791160 0.21286036 0.70982611
8.69263458 1.21598649 2.63004351 0.84494638 0.45743033 0.91252935
8.69017601 0.73857194 2.52101946 0.84470743 0.27783632 0.87470198
9.04732227 1.86830902 1.85834968 0.87942296 0.70282131 0.64477968
8.96901989 1.26610768 1.73492789 0.87181175 0.47628495 0.60195678
8.97859573 0.78398609 1.64322472 0.87274253 0.29492024 0.57013911
8.88963509 1.63906634 2.30393291 0.86409533 0.61658472 0.79938084
9.07058907 1.12340772 2.24002934 0.88168454 0.42260402 0.77720863
8.72425842 0.60720801 2.04674911 0.84802032 0.22841978 0.71014744
8.76254272 1.26807356 2.65328646 0.85174167 0.47702447 0.92059380
8.70571899 0.78118593 2.52664423 0.84621823 0.29386687 0.87665355
9.06143188 1.91573536 1.86316645 0.88079447 0.72066218 0.64645094
9.20160007 1.35851288 1.78246617 0.89441913 0.51104599 0.61845088
8.95195389 0.83841628 1.63919950 0.87015289 0.31539580 0.56874251
8.90199375 1.69919395 2.30994391 0.86529666 0.63920355 0.80146641
9.05180740 1.17884779 2.23713136 0.87985891 0.44345948 0.77620310
8.73385429 0.66301119 2.04999042 0.84895307 0.24941185 0.71127200
8.87735462 1.34197628 2.69105625 0.86290169 0.50482523 0.93369853
8.63184643 0.82942241 2.50639510 0.83903766 0.31201249 0.86962783
9.08752060 1.98089385 1.87119424 0.88333035 0.74517351 0.64923626
8.84474945 0.88470268 1.62017119 0.85973233 0.33280784 0.56214041
8.91394711 1.75954151 2.31595516 0.86645854 0.66190511 0.80355209
8.74049091 1.19351041 2.16081810 0.84959817 0.44897527 0.74972522
8.74503231 0.71911383 2.05369449 0.85003960 0.27051657 0.71255720
8.75823689 0.89682686 2.54520583 0.85132313 0.33736873 0.88309371
9.11888599 2.04773092 1.88042629 0.88637912 0.77031630 0.65243948
8.99155903 0.95613205 1.64871371 0.87400264 0.35967818 0.57204360
8.95016766 1.82508051 2.32847810 0.86997926 0.68655962 0.80789709
8.78851700 1.25649810 2.17482495 0.85426641 0.47267002 0.75458509
8.74809456 0.77471453 2.05554676 0.85033727 0.29143247 0.71319985
8.75433731 0.95204151 2.54576826 0.85094404 0.35813940 0.88328886
9.00687218 1.01498222 1.65273893 0.87549108 0.38181648 0.57344025
8.95558453 1.88483071 2.33298635 0.87050581 0.70903647 0.80946130
8.78620529 1.31256628 2.17627406 0.85404170 0.49376178 0.75508785
8.74692917 0.83002341 2.05647278 0.85022396 0.31223857 0.71352118
8.75581169 1.00788784 2.54801798 0.85108739 0.37914771 0.88406944
9.00226974 1.07178175 1.65310478 0.87504375 0.40318334 0.57356715
8.97006798 1.94675338 2.33999920 0.87191361 0.73233056 0.81189454
8.83912849 1.37744772 2.19172978 0.85918599 0.51816893 0.76045042
8.75703144 0.88649714 2.06017709 0.85120595 0.33348289 0.71480644
8.76455212 1.06469834 2.55251789 0.85193700 0.40051869 0.88563079
9.00492668 1.11514091 1.65456855 0.87530202 0.41949421 0.57407504
8.98916245 1.99523270 2.34751296 0.87376964 0.75056756 0.81450152
8.81146812 1.41565120 2.18641686 0.85649735 0.53254032 0.75860703
8.76243305 0.92875677 2.06249213 0.85173100 0.34938014 0.71560967
8.78610420 1.10929286 2.56039238 0.85403186 0.41729429 0.88836294
9.02366161 2.06235504 2.36003613 0.87712306 0.77581763 0.81884658
8.89424896 1.48655128 2.20960069 0.86454386 0.55921155 0.76665097
8.77769852 0.98613447 2.06758547 0.85321486 0.37096450 0.71737689
8.81702423 1.16943538 2.57164192 0.85703737 0.43991873 0.89226609
9.06144238 2.13086748 2.37356091 0.88079548 0.80159068 0.82353920
8.87326431 1.54038811 2.20670271 0.86250407 0.57946390 0.76564550
8.76746368 1.04081678 2.06665945 0.85222000 0.39153492 0.71705556
8.81710911 1.22585070 2.57389188 0.85704565 0.46114105 0.89304674
8.81376934 1.58705449 2.19414473 0.85672098 0.59701884 0.76128834
8.78199387 1.09849107 2.07175279 0.85363233 0.41323087 0.71882278
8.85130024 1.65140808 2.20621967 0.86036909 0.62122744 0.76547790
8.79035568 1.15564132 2.07545686 0.85444516 0.43472967 0.72010797
8.75924873 1.33030593 2.56151748 0.85142148 0.50043505 0.88875329
8.87693977 1.71406209 2.21539664 0.86286134 0.64479667 0.76866198
8.80991364 1.21450782 2.08193922 0.85634625 0.45687410 0.72235709
8.89540577 1.76121140 2.22215843 0.86465627 0.66253328 0.77100807
8.81372643 1.25736189 2.08425450 0.85671681 0.47299495 0.72316039
8.92032146 1.45487189 2.61382723 0.86707813 0.54729438 0.90690285
8.91457367 1.82335842 2.22988653 0.86651945 0.68591177 0.77368945
8.83452797 1.31695223 2.09119987 0.85873878 0.49541166 0.72557020
9.94386101 1.72411358 1.84412003 0.96656883 0.64857781 0.63984251
8.95229053 1.88986647 2.24244428 0.87018561 0.71093082 0.77804649
8.85108089 1.37626433 2.09721923 0.86034781 0.51772374 0.72765869
8.98762608 1.95650303 2.25451922 0.87362033 0.73599815 0.78223610
8.86723709 1.43583620 2.10323858 0.86191821 0.54013348 0.72974718
8.88491154 1.49598408 2.10972095 0.86363620 0.56275994 0.73199636
8.89642715 1.55541825 2.11481428 0.86475557 0.58511794 0.73376358
8.91965103 1.60276115 2.12222266 0.86701298 0.60292739 0.73633397
8.90940475 1.65877295 2.12222266 0.86601704 0.62399793 0.73633397
8.95041275 1.72454321 2.13472438 0.87000310 0.64873946 0.74067163
8.93367386 1.77961838 2.13333535 0.86837602 0.66945761 0.74018967
8.96044731 1.84347165 2.14259601 0.87097847 0.69347799 0.74340278
8.97153759 1.90453279 2.14815235 0.87205648 0.71644801 0.74533063
8.97958374 1.95046782 2.15231943 0.87283862 0.73372787 0.74677646
8.99944496 2.01400161 2.16019106 0.87476915 0.75762802 0.74950761
9.04921246 2.08478427 2.17547083 0.87960666 0.78425509 0.75480914
9.03025246 2.14026690 2.17408180 0.87776375 0.80512655 0.75432724
8.47600174 -2.65829873 2.41787481 0.82388914 -1.00000000 0.83891451
8.43181038 -2.10759878 2.43408728 0.81959361 -0.79283744 0.84453964
8.46122646 -2.59530759 2.40882587 0.82245296 -0.97630394 0.83577484
8.42669106 -2.06421471 2.42971492 0.81909603 -0.77651721 0.84302258
8.40511703 -2.53465366 2.38913083 0.81699896 -0.95348716 0.82894140
8.43133640 -1.95343339 2.42370319 0.81954753 -0.73484343 0.84093678
8.43593216 -1.89874732 2.42151713 0.81999427 -0.71427161 0.84017825
8.49891567 -2.17783284 2.87584829 0.82611644 -0.81925815 0.99781466
8.47590351 -1.85179925 2.42971492 0.82387960 -0.69661069 0.84302258
8.53083801 -2.12902880 2.88214684 0.82921934 -0.80089903 1.00000000
8.31601715 -1.76261616 2.37998152 0.80833822 -0.66306174 0.82576692
8.43166733 -1.74538362 2.41113329 0.81957972 -0.65657920 0.83657545
8.45567799 -1.69498765 2.41495895 0.82191360 -0.63762122 0.83790284
8.45293427 -1.63929319 2.41113329 0.82164693 -0.61667007 0.83657545
8.47441769 -1.58824944 2.41441226 0.82373518 -0.59746838 0.83771312
8.47476006 -1.53328192 2.41167974 0.82376844 -0.57679069 0.83676505
8.48801899 -1.48065579 2.41277289 0.82505721 -0.55699378 0.83714432
8.43268299 -2.29310369 2.79550028 0.81967843 -0.86262077 0.96993679
8.49679947 -1.44095778 2.41331935 0.82591075 -0.54206014 0.83733392
8.31463242 -2.21929741 2.75235772 0.80820364 -0.83485627 0.95496792
8.50188637 -1.38693225 2.41222620 0.82640517 -0.52173680 0.83695465
8.38552952 -2.18172908 2.77146363 0.81509501 -0.82072383 0.96159697
8.51233387 -1.33377957 2.41277289 0.82742071 -0.50174177 0.83714432
8.38799953 -2.12621951 2.76776576 0.81533509 -0.79984218 0.96031392
8.50532055 -1.27801812 2.40840054 0.82673901 -0.48076543 0.83562726
8.41598034 -2.07708716 2.77269626 0.81805491 -0.78135955 0.96202463
8.50937366 -1.22401381 2.40730762 0.82713294 -0.46045005 0.83524811
8.44737530 -2.02856684 2.77885962 0.82110655 -0.76310718 0.96416312
8.52070904 -1.17103899 2.40840054 0.82823479 -0.44052196 0.83562726
8.46366215 -1.97630727 2.78009224 0.82268971 -0.74344814 0.96459079
8.55093384 -1.13410306 2.41550541 0.83117270 -0.42662740 0.83809245
8.50116348 -1.58622599 2.35293508 0.82633489 -0.59670722 0.81638277
8.45432281 -1.93220580 2.77392888 0.82178187 -0.72685802 0.96245229
8.69111156 -1.42871523 1.91477323 0.84479839 -0.53745472 0.66435659
8.55407238 -1.07988095 2.41441226 0.83147782 -0.40623009 0.83771312
8.50527287 -1.53174210 2.35133815 0.82673436 -0.57621145 0.81582874
8.67870712 -1.37067950 1.91001976 0.84359258 -0.51562279 0.66270733
8.56068802 -1.02611327 2.41441226 0.83212084 -0.38600373 0.83771312
8.49764061 -1.47526383 2.34654760 0.82599247 -0.55496538 0.81416655
8.45241261 -2.02129889 2.29417181 0.82159621 -0.76037312 0.79599410
8.40163231 -2.28287745 2.70032859 0.81666023 -0.85877383 0.93691570
8.56314278 -0.97188002 2.41331935 0.83235943 -0.36560225 0.83733392
8.51624584 -1.42345440 2.34920907 0.82780099 -0.53547573 0.81509000
8.48565483 -1.97291529 2.29986620 0.82482743 -0.74217218 0.79796982
8.48945808 -2.46484971 2.25233817 0.82519710 -0.92722827 0.78147930
9.80241966 -0.88899326 2.20071125 0.95282036 -0.33442187 0.76356667
8.64308548 -1.25382340 1.89835203 0.84013009 -0.47166383 0.65865904
8.55759907 -0.91685480 2.41004014 0.83182061 -0.34490284 0.83619618
8.49838352 -1.36557257 2.34175682 0.82606471 -0.51370168 0.81250435
8.45829105 -1.91071343 2.28899503 0.82216763 -0.71877301 0.79419792
8.49546909 -2.40879822 2.24983358 0.82578140 -0.90614277 0.78061032
8.43334866 -2.17808485 2.70152760 0.81974316 -0.81935292 0.93733168
9.69312859 -0.81794965 2.17458081 0.94219697 -0.30769667 0.75450033
8.56702042 -0.86344486 2.41113329 0.83273637 -0.32481107 0.83657545
8.51441479 -1.31334257 2.34388614 0.82762295 -0.49405378 0.81324315
8.46635342 -1.85671222 2.28795958 0.82295132 -0.69845885 0.79383868
8.47686768 -2.34599853 2.24081683 0.82397330 -0.88251877 0.77748185
8.43022346 -2.12082553 2.69613218 0.81943935 -0.79781312 0.93545967
9.64751339 -0.75318956 2.16306567 0.93776309 -0.28333518 0.75050503
8.57482529 -0.82342309 2.41222620 0.83349502 -0.30975565 0.83695465
8.50335503 -1.27060020 2.33909535 0.82654792 -0.47797495 0.81158090
8.44099140 -1.80958605 2.27864122 0.82048601 -0.68073088 0.79060555
8.47102261 -2.30141854 2.23630857 0.82340515 -0.86574864 0.77591765
8.43271828 -2.07923126 2.69373417 0.81968188 -0.78216612 0.93462765
9.61788368 -0.70536321 2.15553665 0.93488300 -0.26534384 0.74789274
8.55683041 -0.76752192 2.40566802 0.83174586 -0.28872675 0.83467919
8.50926208 -1.21686983 2.33856320 0.82712209 -0.45776263 0.81139630
8.45597935 -1.75729167 2.27967668 0.82194293 -0.66105878 0.79096478
8.52459717 -2.25865340 2.24682808 0.82861274 -0.84966123 0.77956754
8.45303345 -2.02800393 2.69613218 0.82165653 -0.76289541 0.93545967
8.57298946 -0.71467471 2.40894723 0.83331656 -0.26884666 0.83581698
8.54156399 -1.16683161 2.34548283 0.83026195 -0.43893924 0.81379712
8.47253799 -1.70525694 2.28122973 0.82355243 -0.64148432 0.79150367
8.45618057 -2.18355513 2.22478747 0.82196248 -0.82141072 0.77192026
8.44517994 -1.97003639 2.68953753 0.82089317 -0.74108917 0.93317157
8.49892902 -2.54904246 2.65909719 0.82611769 -0.95889992 0.92260993
8.57539272 -0.66065204 2.40840054 0.83355021 -0.24852438 0.83562726
8.53726006 -1.11162007 2.34228921 0.82984358 -0.41816974 0.81268907
8.47170258 -1.64980030 2.27812362 0.82347125 -0.62062263 0.79042596
8.45096684 -2.12561369 2.21977830 0.82145566 -0.79961431 0.77018225
8.47598934 -1.92119658 2.69553256 0.82388794 -0.72271657 0.93525165
8.88231754 -2.60240006 2.77531219 0.86338407 -0.97897202 0.96293229
8.71990108 -0.47638834 1.94870698 0.84759676 -0.17920798 0.67613035
8.58129311 -0.60688972 2.40894723 0.83412373 -0.22830005 0.83581698
8.57085323 -1.06133723 2.34974122 0.83310896 -0.39925432 0.81527466
8.50469303 -1.60077333 2.28433585 0.82667798 -0.60217965 0.79258138
8.50174713 -2.08177066 2.22979665 0.82639164 -0.78312141 0.77365822
9.07166004 -0.65520984 1.55091476 0.88178867 -0.24647713 0.53811097
8.72856712 -0.42185938 1.95003557 0.84843916 -0.15869525 0.67659134
8.58301735 -0.55284113 2.40840054 0.83429134 -0.20796803 0.83562726
8.54864025 -1.00402343 2.34175682 0.83094978 -0.37769398 0.81250435
8.52218914 -1.54866922 2.28640652 0.82837868 -0.58257908 0.79329979
8.44688988 -2.01200175 2.21176362 0.82105941 -0.75687569 0.76740146
8.42189884 -2.35416722 2.62016511 0.81863022 -0.88559169 0.90910190
9.06576538 -0.59757239 1.54919803 0.88121569 -0.22479504 0.53751528
8.75248241 -0.36785933 1.95490742 0.85076374 -0.13838148 0.67828166
8.61049652 -0.51381958 2.41550541 0.83696234 -0.19328888 0.83809245
8.59732723 -0.96879661 2.35399961 0.83568227 -0.36444235 0.81675214
8.49133015 -1.50185287 2.27605295 0.82537907 -0.56496769 0.78970748
8.47135448 -1.97572792 2.21577096 0.82343739 -0.74323022 0.76879185
8.35903263 -2.29436564 2.59692216 0.81251943 -0.86309546 0.90103740
9.05274582 -0.55391711 1.54645121 0.87995011 -0.20837279 0.53656226
8.72877979 -0.32572383 1.94914985 0.84845978 -0.12253094 0.67628402
8.61355495 -0.45970845 2.41550541 0.83725965 -0.17293333 0.83809245
8.56874561 -0.91100907 2.34441829 0.83290410 -0.34270379 0.81342775
8.53679752 -1.45455122 2.28588891 0.82979864 -0.54717374 0.79312021
8.47416401 -1.92030048 2.21326637 0.82371050 -0.72237951 0.76792282
8.41767788 -2.25357366 2.61086798 0.81821990 -0.84775037 0.90587610
9.05014515 -0.49671578 1.54542124 0.87969732 -0.18685476 0.53620487
9.81527042 -0.83270955 2.14553380 0.95406950 -0.31324905 0.74442208
8.63357067 -0.40635252 2.42042422 0.83920521 -0.15286188 0.83979905
8.59347916 -0.85911536 2.34974122 0.83530825 -0.32318240 0.81527466
8.52669621 -1.39780426 2.28071213 0.82881677 -0.52582663 0.79132408
8.47850227 -1.86533630 2.21126270 0.82413220 -0.70170301 0.76722765
8.47900867 -1.65740955 2.67934608 0.82418144 -0.62348509 0.92963552
8.39646816 -2.19153953 2.59982753 0.81615824 -0.82441431 0.90204549
9.08064175 -0.44111940 1.55022812 0.88266170 -0.16594049 0.53787273
9.73466492 -0.76412028 2.12651968 0.94623441 -0.28744709 0.73782492
8.64364338 -0.35239393 2.42261028 0.84018433 -0.13256371 0.84055758
8.60638332 -0.80584133 2.35187054 0.83656257 -0.30314174 0.81601346
8.55630970 -1.34745860 2.28640652 0.83169526 -0.50688756 0.79329979
8.49573231 -1.81325364 2.21276546 0.82580698 -0.68211055 0.76774901
8.50612068 -1.60733008 2.68474174 0.82681680 -0.60464615 0.93150765
8.40264893 -2.13687062 2.59750319 0.81675905 -0.80384892 0.90123904
8.44265366 -2.64156556 2.55757999 0.82064760 -0.99370533 0.88738710
9.03007889 -0.38192731 1.54095769 0.87774688 -0.14367358 0.53465623
9.72564220 -0.70192850 2.12349486 0.94535738 -0.26405177 0.73677540
8.64376450 -0.29801595 2.42206359 0.84019607 -0.11210778 0.84036785
8.59975624 -0.75071716 2.34867668 0.83591837 -0.28240511 0.81490529
8.53785610 -1.28969491 2.27915907 0.82990152 -0.48515800 0.79078519
8.51643372 -1.76182139 2.21527004 0.82781923 -0.66276276 0.76861805
8.51605225 -1.55385315 2.68474174 0.82778215 -0.58452916 0.93150765
8.52371311 -2.11046076 2.63120556 0.82852679 -0.79391408 0.91293252
8.38755989 -2.56640029 2.53564382 0.81529236 -0.96542960 0.87977606
9.04214573 -0.32551476 1.54267442 0.87891978 -0.12245229 0.53525186
8.76541233 -0.10657288 1.95623612 0.85202056 -0.04009064 0.67874271
8.65892887 -0.24404787 2.42588925 0.84167010 -0.09180603 0.84169525
8.60814571 -0.69698912 2.34974122 0.83673388 -0.26219368 0.81527466
8.57065392 -1.23956132 2.28588891 0.83308959 -0.46629873 0.79312021
8.50835896 -1.70442891 2.21026087 0.82703435 -0.64117283 0.76688004
8.53879547 -1.50266063 2.68893814 0.82999283 -0.56527156 0.93296361
8.45862103 -2.03821731 2.60680032 0.82219970 -0.76673752 0.90446478
8.38146877 -2.50699806 2.52889395 0.81470031 -0.94308364 0.87743413
9.07946491 -0.26966876 1.54885471 0.88254732 -0.10144411 0.53739619
8.76590919 -0.05149643 1.95623612 0.85206890 -0.01937195 0.67874271
8.65805912 -0.20320044 2.42534280 0.84158558 -0.07644004 0.84150565
8.62478828 -0.65747398 2.35346723 0.83835155 -0.24732885 0.81656742
8.54769230 -1.19521415 2.27812362 0.83085763 -0.44961619 0.79042596
8.50300026 -1.66168463 2.20675421 0.82651347 -0.62509328 0.76566333
8.52886200 -1.45946980 2.68354273 0.82902730 -0.54902399 0.93109161
8.41967869 -1.98701978 2.59169245 0.81841439 -0.74747801 0.89922291
8.41895103 -2.47511220 2.53676867 0.81834364 -0.93108881 0.88016635
9.04517841 -0.22607350 1.54267442 0.87921458 -0.08504443 0.53525186
8.76995564 -0.01018312 1.95712185 0.85246223 -0.00383069 0.67905003
8.78296375 -0.47952348 1.91218042 0.85372663 -0.18038736 0.66345698
8.67647839 -0.14905342 2.43026161 0.84337598 -0.05607098 0.84321231
8.62874889 -0.60327023 2.35346723 0.83873653 -0.22693847 0.81656742
8.57610321 -1.14424503 2.28381824 0.83361924 -0.43044260 0.79240179
8.52848721 -1.61113727 2.21076179 0.82899088 -0.60607833 0.76705384
8.55291939 -1.40836823 2.68833852 0.83136570 -0.52980059 0.93275559
8.61302757 -1.97515428 2.64805675 0.83720839 -0.74301440 0.91877925
8.73482418 -2.50921416 2.62845159 0.84904736 -0.94391727 0.91197699
9.06021023 -0.16946386 1.54507792 0.88067567 -0.06374899 0.53608578
8.78154755 0.04500705 1.95977914 0.85358894 0.01693077 0.67997199
8.78775311 -0.42442811 1.91261256 0.85419214 -0.15966155 0.66360688
8.67531967 -0.09451848 2.42971492 0.84326333 -0.03555600 0.84302258
8.63429260 -0.54916954 2.35399961 0.83927542 -0.20658684 0.81675214
8.56011963 -1.08747017 2.27760601 0.83206558 -0.40908501 0.79024637
8.52701759 -1.55540824 2.20775604 0.82884800 -0.58511418 0.76601094
8.54276085 -1.35157526 2.68234372 0.83037829 -0.50843620 0.93067557
8.39352226 -1.86994433 2.57600355 0.81587189 -0.70343649 0.89377946
9.06306648 -0.11255395 1.54542124 0.88095331 -0.04234060 0.53620487
8.81424427 0.10063692 1.96730828 0.85676718 0.03785764 0.68258435
8.78829575 -0.36911854 1.91218042 0.85424489 -0.13885517 0.66345698
8.69498062 -0.04005195 2.43518019 0.84517443 -0.01506676 0.84491885
8.64142132 -0.49513778 2.35506415 0.83996832 -0.18626115 0.81712151
8.58788681 -1.03616011 2.28330040 0.83476466 -0.38978317 0.79222208
8.53662300 -1.50180101 2.20775604 0.82978165 -0.56494820 0.76601094
8.56994247 -1.30078077 2.68833852 0.83302039 -0.48932829 0.93275559
8.44814968 -1.82636917 2.58936810 0.82118183 -0.68704438 0.89841646
8.40675640 -2.30015278 2.51933193 0.81715828 -0.86527252 0.87411642
9.06950569 -0.05563018 1.54645121 0.88157922 -0.02092699 0.53656226
8.81928825 0.15613316 1.96863699 0.85725749 0.05873424 0.68304533
8.69698429 0.01458838 2.43572688 0.84536922 0.00548786 0.84510851
8.65206242 -0.44124356 2.35719347 0.84100270 -0.16598719 0.81786031
8.57694912 -0.98024720 2.27864122 0.83370149 -0.36874983 0.79060555
8.53444004 -1.44616675 2.20475054 0.82956946 -0.54401964 0.76496816
8.56284523 -1.24467766 2.68354273 0.83233052 -0.46822339 0.93109161
8.46695423 -1.77480495 2.59169245 0.82300967 -0.66764694 0.89922291
8.37656498 -2.23530579 2.50583267 0.81422365 -0.84087831 0.86943269
9.09134960 0.00140777 1.55022812 0.88370252 0.00052958 0.53787273
8.82398224 0.21169674 1.96996570 0.85771370 0.07963618 0.68350637
8.71018791 0.06937120 2.43955255 0.84665263 0.02609609 0.84643590
8.67199612 -0.38768822 2.36198401 0.84294027 -0.14584073 0.81952244
8.61367702 -0.92958200 2.28692436 0.83727151 -0.34969056 0.79347950
8.54908943 -1.39346302 2.20625329 0.83099341 -0.52419353 0.76548958
8.58372211 -1.19272077 2.68773913 0.83435982 -0.44867823 0.93254763
8.84194851 -1.79459786 2.70442104 0.85946012 -0.67509264 0.93833560
8.48882961 -2.20847011 2.53564382 0.82513601 -0.83078325 0.87977606
9.07145882 0.05835908 1.54679465 0.88176906 0.02195354 0.53668141
9.07951069 -0.40811181 1.50221884 0.88255173 -0.15352368 0.52121526
8.81662941 0.26694435 1.96863699 0.85699904 0.10041925 0.68304533
9.96202564 -0.83203387 2.10379100 0.96833450 -0.31299487 0.72993886
8.78267193 -1.19790316 1.78168392 0.85369825 -0.45062774 0.61817944
8.70591640 0.11035831 2.43845940 0.84623742 0.04151464 0.84605664
8.65639114 -0.34608442 2.35719347 0.84142345 -0.13019019 0.81786031
8.58913040 -0.88607508 2.27915907 0.83488554 -0.33332410 0.79078519
8.54409027 -1.35131919 2.20324779 0.83050752 -0.50833988 0.76444674
8.61004257 -1.15509725 2.69433355 0.83691823 -0.43452498 0.93483561
8.45215130 -1.67498410 2.58123302 0.82157081 -0.63009626 0.89559388
8.43037415 -2.15072799 2.51483226 0.81945401 -0.80906183 0.87255520
9.08684444 0.10131752 1.54954135 0.88326460 0.03811367 0.53763443
9.10891628 -0.36649272 1.50688541 0.88541007 -0.13786739 0.52283436
8.84255981 0.30950648 1.97483742 0.85951954 0.11643028 0.68519670
9.76303291 -0.76951867 2.06028819 0.94899184 -0.28947788 0.71484500
8.79016113 -1.15676272 1.78208530 0.85442621 -0.43515152 0.61831868
8.73197937 0.16563018 2.44611073 0.84877080 0.06230683 0.84871137
8.69307423 -0.29293802 2.36677456 0.84498912 -0.11019756 0.82118458
8.62530136 -0.83499700 2.28744197 0.83840144 -0.31410953 0.79365909
8.55432606 -1.29790378 2.20374870 0.83150244 -0.48824602 0.76462054
8.47144032 -1.08201540 2.64817214 0.82344574 -0.40703303 0.91881931
8.51029968 -1.81298792 2.13087249 0.82722300 -0.68201059 0.73933518
8.45686722 -1.62077761 2.57948995 0.82202923 -0.60970485 0.89498907
8.45675182 -2.10098600 2.51876950 0.82201797 -0.79034984 0.87392128
9.08011913 0.15829322 1.54851139 0.88261092 0.05954681 0.53727704
9.10906887 -0.30918154 1.50655210 0.88542485 -0.11630805 0.52271873
8.81511021 0.36395511 1.96907985 0.85685134 0.13691279 0.68319899
9.75206757 -0.70706195 2.05694175 0.94792598 -0.26598287 0.71368390
8.72884369 0.22043814 2.44556427 0.84846604 0.08292452 0.84852177
8.68318081 -0.23796844 2.36358094 0.84402746 -0.08951908 0.82007653
8.60536003 -0.77858239 2.28071213 0.83646309 -0.29288748 0.79132408
8.55081940 -1.24243259 2.20074320 0.83116162 -0.46737885 0.76357776
8.61251640 -1.04540586 2.69073653 0.83715868 -0.39326125 0.93358761
8.49680233 -1.75443661 2.12459350 0.82591099 -0.65998477 0.73715657
8.47253132 -1.56864178 2.58123302 0.82355177 -0.59009236 0.89559388
8.42317390 -2.03642464 2.50470781 0.81875414 -0.76606315 0.86904240
9.10258102 0.21595536 1.55263150 0.88479424 0.08123818 0.53870660
9.18573570 -0.25418046 1.51921844 0.89287710 -0.09561772 0.52711350
8.83602428 0.42050081 1.97439456 0.85888427 0.15818419 0.68504304
9.75826931 -0.64589947 2.05736017 0.94852883 -0.24297476 0.71382904
8.74266815 0.27579942 2.44993639 0.84980977 0.10375035 0.85003871
8.69028664 -0.18354173 2.36517763 0.84471816 -0.06904481 0.82063049
8.62933636 -0.72607285 2.28588891 0.83879364 -0.27313441 0.79312021
8.56037426 -1.18895292 2.20124412 0.83209038 -0.44726083 0.76375157
8.61891460 -0.99127150 2.69073653 0.83778065 -0.37289694 0.93358761
8.48100090 -1.69575071 2.11783171 0.82437503 -0.63790828 0.73481047
8.51049042 -1.52035844 2.58994913 0.82724154 -0.57192910 0.89861804
8.48061848 -1.99410856 2.51820707 0.82433790 -0.75014466 0.87372613
9.10498238 0.27327093 1.55331814 0.88502765 0.10279918 0.53894484
9.14180660 -0.19539008 1.51155198 0.88860708 -0.07350192 0.52445352
8.84099674 0.47644824 1.97616613 0.85936761 0.17923051 0.68565768
8.75806427 0.33142033 2.45485520 0.85130632 0.12467385 0.85174537
8.71632671 -0.12936617 2.37209749 0.84724933 -0.04866502 0.82303143
8.61639023 -0.67053097 2.28122973 0.83753526 -0.25224063 0.79150367
8.57535076 -1.13617873 2.20324779 0.83354610 -0.42740822 0.76444674
8.64393616 -0.93920344 2.69673157 0.84021276 -0.35330996 0.93566763
8.51627064 -1.64716291 2.12411070 0.82780337 -0.61963046 0.73698908
8.49346066 -1.46237195 2.58181429 0.82558620 -0.55011570 0.89579552
8.47614956 -1.93689680 2.51314473 0.82390350 -0.72862267 0.87196970
9.11686802 0.33100459 1.55572164 0.88618296 0.12451746 0.53977877
9.16454315 -0.13832243 1.51521850 0.89081711 -0.05203419 0.52572566
8.85145473 0.53283972 1.97926641 0.86038411 0.20044388 0.68673337
8.77925873 -0.47243530 1.84612036 0.85336649 -0.17772092 0.64053655
8.75196552 0.38626340 2.45376205 0.85071349 0.14530474 0.85136610
8.71118450 -0.07453470 2.37050056 0.84674948 -0.02803850 0.82247740
8.65126991 -0.61851162 2.28951263 0.84092563 -0.23267198 0.79437751
8.58808136 -1.08301640 2.20475054 0.83478355 -0.40740958 0.76496816
8.62689495 -0.88249040 2.68953753 0.83855635 -0.33197564 0.93317157
8.56271553 -1.60031116 2.13328743 0.83231795 -0.60200578 0.74017304
8.51003647 -1.41021109 2.58413839 0.82719737 -0.53049386 0.89660192
9.10476685 0.38783944 1.55400491 0.88500673 0.14589761 0.53918314
9.13565254 -0.08041135 1.51021862 0.88800889 -0.03024918 0.52399087
8.82847500 0.58710527 1.97483742 0.85815042 0.22085753 0.68519670
8.78791523 -0.41752952 1.84737527 0.85420793 -0.15706643 0.64097196
8.86148643 0.43320557 2.48546028 0.86135924 0.16296346 0.86236423
8.73071671 -0.03360264 2.37582350 0.84864807 -0.01264066 0.82432425
8.64252090 -0.57699180 2.28640652 0.84007519 -0.21705303 0.79329979
8.59693336 -1.04300952 2.20575237 0.83564401 -0.39235979 0.76531577
8.64994335 -0.84372419 2.69553256 0.84079671 -0.31739253 0.93525165
8.54150867 -1.55479634 2.12604260 0.83025658 -0.58488399 0.73765939
8.51847744 -1.37039256 2.58471966 0.82801789 -0.51551491 0.89680362
8.41819763 -1.82630503 2.48952103 0.81827044 -0.68702024 0.86377317
9.12448502 0.43181291 1.55778170 0.88692337 0.16243957 0.54049355
9.15367794 -0.03747196 1.51321864 0.88976097 -0.01409622 0.52503175
8.87812805 0.63256431 1.98679543 0.86297685 0.23795833 0.68934566
9.99370861 -0.62867624 1.58664608 0.97141415 -0.23649570 0.55050844
8.80737305 -0.37682480 1.85114002 0.85609925 -0.14175412 0.64227819
9.57352257 -1.51056695 1.85875738 0.93057096 -0.56824577 0.64492112
8.82017612 0.48666674 2.47452998 0.85734379 0.18307450 0.85857177
8.74039555 0.02125539 2.37848496 0.84958887 0.00799586 0.82524765
8.66719055 -0.52391070 2.29210114 0.84247315 -0.19708496 0.79527563
8.59370136 -0.98784500 2.20324779 0.83532983 -0.37160796 0.76444674
8.66837215 -0.79060292 2.69972920 0.84258801 -0.29740936 0.93670774
8.54537201 -1.50010478 2.12459350 0.83063209 -0.56431007 0.73715657
8.57707310 -1.98482859 2.06064010 0.83371353 -0.74665368 0.71496707
8.50610828 -1.31367886 2.57832766 0.82681555 -0.49418029 0.89458579
8.68856335 -1.82851505 2.56714201 0.84455067 -0.68785161 0.89070481
9.12946033 0.48957437 1.55915511 0.88740700 0.18416831 0.54097003
9.13992882 0.02004310 1.51088536 0.88842458 0.00753982 0.52422220
8.84092712 0.68569475 1.97926641 0.85936081 0.25794497 0.68673337
8.87355518 0.21279411 1.92989802 0.86253232 0.08004899 0.66960436
9.99746132 -0.56587195 1.58664608 0.97177893 -0.21286996 0.55050844
8.79006386 0.54036081 2.46687865 0.85441679 0.20327316 0.85591704
8.77093410 0.07636917 2.38700175 0.85255730 0.02872859 0.82820266
8.66066456 -0.46894357 2.28951263 0.84183884 -0.17640740 0.79437751
8.60743618 -0.93468428 2.20525146 0.83666492 -0.35160995 0.76514196
8.54122734 -1.44414997 2.12121272 0.83022922 -0.54326099 0.73598355
8.58557987 -1.93003619 2.05971384 0.83454043 -0.72604185 0.71464568
8.52745056 -1.26213789 2.58239532 0.82889009 -0.47479159 0.89599717
8.38221169 -1.70835710 2.47208428 0.81477249 -0.64265054 0.85772324
9.14193630 0.54790437 1.56190193 0.88861966 0.20611091 0.54192311
9.16525841 0.07763045 1.51521850 0.89088666 0.02920306 0.52572566
8.88307953 0.74524969 1.98989570 0.86345816 0.28034836 0.69042134
9.88249874 -0.49733460 1.56747437 0.96060425 -0.18708755 0.54385650
10.23508739 -0.41504848 1.35660911 0.99487674 -0.15613312 0.47069395
8.80760670 0.59705937 2.47289038 0.85612196 0.22460206 0.85800290
8.76257038 0.13137899 2.38487267 0.85174435 0.04942221 0.82746398
8.64993095 -0.41390347 2.28588891 0.84079552 -0.15570240 0.79312021
8.59003067 -0.87816662 2.19924045 0.83497304 -0.33034912 0.76305634
8.53671837 -1.38830650 2.11783171 0.82979095 -0.52225375 0.73481047
8.57853794 -1.87186170 2.05508375 0.83385593 -0.70415777 0.71303922
8.53142166 -1.20800614 2.58123302 0.82927608 -0.45442829 0.89559388
8.46241760 -1.66956639 2.49289584 0.82256871 -0.62805825 0.86494410
9.13634777 0.60519904 1.56155849 0.88807648 0.22766404 0.54180396
9.16458988 0.13521555 1.51521850 0.89082164 0.05086545 0.52572566
8.84132290 0.79763448 1.98148084 0.85939926 0.30005449 0.68750167
8.97409916 -0.39698461 1.41985202 0.87230545 -0.14933784 0.49263695
8.83437347 0.65473258 2.48163462 0.85872376 0.24629760 0.86103684
8.78855705 0.18694445 2.39232469 0.85427028 0.07032485 0.83004957
8.67166424 -0.36030328 2.29106569 0.84290802 -0.13553905 0.79491639
8.60694027 -0.82531297 2.20224595 0.83661669 -0.31046659 0.76409918
8.53376293 -1.33287179 2.11493373 0.82950366 -0.50140029 0.73380500
8.54637051 -1.80855799 2.04443407 0.83072913 -0.68034416 0.70934415
8.53504848 -1.15387428 2.58007097 0.82962865 -0.43406492 0.89519066
8.47651005 -1.61709106 2.49402070 0.82393855 -0.60831803 0.86533439
9.14611816 0.66362071 1.56396198 0.88902617 0.24964114 0.54263788
9.16947460 0.19290663 1.51621854 0.89129645 0.07256770 0.52607262
8.84778214 0.85432142 1.98413813 0.86002713 0.32137901 0.68842369
8.85040760 0.37929681 1.92600870 0.86028236 0.14268404 0.66825491
9.13623428 -0.34629279 1.44573390 0.88806546 -0.13026857 0.50161701
8.97388935 -1.18701899 1.73377776 0.87228507 -0.44653332 0.60155773
8.83583736 0.71070325 2.48327422 0.85886610 0.26735267 0.86160570
8.76986408 0.24172269 2.38753414 0.85245329 0.09093135 0.82838738
8.65831089 -0.30530250 2.28692436 0.84161007 -0.11484883 0.79347950
8.59653091 -0.76980013 2.19823861 0.83560485 -0.28958374 0.76270872
8.52660847 -1.27696323 2.11106968 0.82880825 -0.48036858 0.73246431
8.56137562 -1.75561476 2.04536009 0.83218771 -0.66042793 0.70966548
8.54972458 -1.10118449 2.58239532 0.83105516 -0.41424409 0.89599717
8.49216270 -1.56485677 2.49570823 0.82546002 -0.58866853 0.86591989
9.16413784 0.25041696 1.51555181 0.89077771 0.09420197 0.52584130
8.88685131 0.91459030 1.99432456 0.86382478 0.34405097 0.69195801
8.75226974 0.43041959 1.90483415 0.85074311 0.16191544 0.66090810
9.16388416 -0.28963560 1.44988775 0.89075309 -0.10895525 0.50305825
8.85155582 0.75400990 2.48873949 0.86039394 0.28364378 0.86350197
8.81294823 0.28437468 2.39977670 0.85664117 0.10697620 0.83263510
8.67703342 -0.26498795 2.29158330 0.84342992 -0.09968328 0.79509598
8.62513924 -0.73146749 2.20475054 0.83838570 -0.27516377 0.76496816
8.54982376 -1.23923337 2.11541677 0.83106482 -0.46617538 0.73397261
8.57908821 -1.71718240 2.04767513 0.83390939 -0.64597046 0.71046871
8.56051826 -1.06157589 2.58413839 0.83210433 -0.39934409 0.89660192
8.49188900 -1.52344775 2.49345827 0.82543343 -0.57309127 0.86513925
9.19045258 0.29442197 1.52021837 0.89333558 0.11075579 0.52746040
8.89795208 0.95816404 1.99786770 0.86490381 0.36044258 0.69318736
8.91005802 0.47990641 1.94026923 0.86608052 0.18053141 0.67320275
9.16712093 -0.24649744 1.45020723 0.89106768 -0.09272751 0.50316912
8.80902100 -1.06719959 1.69889081 0.85625947 -0.40145960 0.58945322
8.84664345 0.80961061 2.48873949 0.85991645 0.30455968 0.86350197
8.79557514 0.33918339 2.39551854 0.85495251 0.12759416 0.83115768
8.66886997 -0.21025211 2.28899503 0.84263641 -0.07909273 0.79419792
8.62377548 -0.67679197 2.20324779 0.83825314 -0.25459591 0.76444674
8.54782581 -1.18418014 2.11300182 0.83087063 -0.44546542 0.73313469
8.57443333 -1.66025031 2.04397106 0.83345693 -0.62455368 0.70918351
8.55561256 -1.00645339 2.58065200 0.83162749 -0.37860808 0.89539230
8.48995113 -1.46807289 2.49008346 0.82524502 -0.55226034 0.86396831
9.18053818 0.35187644 1.51888514 0.89237189 0.13236904 0.52699780
8.91694069 1.01698244 2.00362539 0.86674953 0.38256890 0.69518507
8.91661453 0.53644425 1.94242990 0.86671782 0.20179984 0.67395246
8.83310795 -1.01380444 1.70234120 0.85860080 -0.38137341 0.59065038
8.87583923 0.86863089 2.49857688 0.86275434 0.32676196 0.86691517
8.81830978 0.39550579 2.40243816 0.85716236 0.14878154 0.83355856
8.70285702 -0.15629317 2.29779553 0.84594005 -0.05879444 0.79725140
8.63558102 -0.62316978 2.20525146 0.83940065 -0.23442428 0.76514196
8.55509758 -1.13044953 2.11300182 0.83157742 -0.42525300 0.73313469
8.57704926 -1.60489392 2.04211879 0.83371121 -0.60372972 0.70854086
8.57318211 -0.95392030 2.58413839 0.83333534 -0.35884616 0.89660192
8.49143791 -1.41342199 2.48783350 0.82538956 -0.53170168 0.86318761
9.18996811 0.41005340 1.52088499 0.89328849 0.15425406 0.52769172
8.91231060 1.07322633 2.00406814 0.86629945 0.40372676 0.69533867
8.91306782 0.59245807 1.94242990 0.86637306 0.22287114 0.67395246
8.87417316 -0.40874144 1.78569782 0.86259240 -0.15376054 0.61957210
8.82173634 -0.95642078 1.69889081 0.85749543 -0.35978681 0.58945322
8.88742447 0.92621589 2.50349569 0.86388046 0.34842432 0.86862183
8.82720470 0.45146894 2.40563202 0.85802698 0.16983379 0.83466673
8.68821335 -0.10146449 2.29365420 0.84451663 -0.03816896 0.79581451
8.63932610 -0.56889892 2.20525146 0.83976465 -0.21400864 0.76514196
8.58321953 -1.07928801 2.11831474 0.83431095 -0.40600705 0.73497808
8.58122253 -1.54992056 2.04072976 0.83411688 -0.58304983 0.70805889
8.57710266 -0.89983976 2.58355737 0.83371639 -0.33850211 0.89640033
8.51909542 -1.36311817 2.49345827 0.82807797 -0.51277840 0.86513925
9.19705868 0.46826684 1.52255166 0.89397770 0.17615283 0.52827001
8.92086601 1.13120019 2.00761127 0.86713105 0.42553538 0.69656801
8.95591927 0.65174413 1.95280123 0.87053835 0.24517339 0.67755091
9.48404884 -0.07549326 1.50101233 0.92187387 -0.02839909 0.52079660
8.70027065 -0.04690858 2.29676008 0.84568864 -0.01764609 0.79689211
8.64272976 -0.51460552 2.20525146 0.84009552 -0.19358453 0.76514196
8.58597660 -1.02488613 2.11734867 0.83457899 -0.38554212 0.73464286
8.62336349 -1.50172329 2.04860139 0.83821309 -0.56491894 0.71079010
8.59211159 -0.84684694 2.58646274 0.83517528 -0.31856725 0.89740837
8.52369881 -1.30897295 2.49233341 0.82852542 -0.49241003 0.86474895
9.20574856 0.52669382 1.52455163 0.89482242 0.19813192 0.52896392
8.95416832 1.19272828 2.01691198 0.87036812 0.44868106 0.69979501
8.94191265 0.70725483 1.95064044 0.86917686 0.26605543 0.67680120
9.46459293 -0.01591136 1.49781704 0.91998273 -0.00598554 0.51968795
8.84451771 1.03417778 2.49475121 0.85970980 0.38903746 0.86558783
8.86316776 0.56495738 2.41734242 0.86152267 0.21252592 0.83872980
8.71005249 0.00778859 2.29934859 0.84663945 0.00292991 0.79779023
8.66125870 -0.46115169 2.20925879 0.84189659 -0.17347625 0.76653236
8.59224701 -0.97091889 2.11734867 0.83518845 -0.36524069 0.73464286
8.59726334 -0.79284471 2.58646274 0.83567607 -0.29825267 0.89740837
8.54124641 -1.25681090 2.49514580 0.83023107 -0.47278768 0.86572474
8.98125553 1.25389719 2.02488399 0.87300110 0.47169161 0.70256102
8.96648312 0.76585096 1.95712256 0.87156516 0.28809816 0.67905027
9.43094349 0.04332977 1.49238503 0.91671193 0.01629981 0.51780325
8.86550903 0.21990000 1.86243403 0.86175025 0.08272208 0.64619678
8.82482052 0.61828905 2.40776110 0.85779524 0.23258825 0.83540541
8.71369553 0.06255170 2.30038404 0.84699357 0.02353073 0.79814947
8.66785336 -0.40691334 2.21026087 0.84253758 -0.15307283 0.76688004
8.60589886 -0.91771847 2.11928058 0.83651549 -0.34522775 0.73531318
8.58202934 -1.38350439 2.03424740 0.83419526 -0.52044731 0.70580977
8.60970306 -0.73944831 2.58878708 0.83688521 -0.27816600 0.89821488
8.52807522 -1.20012879 2.48895860 0.82895082 -0.45146498 0.86357802
8.99056339 1.31287825 2.02887011 0.87390584 0.49387914 0.70394403
8.96927357 0.82286960 1.95885110 0.87183642 0.30954745 0.67965001
9.44825268 0.10281648 1.49526083 0.91839445 0.03867755 0.51880103
9.13481712 -0.38336557 1.36234820 0.88792765 -0.14421463 0.47268522
8.89131832 0.27651262 1.86829007 0.86425894 0.10401864 0.64822865
9.82779312 -0.82948828 1.89211094 0.95528674 -0.31203726 0.65649360
9.08061695 1.16370642 2.56579924 0.88265926 0.43776360 0.89023888
8.76220131 0.65554720 2.39126015 0.85170847 0.24660404 0.82968020
8.72103024 0.10372309 2.30245471 0.84770656 0.03901860 0.79886794
8.67354298 -0.36623511 2.21126270 0.84309065 -0.13777049 0.76722765
8.60626507 -0.87676978 2.11831474 0.83655107 -0.32982364 0.73497808
8.59229660 -1.34365749 2.03517342 0.83519328 -0.50545770 0.70613104
8.62072372 -0.69946909 2.59111142 0.83795649 -0.26312658 0.89902133
8.54884529 -1.16203201 2.49345827 0.83096969 -0.43713373 0.86513925
8.97656536 1.35404956 2.02709842 0.87254518 0.50936699 0.70332932
8.97696114 0.86622608 1.96144390 0.87258369 0.32585731 0.68054962
9.43581867 0.14712881 1.49334371 0.91718578 0.05534698 0.51813591
9.19381332 -0.34257624 1.37110424 0.89366227 -0.12887049 0.47572324
8.91336823 0.31930241 1.87330973 0.86640227 0.12011532 0.64997023
9.83868217 -0.76816875 1.89326108 0.95634514 -0.28897005 0.65689266
8.93016624 1.20118046 2.52481008 0.86803508 0.45186061 0.87601715
8.91934967 0.72331107 2.43597269 0.86698371 0.27209547 0.84519380
8.74338341 0.15899192 2.30866694 0.84987932 0.05980965 0.80102336
8.68147755 -0.31195292 2.21276546 0.84386188 -0.11735059 0.76774901
8.61353683 -0.82285810 2.11879778 0.83725792 -0.30954313 0.73514569
8.62303925 -0.64515179 2.59053040 0.83818156 -0.24269348 0.89881968
8.52363110 -1.10402775 2.48389626 0.82851881 -0.41531366 0.86182153
8.98713970 1.41349721 2.03152728 0.87357306 0.53173000 0.70486599
8.96356964 0.92183095 1.95971537 0.87128198 0.34677479 0.67994988
9.43076134 0.20631763 1.49270463 0.91669422 0.07761266 0.51791418
8.89946365 0.37477958 1.87079990 0.86505073 0.14098474 0.64909947
9.87464523 -0.70851904 1.89939499 0.95984089 -0.26653102 0.65902090
8.89578056 1.25344789 2.51715875 0.86469269 0.47152260 0.87336242
8.92423344 0.78015602 2.43863416 0.86745840 0.29347944 0.84611726
8.76152325 0.21444221 2.31384373 0.85164255 0.08066896 0.80281949
8.70261860 -0.25801882 2.21777463 0.84591687 -0.09706163 0.76948702
8.62433720 -0.76922542 2.12024665 0.83830774 -0.28936756 0.73564839
8.60591793 -0.58956999 2.58413839 0.83651733 -0.22178470 0.89660192
8.56848526 -1.05523229 2.49514580 0.83287877 -0.39695776 0.86572474
9.00309372 1.47408938 2.03728485 0.87512380 0.55452359 0.70686364
8.98090076 0.98062325 1.96490097 0.87296659 0.36889130 0.68174911
9.43519878 0.26574790 1.49366319 0.91712552 0.09996916 0.51824671
10.21780586 -0.66793948 1.96571851 0.99319696 -0.25126576 0.68203276
8.91436672 1.31330240 2.52481008 0.86649930 0.49403867 0.87601715
8.91723537 0.83603728 2.43810177 0.86677819 0.31450087 0.84593254
8.76193428 0.26955178 2.31436133 0.85168248 0.10140011 0.80299908
8.71181011 -0.20353289 2.21977830 0.84681028 -0.07656509 0.77018225
8.63093472 -0.71517795 2.12072968 0.83894902 -0.26903597 0.73581600
8.57177544 -1.17528439 2.02452374 0.83319861 -0.44211900 0.70243603
8.68777561 -0.54017222 2.60796261 0.84447408 -0.20320223 0.90486807
8.58066368 -1.00205576 2.49683309 0.83406252 -0.37695378 0.86631018
8.98596573 1.52930200 2.03551340 0.87345892 0.57529348 0.70624900
8.96874142 1.03637290 1.96360457 0.87178469 0.38986322 0.68129927
9.44518089 0.32545879 1.49558032 0.91809583 0.12243123 0.51891190
10.21592236 -0.60339087 1.96456838 0.99301386 -0.22698385 0.68163371
8.94585800 1.37551641 2.53628707 0.86956036 0.51744241 0.87999928
8.94058704 0.89486390 2.44608617 0.86904800 0.33663031 0.84870285
8.76392841 0.32475099 2.31539679 0.85187632 0.12216497 0.80335838
8.69549465 -0.14845310 2.21527004 0.84522438 -0.05584515 0.76861805
8.63525772 -0.66093445 2.12072968 0.83936924 -0.24863061 0.73581600
8.63492203 -1.12884820 2.03795171 0.83933657 -0.42465061 0.70709503
8.67379856 -0.48465443 2.60273290 0.84311551 -0.18231753 0.90305352
8.56009007 -0.94511062 2.48895860 0.83206272 -0.35553214 0.86357802
9.01649666 1.59294713 2.04481411 0.87642664 0.59923553 0.70947605
8.96399212 1.09293628 1.96403670 0.87132305 0.41114125 0.68144923
9.43308640 0.38437465 1.49398267 0.91692024 0.14459422 0.51835757
8.91424084 0.54393673 1.87581944 0.86648709 0.20461836 0.65084106
8.88177586 -0.48526660 1.70310795 0.86333144 -0.18254781 0.59091645
8.95827103 1.42071342 2.54175234 0.87076694 0.53444463 0.88189548
8.94969559 0.93836224 2.44981241 0.86993337 0.35299352 0.84999567
8.74879074 0.36545050 2.31177306 0.85040492 0.13747533 0.80210108
8.69803333 -0.10750352 2.21577096 0.84547114 -0.04044072 0.76879185
8.62859631 -0.61956233 2.11831474 0.83872169 -0.23306723 0.73497808
8.61505699 -1.08492565 2.03193235 0.83740568 -0.40812781 0.70500654
8.39118004 -0.42987552 2.51615286 0.81564426 -0.16171077 0.87301344
8.57208157 -0.90558636 2.49120831 0.83322835 -0.34066388 0.86435854
9.02999020 1.63929737 2.04968596 0.87773824 0.61667162 0.71116638
8.99362278 1.13950574 1.97181511 0.87420321 0.42865977 0.68414801
9.49822140 0.43201604 1.50484669 0.92325151 0.16251598 0.52212703
8.87288475 -0.42890981 1.70080769 0.86246717 -0.16134748 0.59011835
8.89605999 -0.90499747 1.63005126 0.86471987 -0.34044236 0.56556845
9.00229740 1.48586249 2.55705500 0.87504643 0.55895239 0.88720495
8.90145969 0.98998356 2.43810177 0.86524475 0.37241244 0.84593254
8.75596905 0.42089936 2.31436133 0.85110265 0.15833411 0.80299908
8.70821857 -0.05293185 2.21827555 0.84646118 -0.01991193 0.76966083
8.63619232 -0.56557995 2.11928058 0.83946007 -0.21276012 0.73531318
