1.31013691 -4.66153860 1.80670738 0.28507721 -0.91729826 0.82242012
1.19388425 -3.91583943 1.76444542 0.25978139 -0.77055949 0.80318230
1.03208220 -4.12095404 1.79403484 0.22457433 -0.81092197 0.81665152
0.77038151 -4.36192656 1.81568766 0.16762997 -0.85834056 0.82650799
0.59043896 -4.71818256 1.90297914 0.12847565 -0.92844468 0.86624336
1.33625257 -4.64244986 1.80243957 0.29075980 -0.91354197 0.82047737
1.22012508 -3.91349554 1.76686168 0.26549122 -0.77009827 0.80428219
1.05391443 -4.09835863 1.78691173 0.22932488 -0.80647564 0.81340903
0.79368496 -4.33523798 1.80642939 0.17270066 -0.85308880 0.82229358
0.61913770 -4.70703125 1.89995813 0.13472031 -0.92625034 0.86486822
1.36003685 -4.61605453 1.79532647 0.29593512 -0.90834790 0.81723946
1.24412549 -3.90401077 1.76605630 0.27071357 -0.76823181 0.80391556
1.07964420 -4.09165573 1.78691173 0.23492351 -0.80515665 0.81340903
0.82231647 -4.33741093 1.80951548 0.17893068 -0.85351640 0.82369834
0.64870048 -4.70304823 1.89995813 0.14115298 -0.92546654 0.86486822
1.38518357 -4.59490681 1.79034734 0.30140689 -0.90418649 0.81497294
1.27611101 -3.91870904 1.77652657 0.27767339 -0.77112418 0.80868167
1.09873402 -4.05993795 1.77583146 0.23907733 -0.79891521 0.80836529
0.84410143 -4.30502272 1.79794264 0.18367094 -0.84714299 0.81843036
0.67181987 -4.65302849 1.88107669 0.14618361 -0.91562366 0.85627329
1.41737664 -4.59681606 1.79461515 0.30841187 -0.90456218 0.81691569
1.33002460 -3.99732447 1.81679714 0.28940466 -0.78659409 0.82701302
1.12518632 -4.05649853 1.77741432 0.24483317 -0.79823840 0.80908579
0.87113380 -4.29963398 1.79794264 0.18955301 -0.84608263 0.81843036
0.70345628 -4.66520739 1.88787401 0.15306748 -0.91802019 0.85936749
1.43278885 -4.57049227 1.78679085 0.31176546 -0.89938217 0.81335402
1.14232659 -4.04407167 1.77424860 0.24856278 -0.79579306 0.80764472
0.88870257 -4.28284693 1.79254198 0.19337586 -0.84277928 0.81597197
0.72404838 -4.65268517 1.88409770 0.15754819 -0.91555607 0.85764849
1.49326217 -4.65917063 1.82591259 0.32492408 -0.91683233 0.83116239
1.16821539 -4.03858137 1.77504003 0.25419602 -0.79471266 0.80800498
0.91401625 -4.26996851 1.78945601 0.19888395 -0.84024507 0.81456721
0.75557446 -4.66267824 1.89013982 0.16440806 -0.91752255 0.86039889
2.06566501 -4.87238598 1.72068441 0.44947517 -0.95878887 0.78326213
1.53487706 -4.68695021 1.84085000 0.33397919 -0.92229879 0.83796197
1.18382168 -3.99765182 1.76000249 0.25759184 -0.78665853 0.80115986
0.93839139 -4.25334120 1.78482687 0.20418783 -0.83697313 0.81246001
0.75277209 -4.46229887 1.80932724 0.16379827 -0.87809187 0.82361269
1.59790635 -4.77634859 1.88068318 0.34769395 -0.93989062 0.85609418
1.21153617 -3.99893665 1.76395977 0.26362234 -0.78691137 0.80296123
0.96551442 -4.24915838 1.78559840 0.21008962 -0.83615005 0.81281120
0.78297377 -4.47025967 1.81461406 0.17036997 -0.87965840 0.82601923
1.60954618 -4.71322060 1.85934401 0.35022670 -0.92746824 0.84638047
1.38875937 -3.79455614 1.74108851 0.30218494 -0.74669331 0.79255015
1.23556805 -3.98773146 1.76237679 0.26885152 -0.78470641 0.80224067
0.98790812 -4.22506094 1.77788317 0.21496235 -0.83140814 0.80929923
0.80168474 -4.41236877 1.79271150 0.17444135 -0.86826658 0.81604910
1.73748374 -3.57483697 1.54241693 0.37806508 -0.70345694 0.70211411
1.60427439 -4.60431051 1.81951082 0.34907961 -0.90603691 0.82824826
1.39765596 -3.74638152 1.72256398 0.30412078 -0.73721355 0.78411770
1.01487505 -4.22056198 1.77865469 0.22083017 -0.83052284 0.80965042
0.82671857 -4.39267254 1.78666949 0.17988855 -0.86439079 0.81329876
1.74519217 -3.54830885 1.53429675 0.37974238 -0.69823676 0.69841772
1.33255625 -4.14200926 1.83835602 0.28995553 -0.81506521 0.83682668
1.03654563 -4.22289276 1.78174078 0.22554554 -0.83098149 0.81105524
0.84535235 -4.37780857 1.78213787 0.18394314 -0.86146581 0.81123596
1.76913095 -3.54059052 1.53577316 0.38495132 -0.69671792 0.69908983
1.33876824 -4.07239008 1.81065524 0.29130721 -0.80136555 0.82421720
1.06122029 -4.20914793 1.77865469 0.23091459 -0.82827675 0.80965042
0.87567610 -4.38695240 1.78817999 0.19054139 -0.86326516 0.81398636
1.79729044 -3.54097700 1.54094052 0.39107862 -0.69679397 0.70144200
1.08905816 -4.20774984 1.78096926 0.23697193 -0.82800168 0.81070399
0.90943891 -4.41222668 1.80101931 0.19788796 -0.86823863 0.81983089
1.81606293 -3.52302337 1.53798783 0.39516342 -0.69326109 0.70009792
1.50314593 -4.73654079 1.80962527 0.32707471 -0.93205720 0.82374835
1.47382319 -3.68357873 1.70887196 0.32069427 -0.72485518 0.77788502
1.35166550 -3.94212389 1.75921106 0.29411358 -0.77573174 0.80079961
1.11499262 -4.19904280 1.78019774 0.24261509 -0.82628828 0.81035280
0.93337297 -4.38829422 1.79346681 0.20309585 -0.86352921 0.81639296
1.62195873 -5.00558996 1.91824150 0.35292760 -0.98500073 0.87319088
1.13543689 -4.17061710 1.77093947 0.24706364 -0.82069468 0.80613840
0.95937306 -4.37510014 1.79044580 0.20875330 -0.86093289 0.81501776
1.85314369 -3.48682952 1.53208220 0.40323195 -0.68613887 0.69740969
1.65512431 -5.00064707 1.92033029 0.36014423 -0.98402810 0.87414169
1.16212332 -4.16517544 1.77171099 0.25287044 -0.81962383 0.80648959
0.98364496 -4.35451984 1.78440368 0.21403471 -0.85688305 0.81226736
1.50278592 -3.57673216 1.67021227 0.32699639 -0.70382988 0.76028699
1.17917526 -4.15079021 1.76785338 0.25658083 -0.81679314 0.80473363
1.00088751 -4.33538532 1.77836168 0.21778657 -0.85311776 0.80951703
2.47234988 -4.59801674 1.44815934 0.53796715 -0.90479845 0.65920764
2.06735468 -3.63650966 1.38162160 0.44984284 -0.71559292 0.62891942
1.71000814 -4.98214579 1.92033029 0.37208658 -0.98038739 0.87414169
1.52668643 -3.57057834 1.67182302 0.33219698 -0.70261896 0.76102024
1.19842350 -4.12029839 1.75782371 0.26076910 -0.81079292 0.80016810
1.03062570 -4.33983374 1.78289318 0.22425741 -0.85399312 0.81157976
2.06057382 -3.57272553 1.36172926 0.44836739 -0.70304149 0.61986434
1.72472823 -4.92346287 1.90153122 0.37528956 -0.96883976 0.86558425
1.54613459 -3.55421615 1.66860139 0.33642876 -0.69939917 0.75955373
1.22803211 -4.12504911 1.76322436 0.26721174 -0.81172776 0.80262649
1.05830407 -4.33507347 1.78364849 0.23028004 -0.85305643 0.81192362
2.09455800 -3.57927036 1.36942947 0.45576212 -0.70432937 0.62336951
1.78608263 -3.57660365 1.52255642 0.38863990 -0.70380461 0.69307351
1.57218349 -3.55278230 1.67262852 0.34209684 -0.69911706 0.76138687
1.43632519 -5.04452419 1.85362792 0.31253496 -0.99266225 0.84377849
1.24573731 -4.09081268 1.75165153 0.27106428 -0.80499077 0.79735845
1.07534802 -4.28697681 1.76627755 0.23398869 -0.84359193 0.80401629
2.42565846 -4.31633806 1.37164617 0.52780741 -0.84936965 0.62437856
2.09945631 -3.53680563 1.35787904 0.45682794 -0.69597316 0.61811173
1.80685079 -3.56197858 1.52110350 0.39315891 -0.70092666 0.69241214
1.59371507 -3.54116845 1.67182302 0.34678197 -0.69683164 0.76102024
1.46265578 -5.01735592 1.84685016 0.31826434 -0.98731607 0.84069324
1.27698576 -4.10049629 1.75936675 0.27786374 -0.80689627 0.80087048
1.10997367 -4.31065941 1.77911687 0.24152300 -0.84825224 0.80986083
2.43641233 -4.27266788 1.36235523 0.53014737 -0.84077626 0.62014931
2.13247371 -3.54134202 1.36493766 0.46401232 -0.69686580 0.62132484
1.82666063 -3.54557300 1.51892412 0.39746940 -0.69769841 0.69142008
1.60052335 -3.49787259 1.65571487 0.34826341 -0.68831187 0.75368774
1.49469674 -5.00986767 1.84752786 0.32523623 -0.98584253 0.84100175
1.35157478 -4.24337244 1.82571733 0.29409382 -0.83501148 0.83107352
1.13099301 -4.28029633 1.76929855 0.24609667 -0.84227735 0.80539149
2.45059538 -4.23567915 1.35525048 0.53323352 -0.83349758 0.61691523
2.13577199 -3.49725080 1.35274553 0.46472999 -0.68818957 0.61577493
1.84420121 -3.53858256 1.51965058 0.40128613 -0.69632280 0.69175076
1.61465394 -3.48532057 1.65329862 0.35133812 -0.68584192 0.75258785
1.51164699 -4.98118782 1.83939457 0.32892448 -0.98019892 0.83729947
1.37270868 -4.24046230 1.82726038 0.29869244 -0.83443880 0.83177590
1.15446389 -4.28745174 1.77458537 0.25120378 -0.84368539 0.80779803
2.14621139 -3.47750545 1.34889543 0.46700156 -0.68430406 0.61402237
2.08985329 -3.78986597 1.40071523 0.45473841 -0.74577039 0.63761091
1.60733879 -3.41398096 1.62349832 0.34974641 -0.67180371 0.73902261
1.53444362 -4.94466782 1.82922781 0.33388489 -0.97301251 0.83267146
1.37289679 -4.15303755 1.79254198 0.29873335 -0.81723535 0.81597197
1.17895710 -4.27117634 1.77080905 0.25653335 -0.84048271 0.80607903
2.16295385 -3.45594835 1.34568691 0.47064459 -0.68006206 0.61256182
2.08972383 -3.73347950 1.38433897 0.45471022 -0.73467469 0.63015640
2.59066987 -4.29257393 1.95506752 0.56371278 -0.84469336 0.88995421
1.89114213 -3.52006674 1.52182996 0.41150016 -0.69267929 0.69274282
1.61996782 -3.38569689 1.61463881 0.35249439 -0.66623795 0.73498976
1.56778538 -4.94209433 1.83193898 0.34113982 -0.97250605 0.83390564
1.40315175 -4.15654850 1.79794264 0.30531663 -0.81792623 0.81843036
1.20824909 -4.27260637 1.77458537 0.26290709 -0.84076411 0.80779803
2.19792414 -3.46301556 1.35402894 0.47825390 -0.68145275 0.61635917
2.10756254 -3.71034598 1.38055980 0.45859182 -0.73012245 0.62843609
2.58730698 -4.22718811 1.93218350 0.56298107 -0.83182675 0.87953734
1.63716161 -3.36724138 1.61061180 0.35623565 -0.66260630 0.73315662
1.58823586 -4.89996815 1.81973898 0.34558973 -0.96421647 0.82835215
1.40487111 -4.07798100 1.76708186 0.30569077 -0.80246574 0.80438244
1.23811245 -4.27561760 1.77911687 0.26940516 -0.84135669 0.80986083
2.21963954 -3.44913745 1.35402894 0.48297903 -0.67872179 0.61635917
2.12801337 -3.69208312 1.37867022 0.46304178 -0.72652870 0.62757593
2.58618617 -4.16674185 1.91151404 0.56273717 -0.81993210 0.87012851
1.65746641 -3.35525155 1.60980642 0.36065385 -0.66024691 0.73279005
1.52539420 -3.51654315 1.61516702 0.33191580 -0.69198591 0.73523021
1.61659789 -4.88275671 1.81702781 0.35176113 -0.96082962 0.82711798
1.24992585 -4.21619320 1.75721443 0.27197570 -0.82966316 0.79989070
2.14451647 -3.66713738 1.37426114 0.46663275 -0.72161984 0.62556893
2.58241582 -4.10334015 1.88936830 0.56191677 -0.80745590 0.86004764
1.56650591 -3.55068183 1.63574469 0.34086144 -0.69870371 0.74459726
1.64053869 -4.85292149 1.80957234 0.35697049 -0.95495862 0.82372427
1.28221464 -4.22777796 1.76552224 0.27900150 -0.83194280 0.80367249
2.57145619 -4.58269882 1.41609955 0.55953205 -0.90178418 0.64461392
2.26491189 -3.42412233 1.35531235 0.49283001 -0.67379934 0.61694336
2.15694761 -3.63558173 1.36733270 0.46933767 -0.71541035 0.62241507
2.59369111 -4.07861137 1.88346267 0.56437021 -0.80258977 0.85735941
2.17172098 -4.26465559 2.06889105 0.47255227 -0.83919960 0.94176710
1.55730307 -3.48443055 1.60804403 0.33885896 -0.68566680 0.73198777
1.68563902 -4.90911770 1.83397233 0.36678401 -0.96601695 0.83483124
1.31610274 -4.26776409 1.78515899 0.28637534 -0.83981127 0.81261122
2.59207821 -4.56885004 1.41556728 0.56401926 -0.89905900 0.64437163
2.28526354 -3.41969037 1.35787904 0.49725839 -0.67292720 0.61811173
2.15952992 -3.60088778 1.35788476 0.46989956 -0.70858324 0.61811435
2.60304499 -4.03730726 1.87165153 0.56640553 -0.79446197 0.85198295
2.20695210 -4.26715088 2.07694530 0.48021832 -0.83969063 0.94543344
1.61296272 -3.55000448 1.64365923 0.35097012 -0.69857043 0.74819994
1.77244961 -5.05625677 1.89429462 0.38567343 -0.99497098 0.86229014
1.38020980 -4.37968445 1.83651650 0.30032462 -0.86183494 0.83598936
2.30884504 -3.40839028 1.35916245 0.50238955 -0.67070353 0.61869591
2.18015504 -3.58399487 1.35662508 0.47438747 -0.70525903 0.61754090
2.60891199 -3.99139261 1.85762584 0.56768215 -0.78542686 0.84559840
2.23629379 -4.25805140 2.07936144 0.48660290 -0.83789998 0.94653326
1.63980556 -3.54982853 1.64840794 0.35681096 -0.69853580 0.75036162
1.76960576 -4.94947529 1.85769451 0.38505462 -0.97395849 0.84562963
1.39258349 -4.32326412 1.81612456 0.30301705 -0.85073256 0.82670683
2.32805514 -3.39070344 1.35787904 0.50656956 -0.66722316 0.61811173
2.19175339 -3.55240226 1.34969664 0.47691119 -0.69904226 0.61438709
2.61843872 -3.95174551 1.84655297 0.56975514 -0.77762508 0.84055799
2.26126719 -4.24069309 2.07775068 0.49203694 -0.83448422 0.94580007
1.66362131 -3.54278851 1.64999080 0.36199310 -0.69715047 0.75108212
1.80457771 -4.94885063 1.86176121 0.39266428 -0.97383559 0.84748083
1.40316141 -4.26334000 1.79422200 0.30531874 -0.83894068 0.81673670
2.35149288 -3.37910795 1.35916245 0.51166946 -0.66494137 0.61869591
2.22801638 -3.56115842 1.35851467 0.48480177 -0.70076531 0.61840105
2.63695836 -3.92598414 1.84212387 0.57378489 -0.77255577 0.83854181
2.58131695 -4.29986191 1.91920340 0.56167769 -0.84612745 0.87362874
2.28698921 -4.22479534 2.07694530 0.49763387 -0.83135587 0.94543344
1.67254567 -3.50401664 1.63653624 0.36393499 -0.68952096 0.74495757
1.82702374 -4.91451979 1.85295010 0.39754841 -0.96707994 0.84346998
2.23420167 -3.52136469 1.34843683 0.48614767 -0.69293469 0.61381358
2.66999531 -3.92159414 1.84802938 0.58097351 -0.77169192 0.84123003
2.59480572 -4.26122141 1.90903294 0.56461275 -0.83852381 0.86899906
1.86272168 -3.58734322 1.50226867 0.40531605 -0.70591795 0.68383843
2.31526589 -4.21354389 2.07855606 0.50378668 -0.82914180 0.94616663
2.24201393 -3.48483777 1.33961880 0.48784757 -0.68574691 0.60979962
2.69162536 -3.91354942 1.85024393 0.58568007 -0.77010888 0.84223813
2.59448409 -4.21553707 1.89377725 0.56454277 -0.82953405 0.86205465
1.84626019 -3.51580811 1.47523904 0.40173414 -0.69184124 0.67153442
2.35211802 -4.23291922 2.09385896 0.51180547 -0.83295447 0.95313257
2.20662713 -4.50862551 2.12644386 0.48014763 -0.88720798 0.96796536
2.25841093 -3.47423387 1.33961880 0.49141544 -0.68366027 0.60979962
2.73220325 -3.91936493 1.86131692 0.59450954 -0.77125323 0.84727859
2.59837651 -4.16270161 1.87706876 0.56538969 -0.81913704 0.85444885
1.87452912 -3.51565289 1.48021817 0.40788525 -0.69181073 0.67380095
2.39497423 -4.24669123 2.10835624 0.52113074 -0.83566457 0.95973182
2.24464536 -4.51444721 2.13594127 0.48842013 -0.88835359 0.97228861
2.30404091 -3.49654770 1.35410559 0.50134420 -0.68805116 0.61639404
2.60764885 -4.11945724 1.86471891 0.56740731 -0.81062740 0.84882718
1.82652271 -3.37594032 1.42473638 0.39743939 -0.66431803 0.64854544
2.41336632 -4.21729374 2.10110760 0.52513272 -0.82987970 0.95643222
2.28035879 -4.51503992 2.14306450 0.49619114 -0.88847023 0.97553116
2.30817032 -3.45508146 1.34339797 0.50224274 -0.67989147 0.61151987
2.61748099 -4.07783413 1.85309553 0.56954676 -0.80243683 0.84353614
1.92673516 -3.50652242 1.48661995 0.41924495 -0.69001400 0.67671508
2.44722319 -4.21468115 2.10755086 0.53249973 -0.82936561 0.95936519
2.29703808 -4.47769642 2.13198423 0.49982044 -0.88112175 0.97048736
2.32772040 -3.43735695 1.34213829 0.50649673 -0.67640364 0.61094648
2.61578536 -4.01902437 1.83348119 0.56917775 -0.79086423 0.83460766
2.47084928 -4.19450140 2.10513473 0.53764063 -0.82539463 0.95826536
2.33438897 -4.48113155 2.14069009 0.50794774 -0.88179773 0.97445029
2.35247135 -3.42737436 1.34402788 0.51188236 -0.67443925 0.61180663
2.63894653 -3.99939013 1.83202827 0.57421750 -0.78700060 0.83394629
1.96785939 -3.47716784 1.48448598 0.42819333 -0.68423760 0.67574370
2.49715519 -4.17889404 2.10513473 0.54336464 -0.82232338 0.95826536
2.36079383 -4.46312141 2.13910723 0.51369327 -0.87825370 0.97372979
2.37934160 -3.42034364 1.34717715 0.51772916 -0.67305577 0.61324018
2.40666175 -3.24695325 1.56899190 0.52367383 -0.63893598 0.71421111
2.63722420 -3.95581317 1.81749904 0.57384270 -0.77842551 0.82733250
2.52253771 -4.17645836 2.10996699 0.54888767 -0.82184410 0.96046501
2.38351941 -4.45519304 2.14069009 0.51863819 -0.87669355 0.97445029
2.77822018 -3.75174332 1.29130721 0.60452253 -0.73826861 0.58780795
2.39868426 -3.41376853 1.34906673 0.52193797 -0.67176187 0.61410034
2.42364430 -3.22732568 1.56677735 0.52736914 -0.63507366 0.71320301
2.67343116 -3.95619702 1.82549012 0.58172113 -0.77850103 0.83097005
2.52947354 -4.12938595 2.09385896 0.55039686 -0.81258118 0.95313257
2.40624452 -4.43042374 2.13594127 0.52358305 -0.87181944 0.97228861
1.81417072 -4.84494829 1.77236927 0.39475167 -0.95338964 0.80678928
1.62004650 -3.55962062 1.59889078 0.35251153 -0.70046270 0.72782117
2.80522203 -3.73881507 1.29294682 0.61039793 -0.73572457 0.58855432
2.43539524 -3.42035270 1.35788476 0.52992606 -0.67305750 0.61811435
2.71602535 -3.96553230 1.83783984 0.59098935 -0.78033805 0.83659172
2.48826337 -4.00639534 2.03828549 0.54142982 -0.78837907 0.92783535
2.42963266 -4.40715742 2.13198423 0.52867216 -0.86724108 0.97048736
1.88721514 -4.94651508 1.81459546 0.41064566 -0.97337598 0.82601076
1.64238024 -3.54937148 1.59889078 0.35737118 -0.69844586 0.72782117
2.83100009 -3.72416854 1.29403985 0.61600709 -0.73284245 0.58905190
2.45683765 -3.40498304 1.35788476 0.53459179 -0.67003310 0.61811435
2.47314501 -3.20834684 1.57268286 0.53814018 -0.63133895 0.71589124
1.89095271 -3.55459642 1.45940769 0.41145894 -0.69947404 0.66432798
2.57134104 -4.08182621 2.08580470 0.55950695 -0.80322236 0.94946629
2.46795988 -4.41108274 2.14148164 0.53701192 -0.86801356 0.97481060
1.92299879 -4.94689655 1.81921399 0.41843194 -0.97345108 0.82811314
1.66226685 -3.53398538 1.59657621 0.36169839 -0.69541818 0.72676760
2.84726071 -3.69719267 1.29076076 0.61954528 -0.72753412 0.58755922
2.48708653 -3.40178132 1.36292362 0.54117376 -0.66940302 0.62040806
2.27383733 -4.72598696 1.55737936 0.49477211 -0.92998046 0.70892501
1.91766238 -3.55091596 1.46288896 0.41727078 -0.69874978 0.66591263
2.60388088 -4.07635975 2.09144258 0.56658745 -0.80214667 0.95203269
2.47761798 -4.36347151 2.12565255 0.53911346 -0.85864460 0.96760517
1.69248366 -3.54007697 1.60429144 0.36827338 -0.69661689 0.73027956
2.87638450 -3.68678832 1.29349339 0.62588245 -0.72548676 0.58880311
2.52749491 -3.41210985 1.37363124 0.54996634 -0.67143548 0.62528217
2.30687523 -4.71847105 1.55970371 0.50196093 -0.92850143 0.70998311
2.62017012 -4.25311327 1.86503446 0.57013184 -0.83692825 0.84897083
1.93100584 -3.52231097 1.45592642 0.42017424 -0.69312090 0.66274327
2.62743855 -4.05685425 2.08983183 0.57171345 -0.79830837 0.95129943
2.49588060 -4.33186579 2.11773801 0.54308730 -0.85242522 0.96400243
1.71632290 -3.53268409 1.60583436 0.37346062 -0.69516212 0.73098195
2.88629794 -3.65209699 1.28748155 0.62803954 -0.71866018 0.58606654
2.62626195 -4.21855974 1.85507619 0.57145739 -0.83012885 0.84443778
1.94307911 -3.50495052 1.45244503 0.42280129 -0.68970472 0.66115850
2.49698853 -4.28664780 2.10111761 0.54332834 -0.84352720 0.95643675
2.04221964 -4.35117769 1.69570553 0.44437364 -0.85622543 0.77189165
1.73130572 -3.52125359 1.60429144 0.37672079 -0.69291282 0.73027956
2.90106297 -3.63545799 1.28638852 0.63125229 -0.71538597 0.58556896
2.63363409 -4.17202139 1.84156132 0.57306153 -0.82097101 0.83828574
2.49417830 -4.22015142 2.07579112 0.54271686 -0.83044201 0.94490802
2.06297970 -4.32470131 1.69028330 0.44889086 -0.85101539 0.76942343
1.98583257 -4.77102041 1.77038991 0.43210417 -0.93884212 0.80588824
1.73756754 -3.47902393 1.58963251 0.37808332 -0.68460286 0.72360677
2.92627954 -3.62014031 1.28748155 0.63673925 -0.71237177 0.58606654
2.80510902 -4.42651892 1.36959195 0.61037338 -0.87105107 0.62344348
2.34519172 -3.52903414 1.33728302 0.51029837 -0.69444388 0.60873634
2.63748336 -4.12084770 1.82591259 0.57389909 -0.81090105 0.83116239
1.99249697 -3.49005437 1.45662260 0.43355429 -0.68677342 0.66306019
2.58715105 -3.84876680 2.00365281 0.56294715 -0.75736094 0.91207039
2.51314163 -4.19176292 2.06945944 0.54684317 -0.82485574 0.94202584
2.10335946 -4.33868885 1.70112777 0.45767725 -0.85376787 0.77435988
2.03036261 -4.79327631 1.78358555 0.44179362 -0.94322163 0.81189495
2.95877004 -3.61354852 1.29185379 0.64380902 -0.71107465 0.58805680
2.82236004 -4.39259481 1.36441517 0.61412704 -0.86437547 0.62108701
2.33627224 -3.46861529 1.31940973 0.50835752 -0.68255466 0.60060036
2.65513086 -4.09168434 1.82022214 0.57773912 -0.80516225 0.82857209
2.03581190 -3.51488948 1.47263658 0.44297934 -0.69166046 0.67034978
2.59779572 -3.81282735 1.99318242 0.56526333 -0.75028872 0.90730423
2.52616024 -4.15386391 2.05837917 0.54967594 -0.81739795 0.93698210
2.13225555 -4.32875633 1.70248330 0.46396485 -0.85181332 0.77497691
2.97647786 -3.58898473 1.28966773 0.64766210 -0.70624095 0.58706170
2.66527939 -4.05156136 1.80955255 0.57994735 -0.79726684 0.82371521
2.62588859 -3.80243683 1.99640405 0.57137614 -0.74824411 0.90877074
2.54933667 -4.13320780 2.05600500 0.55471897 -0.81333327 0.93590134
2.17554545 -4.34717798 1.71536112 0.47338444 -0.85543835 0.78083891
2.36959505 -4.51522112 2.09574890 0.51560837 -0.88850588 0.95399290
3.00891995 -3.58195400 1.29403985 0.65472126 -0.70485747 0.58905190
2.26863575 -4.24805450 1.42721868 0.49364027 -0.83593279 0.64967537
2.66668034 -3.99906731 1.79319263 0.58025217 -0.78693706 0.81626815
2.64444661 -3.77838707 1.99237692 0.57541430 -0.74351156 0.90693760
2.56364584 -4.09837294 2.04650760 0.55783254 -0.80647844 0.93157810
1.90708888 -3.75763822 1.48220527 0.41497007 -0.73942864 0.67470551
2.38917613 -4.48399353 2.08803391 0.51986909 -0.88236094 0.95048100
1.65401602 -3.51691461 1.54876316 0.35990307 -0.69205898 0.70500290
3.03011346 -3.56151795 1.29349339 0.65933287 -0.70083606 0.58880311
2.40123510 -3.42396402 1.31940973 0.52249306 -0.67376816 0.60060036
2.25024176 -4.15146875 1.39874601 0.48963788 -0.81692666 0.63671452
3.57939529 -4.15235806 2.14109254 0.77885300 -0.81710166 0.97463351
2.68129206 -3.98027301 1.79034734 0.58343160 -0.78323871 0.81497294
2.59423447 -4.31517124 1.83399427 0.56448841 -0.84914005 0.83484119
2.59170413 -4.10025692 2.05363059 0.56393784 -0.80684918 0.93482047
1.89354324 -3.68849969 1.45780528 0.41202262 -0.72582352 0.66359854
2.42174387 -4.49375629 2.09806347 0.52695560 -0.88428205 0.95504653
1.68159258 -3.53254867 1.55933678 0.36590353 -0.69513547 0.70981604
3.05316234 -3.55446911 1.29622591 0.66434813 -0.69944894 0.59004700
3.70144296 -4.09564829 1.83465457 0.80540973 -0.80594230 0.83514178
2.42288017 -3.42034674 1.32249129 0.52720284 -0.67305636 0.60200310
2.24660254 -4.09896421 1.38421905 0.48884600 -0.80659479 0.63010180
3.56367469 -4.08233261 2.11599398 0.77543229 -0.80332202 0.96320856
2.70412660 -3.96026897 1.78892469 0.58840024 -0.77930236 0.81432533
2.62032652 -4.29718161 1.83329797 0.57016587 -0.84560007 0.83452421
2.35008216 -3.28475761 1.74028313 0.51136249 -0.64637512 0.79218352
2.61643076 -4.08234119 2.05283904 0.56931823 -0.80332375 0.93446016
1.91404724 -3.67153668 1.45577192 0.41648415 -0.72248554 0.66267294
2.44457889 -4.46875954 2.09343433 0.53192437 -0.87936318 0.95293933
1.71173275 -3.53862596 1.56688941 0.37246183 -0.69633138 0.71325403
3.07289743 -3.53232336 1.29513288 0.66864234 -0.69509113 0.58954942
2.45661020 -3.42199874 1.32927084 0.53454232 -0.67338145 0.60508919
2.26856232 -4.07809448 1.38189483 0.49362430 -0.80248803 0.62904382
2.73002648 -3.94473290 1.78963602 0.59403586 -0.77624512 0.81464916
2.65609169 -4.29501963 1.83956432 0.57794815 -0.84517461 0.83737671
2.34037900 -3.22857928 1.71773160 0.50925118 -0.63532031 0.78191799
2.63109136 -4.04883385 2.04413319 0.57250828 -0.79673016 0.93049723
1.95395899 -3.69095325 1.46864974 0.42516869 -0.72630632 0.66853499
2.48343420 -4.47262716 2.10269260 0.54037905 -0.88012427 0.95715374
1.73959064 -3.53946447 1.57217622 0.37852353 -0.69649637 0.71566063
3.10014296 -3.51869822 1.29731905 0.67457080 -0.69240999 0.59054458
2.47355580 -3.40036297 1.32680559 0.53822953 -0.66912395 0.60396695
2.27138734 -4.02386284 1.36794901 0.49423900 -0.79181635 0.62269562
2.76771617 -3.94581127 1.79817176 0.60223693 -0.77645737 0.81853467
2.33661127 -3.18147349 1.70001245 0.50843132 -0.62605083 0.77385217
2.33665848 -4.33983278 1.73976111 0.50844157 -0.85399294 0.79194593
2.54250336 -4.51146889 2.12892437 0.55323207 -0.88776755 0.96909451
3.13119984 -3.50915980 1.30114460 0.68132859 -0.69053298 0.59228599
2.49487209 -3.38475418 1.32680559 0.54286784 -0.66605246 0.60396695
2.29470801 -4.00619936 1.36678684 0.49931344 -0.78834051 0.62216657
2.38937664 -4.70871401 1.51250732 0.51991272 -0.92658144 0.68849909
2.37086058 -3.18574834 1.71048284 0.51588374 -0.62689203 0.77861834
2.61486006 -3.91435957 1.99189746 0.56897640 -0.77026826 0.90671933
2.37479115 -4.34483433 1.74789441 0.51673901 -0.85497713 0.79564822
1.78558862 -3.52063704 1.57368672 0.38853240 -0.69279146 0.71634823
3.17003512 -3.50790048 1.30824947 0.68977886 -0.69028521 0.59552014
2.51838136 -3.37204957 1.32803822 0.54798329 -0.66355240 0.60452807
2.30045700 -3.95869517 1.35516536 0.50056440 -0.77899265 0.61687642
2.37529564 -3.15040445 1.69920707 0.51684880 -0.61993706 0.77348554
2.61791444 -3.86582136 1.97527695 0.56964105 -0.76071692 0.89915359
3.19462323 -3.49074078 1.30934250 0.69512910 -0.68690848 0.59601772
2.54182959 -3.35918307 1.32927084 0.55308551 -0.66102058 0.60508919
2.32136774 -3.93758607 1.35284102 0.50511444 -0.77483881 0.61581838
2.38033772 -4.54711676 1.46919703 0.51794589 -0.89478230 0.66878408
2.41021156 -3.16529036 1.71370447 0.52444625 -0.62286633 0.78008485
2.63404155 -3.85040092 1.97369409 0.57315022 -0.75768250 0.89843309
1.96340907 -3.50799823 1.41239405 0.42722496 -0.69030440 0.64292717
2.50259614 -4.26837540 2.03248453 0.54454851 -0.83993155 0.92519474
1.81826019 -3.48926425 1.56839991 0.39564151 -0.68661797 0.71394163
3.20710254 -3.47142529 1.30770290 0.69784451 -0.68310761 0.59527135
2.55530596 -3.34415531 1.32803822 0.55601788 -0.65806341 0.60452807
2.33101463 -3.91184688 1.34761143 0.50721353 -0.76977384 0.61343789
2.30546808 -4.35228014 1.40845013 0.50165474 -0.85644233 0.64113188
3.52104926 -3.75243139 2.00747943 0.76615727 -0.73840404 0.91381228
2.43230319 -3.15297174 1.71531534 0.52925324 -0.62044227 0.78081810
2.68938136 -3.87919378 1.99743760 0.58519179 -0.76334834 0.90924120
1.99009943 -3.50374985 1.41578305 0.43303260 -0.68946844 0.64446986
2.51131988 -4.22250938 2.01782560 0.54644674 -0.83090603 0.91852194
3.23149157 -3.45400453 1.30879593 0.70315140 -0.67967951 0.59576893
2.57509542 -3.32653499 1.32742190 0.56032389 -0.65459603 0.60424751
2.34557486 -3.88079000 1.34180069 0.51038176 -0.76366246 0.61079282
2.28405762 -4.24622822 1.37807655 0.49699599 -0.83557343 0.62730569
2.46227717 -3.15055680 1.72256398 0.53577542 -0.61996704 0.78411770
2.01017904 -3.48792553 1.41442740 0.43740180 -0.68635452 0.64385277
2.51860714 -4.17512703 2.00239515 0.54803240 -0.82158214 0.91149795
3.26907992 -3.45032310 1.31535423 0.71133041 -0.67895508 0.59875429
2.60421515 -3.32073021 1.33173609 0.56666017 -0.65345377 0.60621136
2.29335117 -4.19971371 1.36738968 0.49901819 -0.82642031 0.62244099
3.60912347 -4.15962791 2.11098862 0.78532165 -0.81853223 0.96093011
2.47287822 -3.27273154 1.52503049 0.53808212 -0.64400864 0.69419968
2.47401857 -3.12501740 1.71692610 0.53833026 -0.61494142 0.78155130
2.03588653 -3.48170447 1.41713858 0.44299558 -0.68513036 0.64508688
2.54769897 -4.16392946 2.00470972 0.55436260 -0.81937867 0.91255152
3.30139732 -3.44077516 1.31972647 0.71836245 -0.67707628 0.60074455
2.62860036 -3.30875421 1.33358502 0.57196623 -0.65109718 0.60705298
2.29384160 -4.13810825 1.35164046 0.49912491 -0.81429756 0.61527193
2.49110532 -3.25417233 1.52360785 0.54204822 -0.64035654 0.69355214
2.49014711 -3.10514426 1.71450984 0.54183972 -0.61103076 0.78045142
2.06062675 -3.47368455 1.41917193 0.44837889 -0.68355215 0.64601249
2.54736710 -4.10561705 1.98387873 0.55429041 -0.80790395 0.90306920
3.33237696 -3.42958260 1.32355213 0.72510344 -0.67487377 0.60248601
2.65533781 -3.29955578 1.33666670 0.57778412 -0.64928710 0.60845578
2.31699514 -4.11858368 1.34995306 0.50416297 -0.81045550 0.61450380
2.51034975 -3.23698473 1.52289653 0.54623568 -0.63697433 0.69322830
2.53283787 -3.11773705 1.73061812 0.55112892 -0.61350876 0.78778398
2.34847474 -3.20652246 1.67610872 0.51101273 -0.63097996 0.76297110
2.67964482 -3.28721356 1.33851564 0.58307320 -0.64685839 0.60929745
2.32488441 -4.07219791 1.33926606 0.50587964 -0.80132771 0.60963905
2.53717351 -3.23977852 1.53000963 0.55207235 -0.63752413 0.69646621
2.53698826 -3.09308124 1.72336948 0.55203205 -0.60865700 0.78448439
2.56644535 -4.03698301 1.96381927 0.55844170 -0.79439813 0.89393800
2.69024086 -3.26869655 1.33605039 0.58537883 -0.64321458 0.60817522
2.34404826 -4.06119680 1.33926606 0.51004958 -0.79916292 0.60963905
2.57167315 -3.09530783 1.73383975 0.55957925 -0.60909516 0.78925049
2.12232900 -3.44075561 1.42052746 0.46180490 -0.67707241 0.64662951
2.59175944 -4.02077818 1.96381927 0.56394988 -0.79120934 0.89393800
2.71440148 -3.25609565 1.33789933 0.59063601 -0.64073497 0.60901690
2.36566854 -4.03974724 1.33701611 0.51475400 -0.79494208 0.60861486
2.59225655 -3.08048320 1.73464525 0.56405807 -0.60617793 0.78961712
2.40462947 -3.16693568 1.67690015 0.52323163 -0.62319010 0.76333135
2.61595559 -4.00287390 1.96304774 0.56921482 -0.78768611 0.89358681
2.63067245 -3.08633089 1.74753177 0.57241708 -0.60732865 0.79548311
2.60310555 -3.92960477 1.93450153 0.56641871 -0.77326822 0.88059247
2.53637958 -4.28675747 1.99512064 0.55189961 -0.84354877 0.90818655
2.63677716 -3.05456424 1.73867226 0.57374543 -0.60107762 0.79145026
2.58071065 -4.00588369 1.68079436 0.56154573 -0.78827840 0.76510400
2.02296138 -3.51086688 1.38045669 0.44018316 -0.69086891 0.62838918
2.60289812 -3.87651372 1.91598511 0.56637359 -0.76282096 0.87216371
2.52161646 -4.20069981 1.96188927 0.54868722 -0.82661432 0.89305949
2.66453385 -3.39517164 1.32088220 0.57978511 -0.66810238 0.60127062
2.67288327 -3.05714655 1.74994802 0.58160192 -0.60158575 0.79658306
2.60893631 -3.99430275 1.68282771 0.56768745 -0.78599948 0.76602960
2.05442762 -3.51443410 1.38705444 0.44703001 -0.69157088 0.63139248
2.63033795 -3.86464548 1.91829967 0.57234430 -0.76048553 0.87321734
2.54700375 -4.18318748 1.96113408 0.55421132 -0.82316828 0.89271575
2.67637110 -3.36636972 1.31608617 0.58236080 -0.66243476 0.59908748
2.67751360 -3.03358579 1.74350476 0.58260942 -0.59694946 0.79365003
2.63398838 -3.99136066 1.68689442 0.57313865 -0.78542054 0.76788080
2.06334710 -3.49167180 1.38177621 0.44897082 -0.68709171 0.62898982
2.64326024 -3.84462762 1.91444206 0.57515615 -0.75654638 0.87146133
2.55030060 -4.14425755 1.94829464 0.55492872 -0.81550765 0.88687116
2.69457960 -3.35670733 1.31728518 0.58632290 -0.66053337 0.59963328
2.70878983 -3.03028989 1.75155878 0.58941495 -0.59630090 0.79731625
2.68638992 -4.01527882 1.70451665 0.58454084 -0.79012716 0.77590251
2.07273126 -3.45752382 1.37319899 0.45101276 -0.68037206 0.62508541
2.67797947 -3.84303665 1.92215717 0.58271080 -0.75623333 0.87497330
3.50845766 -3.57915378 1.34903073 0.76341742 -0.70430642 0.61408395
3.34510946 -2.94647813 1.47466660 0.72787392 -0.57980841 0.67127389
3.16468215 -3.07876325 1.42968881 0.68861413 -0.60583949 0.65079981
2.71322370 -3.33673859 1.31608617 0.59037971 -0.65660393 0.59908748
2.72777605 -3.01321030 1.75155878 0.59354621 -0.59293997 0.79731625
2.73175645 -4.02782488 1.71739447 0.59441233 -0.79259598 0.78176451
2.09344172 -3.44281411 1.37253916 0.45551923 -0.67747748 0.62478507
3.54440284 -3.57077622 1.35435355 0.77123886 -0.70265788 0.61650693
3.38508105 -2.94395089 1.48429191 0.73657149 -0.57931113 0.67565536
3.19759202 -3.07203221 1.43598747 0.69577509 -0.60451496 0.65366697
2.74619579 -3.33441043 1.32208121 0.59755421 -0.65614581 0.60181642
3.64400530 -4.14966631 2.06562257 0.79291171 -0.81657195 0.94027930
2.75163007 -3.00138474 1.75478053 0.59873670 -0.59061295 0.79878283
2.79132700 -4.06005764 1.73908329 0.60737449 -0.79893875 0.79163736
2.12289548 -3.44248867 1.37781751 0.46192816 -0.67741346 0.62718779
3.41505313 -2.93244410 1.48942554 0.74309319 -0.57704681 0.67799222
2.76101565 -3.30973530 1.31908369 0.60077894 -0.65129024 0.60045195
3.64256501 -4.09606028 2.04997373 0.79259831 -0.80602336 0.93315589
2.77419066 -2.98804259 1.75719666 0.60364574 -0.58798748 0.79988265
3.18721962 -3.80636215 2.10270047 0.69351810 -0.74901652 0.95715731
2.14944839 -3.43711138 1.38111639 0.46770591 -0.67635530 0.62868947
3.43341064 -2.91092896 1.48942554 0.74708766 -0.57281303 0.67799222
2.78787947 -3.29963827 1.32208121 0.60662431 -0.64930332 0.60181642
3.27457070 -2.87506175 1.69448495 0.71252513 -0.56575507 0.77133602
2.81181931 -2.99046493 1.76927793 0.61183345 -0.58846414 0.80538207
2.64477301 -3.11294985 1.72359574 0.57548529 -0.61256677 0.78458738
3.45746469 -2.89413619 1.49199224 0.75232166 -0.56950855 0.67916059
2.80238795 -3.27477884 1.31908369 0.60978127 -0.64441150 0.60045195
3.28949094 -2.86081219 1.69522321 0.71577168 -0.56295103 0.77167207
2.81954598 -2.97057390 1.76525080 0.61351472 -0.58454996 0.80354893
2.65109086 -3.09065151 1.71805561 0.57686001 -0.60817885 0.78206545
2.27825046 -3.07610893 1.56417239 0.49573240 -0.60531718 0.71201724
2.60444593 -3.90725899 1.87881088 0.56671041 -0.76887101 0.85524189
3.50033832 -2.90185976 1.50482607 0.76165068 -0.57102841 0.68500257
2.83639717 -3.28328204 1.32807612 0.61718148 -0.64608473 0.60454535
3.33571744 -2.86417437 1.70998704 0.72583026 -0.56361264 0.77839261
2.85218143 -2.96724844 1.77411032 0.62061602 -0.58389562 0.80758178
2.66566706 -3.06836319 1.71488976 0.58003169 -0.60379297 0.78062439
2.39568186 -3.19109106 1.63206601 0.52128470 -0.62794340 0.74292266
2.61349201 -3.86773348 1.86748207 0.56867874 -0.76109320 0.85008496
3.50378990 -2.86787724 1.49840915 0.76240176 -0.56434131 0.68208158
3.32147884 -3.00596833 1.45110416 0.72273207 -0.59151489 0.66054815
2.85697055 -3.26539588 1.32807612 0.62165809 -0.64256507 0.60454535
2.67918682 -3.51030469 1.30577397 0.58297354 -0.69075829 0.59439331
3.35222435 -2.84196377 1.70924890 0.72942209 -0.55924207 0.77805662
3.14124537 -2.94407535 1.64242220 0.68351442 -0.57933557 0.74763685
2.87461877 -2.95318556 1.77652657 0.62549824 -0.58112830 0.80868167
2.69454432 -3.06263399 1.72122145 0.58631521 -0.60266560 0.78350657
2.41793370 -3.17890143 1.63360906 0.52612656 -0.62554473 0.74362510
2.64606047 -3.86349583 1.87352419 0.57576543 -0.76025927 0.85283536
3.58384490 -2.89553118 1.52536011 0.77982122 -0.56978309 0.69434977
3.33889055 -2.98376846 1.45047426 0.72652072 -0.58714640 0.66026145
2.88875914 -3.26028657 1.33347166 0.62857509 -0.64155966 0.60700136
2.70118952 -3.49340153 1.30577397 0.58776116 -0.68743211 0.59439331
3.37001467 -2.82084513 1.70924890 0.73329312 -0.55508631 0.77805662
2.89699197 -2.93895793 1.77894282 0.63036650 -0.57832861 0.80978155
2.71373415 -3.04564333 1.72122145 0.59049076 -0.59932214 0.78350657
2.34716272 -3.04717946 1.57188761 0.51072723 -0.59962445 0.71552926
2.66293716 -3.83611274 1.86823738 0.57943767 -0.75487083 0.85042882
3.58710623 -2.86121011 1.51894319 0.78053081 -0.56302935 0.69142872
3.37458348 -2.97787976 1.45803261 0.73428726 -0.58598763 0.66370201
2.90918708 -3.24207163 1.33347166 0.63302004 -0.63797534 0.60700136
2.72071171 -3.47335839 1.30461192 0.59200907 -0.68348801 0.59386432
3.41643763 -2.82316422 1.72401273 0.74339443 -0.55554271 0.78477716
3.56768203 -3.73295736 1.92905188 0.77630424 -0.73457193 0.87811178
2.91410112 -2.91940832 1.77813745 0.63408935 -0.57448161 0.80941498
2.74750090 -3.04496932 1.73071885 0.59783822 -0.59918952 0.78782982
3.60053253 -2.83511949 1.51701820 0.78345233 -0.55789524 0.69055247
3.41460991 -2.97542000 1.46748054 0.74299675 -0.58550358 0.66800272
2.92949986 -3.22372890 1.33347166 0.63743997 -0.63436586 0.60700136
2.73889232 -3.45171452 1.30286860 0.59596503 -0.67922890 0.59307075
3.41820621 -2.78879023 1.71589255 0.74377930 -0.54877859 0.78108084
2.92323232 -2.89207363 1.77249956 0.63607621 -0.56910270 0.80684859
2.75425601 -3.01402593 1.72280431 0.59930807 -0.59310049 0.78422713
2.48202920 -3.13852835 1.63669515 0.54007334 -0.61760008 0.74502987
3.62727928 -2.81937599 1.52086830 0.78927225 -0.55479723 0.69230509
3.42463732 -2.94643974 1.46370137 0.74517864 -0.57980084 0.66628247
2.95869565 -3.21512890 1.33766818 0.64379281 -0.63267356 0.60891169
2.76655483 -3.44186783 1.30577397 0.60198420 -0.67729127 0.59439331
3.46036172 -2.78696609 1.72844195 0.75295204 -0.54841959 0.78679341
3.67299032 -4.16145325 2.02546525 0.79921865 -0.81889141 0.92199951
2.94924068 -2.88128638 1.77733207 0.64173549 -0.56697994 0.80904835
2.79299188 -3.01832938 1.73546755 0.60773677 -0.59394729 0.78999144
3.68563747 -2.82748270 1.53819394 0.80197060 -0.55639249 0.70019174
3.46037650 -2.93968964 1.47125959 0.75295526 -0.57847255 0.66972297
2.99048734 -3.20909262 1.34306359 0.65071046 -0.63148576 0.61136770
2.78448081 -3.41998172 1.30403078 0.60588479 -0.67298454 0.59359980
3.48366523 -2.77869558 1.73360932 0.75802273 -0.54679215 0.78914559
2.96410728 -2.86862302 1.77813745 0.64497036 -0.56448805 0.80941498
2.79720712 -2.99434710 1.72913587 0.60865396 -0.58922809 0.78710926
2.53090668 -3.25312257 1.44899416 0.55070871 -0.64014995 0.65958768
3.48576665 -2.93317962 1.47629857 0.75848001 -0.57719153 0.67201674
3.00947928 -3.19915199 1.34486210 0.65484297 -0.62952960 0.61218637
2.81278682 -3.42154956 1.30984151 0.61204398 -0.67329305 0.59624487
3.48786497 -2.74646306 1.72696555 0.75893658 -0.54044944 0.78612131
2.99005079 -2.85749221 1.78296995 0.65061545 -0.56229776 0.81161475
2.82726622 -2.98877764 1.73625898 0.61519462 -0.58813214 0.79035175
2.39862847 -3.23954916 1.60767329 0.52192587 -0.63747895 0.73181903
3.51431012 -2.91975689 1.48070753 0.76469088 -0.57455021 0.67402375
3.03213978 -3.18295503 1.34606111 0.65977377 -0.62634236 0.61273217
2.83546066 -3.40527391 1.31042266 0.61697769 -0.67009032 0.59650940
2.68739986 -3.57475591 1.27570677 0.58476061 -0.70344102 0.58070660
3.54187202 -2.75284457 1.74542034 0.77068818 -0.54170519 0.79452199
3.01730871 -2.84739828 1.78860784 0.65654665 -0.56031144 0.81418115
2.84978127 -2.97495246 1.73863328 0.62009376 -0.58541161 0.79143250
2.38582039 -3.17980480 1.58501554 0.51913887 -0.62572247 0.72150511
3.54428411 -2.90730143 1.48574638 0.77121300 -0.57209921 0.67631745
3.06394410 -3.17625499 1.35145664 0.66669416 -0.62502396 0.61518824
2.85431957 -3.38447642 1.30926049 0.62108123 -0.66599780 0.59598041
2.72252321 -3.57465339 1.28189385 0.59240323 -0.70342082 0.58352298
3.57537723 -2.74290824 1.75354052 0.77797866 -0.53974992 0.79821837
3.04052138 -2.83334970 1.79182947 0.66159755 -0.55754697 0.81564760
2.87477899 -2.96361136 1.74259055 0.62553310 -0.58317989 0.79323387
3.39753199 -4.03211641 2.16827178 0.73928070 -0.79344046 0.98700559
3.59187841 -2.90899801 1.49834359 0.78156924 -0.57243305 0.68205172
3.08384037 -3.15694094 1.35145664 0.67102349 -0.62122333 0.61518824
2.86928034 -3.35922837 1.30635512 0.62433660 -0.66102946 0.59465784
2.73677063 -3.54680300 1.27795660 0.59550339 -0.69794041 0.58173072
3.58064532 -2.71146607 1.74763501 0.77912498 -0.53356272 0.79553014
3.05826378 -2.81418967 1.79182947 0.66545820 -0.55377668 0.81564760
2.89974618 -2.95207334 1.74654782 0.63096577 -0.58090943 0.79503524
3.43122172 -4.02048206 2.17367244 0.74661136 -0.79115105 0.98946398
2.47048712 -3.20849323 1.61522591 0.53756183 -0.63136780 0.73525703
3.61156249 -2.88756418 1.49897349 0.78585237 -0.56821531 0.68233848
3.12097764 -3.15521717 1.35925007 0.67910433 -0.62088412 0.61873585
2.89536500 -3.34690022 1.30867934 0.63001245 -0.65860355 0.59571582
2.78367925 -3.56140423 1.28976846 0.60571039 -0.70081365 0.58710754
3.63495851 -2.71656632 1.76608980 0.79094321 -0.53456634 0.80393082
3.43852854 -2.84904122 1.70489776 0.74820131 -0.56063479 0.77607596
3.11126828 -2.82675481 1.81277013 0.67699158 -0.55624926 0.82517987
2.92854834 -2.94426417 1.75287938 0.63723296 -0.57937276 0.79791737
3.49277520 -4.04058409 2.19681811 0.76000500 -0.79510677 1.00000000
3.68160343 -2.90620613 1.52101862 0.80109280 -0.57188368 0.69237351
3.29459190 -2.98331738 1.40446210 0.71688163 -0.58705765 0.63931650
3.12729955 -3.12200284 1.35325515 0.68047988 -0.61434817 0.61600691
2.90492725 -3.31573963 1.30344975 0.63209313 -0.65247172 0.59333533
2.78586221 -3.51817274 1.28020644 0.60618538 -0.69230658 0.58275485
3.64172339 -2.69501066 1.76313698 0.79241514 -0.53032458 0.80258667
3.48348713 -2.85895610 1.72087991 0.75798398 -0.56258583 0.78335112
3.13275409 -2.81937027 1.81760263 0.68166679 -0.55479610 0.82737964
2.94757056 -2.93564105 1.75604522 0.64137208 -0.57767588 0.79935849
3.33847928 -2.99430203 1.41740489 0.72643125 -0.58921921 0.64520812
3.15683198 -3.12205791 1.35984957 0.68690598 -0.61435902 0.61900872
2.93071580 -3.31343484 1.30809832 0.63770455 -0.65201819 0.59545135
2.79406810 -3.49447465 1.27626920 0.60797095 -0.68764323 0.58096260
3.65406680 -2.66880751 1.76092243 0.79510099 -0.52516836 0.80157864
3.48695660 -2.82521629 1.71361530 0.75873893 -0.55594647 0.78004426
3.15040684 -2.79963088 1.81760263 0.68550789 -0.55091178 0.82737964
2.97377658 -2.92482901 1.76079392 0.64707434 -0.57554829 0.80152011
4.05502510 -2.81613779 1.63701415 0.88234693 -0.55416000 0.74517512
3.18182182 -3.10751915 1.36224759 0.69234359 -0.61149812 0.62010032
2.95276022 -3.29637480 1.30867934 0.64250129 -0.64866114 0.59571582
2.79434824 -3.44990516 1.26614475 0.60803187 -0.67887288 0.57635391
3.67681408 -2.65011597 1.76387525 0.80005068 -0.52149022 0.80292273
3.52638721 -2.82080936 1.72451222 0.76731879 -0.55507928 0.78500456
3.17898989 -2.78938746 1.82404590 0.69172740 -0.54889607 0.83031267
2.99471784 -2.90865874 1.76237679 0.65163100 -0.57236630 0.80224067
4.10711384 -2.81401801 1.65113127 0.89368111 -0.55374289 0.75160128
3.21495700 -3.10077405 1.36824262 0.69955361 -0.61017078 0.62282926
2.98504424 -3.29046059 1.31390905 0.64952606 -0.64749736 0.59809643
2.83170652 -3.45164156 1.27345681 0.61616081 -0.67921454 0.57968241
3.71314669 -2.64087892 1.77347171 0.80795640 -0.51967257 0.80729109
3.58484268 -2.83111596 1.74485302 0.78003830 -0.55710745 0.79426378
3.18672776 -2.76101375 1.81840801 0.69341111 -0.54331273 0.82774627
3.01689219 -2.89361858 1.76475120 0.65645599 -0.56940669 0.80332148
4.12943459 -2.79132009 1.65305638 0.89853793 -0.54927641 0.75247759
3.24125433 -3.08712387 1.37124002 0.70527571 -0.60748470 0.62419367
3.00956321 -3.27585006 1.31565225 0.65486127 -0.64462227 0.59888995
2.85089803 -3.43081784 1.27233183 0.62033677 -0.67511684 0.57917029
3.74645495 -2.62916732 1.78159189 0.81520408 -0.51736796 0.81098741
3.24312353 -2.77406931 1.84095955 0.70568246 -0.54588181 0.83801180
3.04961491 -2.88857079 1.77345717 0.66357625 -0.56841338 0.80728447
4.17533636 -2.78412008 1.66460681 0.90852588 -0.54785955 0.75773537
3.59498811 -3.54778409 1.27203608 0.78224587 -0.69813347 0.57903570
3.27442646 -3.07983279 1.37723505 0.71249378 -0.60604995 0.62692267
3.03532600 -3.26245642 1.31797659 0.66046709 -0.64198667 0.59994799
2.89083552 -3.43494797 1.28076899 0.62902689 -0.67592961 0.58301091
3.76952147 -2.61886001 1.78675926 0.82022321 -0.51533967 0.81333965
3.25055027 -2.75404882 1.83773792 0.70729846 -0.54194212 0.83654535
3.06719303 -2.87795758 1.77583146 0.66740113 -0.56632495 0.80836529
3.66681790 -4.11065483 1.94851685 0.79787558 -0.80889529 0.88697231
3.41494703 -3.68687749 2.06488824 0.74307013 -0.72550434 0.93994504
4.16146183 -2.74678373 1.65369809 0.90550685 -0.54051250 0.75276971
3.29029346 -3.06567526 1.37783456 0.71594632 -0.60326403 0.62719554
3.06383133 -3.26200628 1.32378733 0.66666967 -0.64189810 0.60259306
2.90451813 -3.41835070 1.27964401 0.63200414 -0.67266357 0.58249885
3.80435538 -2.60765338 1.79561758 0.82780284 -0.51313442 0.81737196
3.29739475 -2.75809646 1.85465157 0.71749151 -0.54273862 0.84424448
3.09460378 -2.86741304 1.78137159 0.67336553 -0.56424999 0.81088716
4.16590500 -2.71236587 1.64856458 0.90647364 -0.53373975 0.75043291
3.31788039 -3.05273080 1.38143158 0.72194904 -0.60071683 0.62883294
3.08426642 -3.24269128 1.32378733 0.67111617 -0.63809729 0.60259306
2.92967463 -3.40441513 1.28133142 0.63747799 -0.66992134 0.58326697
3.82838631 -2.58887076 1.79930854 0.83303177 -0.50943840 0.81905210
3.10446453 -2.84043407 1.77662289 0.67551118 -0.55894107 0.80872554
2.86247349 -3.01863647 1.70304585 0.62285548 -0.59400773 0.77523297
3.54504061 -4.13873720 2.18620086 0.77137762 -0.81442136 0.99516696
4.13971663 -2.65867734 1.63123894 0.90077525 -0.52317494 0.74254620
3.36231089 -3.05503345 1.39222252 0.73161685 -0.60116994 0.63374501
3.12058616 -3.23971605 1.33076024 0.67901909 -0.63751179 0.60576713
2.94724393 -3.38158250 1.27964401 0.64130098 -0.66542834 0.58249885
3.86163592 -2.57603741 1.80742872 0.84026670 -0.50691301 0.82274848
3.33179283 -2.71644354 1.85465157 0.72497630 -0.53454214 0.84424448
3.14396071 -2.84067869 1.78928614 0.68410528 -0.55898917 0.81448990
2.85954642 -2.97807217 1.68992996 0.62221861 -0.58602548 0.76926255
3.55405831 -4.09673357 2.17562723 0.77333981 -0.80615586 0.99035382
4.12264633 -2.61146784 1.61776340 0.89706087 -0.51388502 0.73641211
3.38002539 -3.03256679 1.39162302 0.73547143 -0.59674895 0.63347214
3.14490747 -3.22413659 1.33250344 0.68431127 -0.63444608 0.60656065
2.99875808 -3.39766979 1.29314339 0.65251011 -0.66859400 0.58864379
3.87618804 -2.55070853 1.80669045 0.84343314 -0.50192881 0.82241237
3.20538712 -2.99135542 1.59239292 0.69747126 -0.58863938 0.72486335
3.36740446 -2.71028996 1.86512196 0.73272514 -0.53333127 0.84901065
3.15765285 -2.81718063 1.78691173 0.68708462 -0.55436522 0.81340903
4.16635609 -2.60246015 1.62867212 0.90657181 -0.51211250 0.74137777
3.41892767 -3.02907276 1.40001595 0.74393630 -0.59606141 0.63729262
2.99332213 -3.34859037 1.28133142 0.65132731 -0.65893614 0.58326697
3.92340922 -2.54640675 1.82145441 0.85370815 -0.50108230 0.82913303
3.37429667 -2.68115401 1.85948408 0.73422486 -0.52759790 0.84644425
3.20685577 -2.82536221 1.80511510 0.69779080 -0.55597520 0.82169527
2.90845299 -2.95367956 1.69687366 0.63286030 -0.58122551 0.77242339
4.22143269 -2.59991264 1.64407277 0.91855609 -0.51161122 0.74838823
4.26131868 -2.93203402 1.68100309 0.92723507 -0.57696611 0.76519901
3.03352690 -3.35114694 1.28976846 0.66007560 -0.65943921 0.58710754
3.97857738 -2.54658794 1.83990920 0.86571240 -0.50111794 0.83753371
3.40553331 -2.67113018 1.86753809 0.74102175 -0.52562541 0.85011047
3.25076461 -2.82818747 1.82015264 0.70734513 -0.55653113 0.82854044
2.94004679 -2.94834924 1.70458889 0.63973492 -0.58017659 0.77593535
4.26086092 -2.89233398 1.67344487 0.92713547 -0.56915390 0.76175851
3.06742835 -3.34622669 1.29539323 0.66745234 -0.65847099 0.58966798
3.41953397 -2.65616846 1.86834359 0.74406821 -0.52268124 0.85047716
3.21971345 -2.77425838 1.79482627 0.70058858 -0.54591900 0.81701177
3.60356879 -3.71208787 1.82787228 0.78411299 -0.73046523 0.83205444
2.97495413 -2.95516634 1.71693313 0.64733052 -0.58151805 0.78155452
4.26187229 -2.86370373 1.66840589 0.92735553 -0.56352007 0.75946474
3.07537937 -3.32324767 1.29201841 0.66918242 -0.65394920 0.58813173
4.05691957 -2.53398395 1.86353147 0.88275915 -0.49863774 0.84828663
3.49977708 -2.81095672 1.67227066 0.76152861 -0.55314046 0.76122397
3.43469739 -2.63352370 1.86753809 0.74736768 -0.51822519 0.85011047
2.98684549 -2.92998719 1.71307552 0.64991802 -0.57656330 0.77979851
4.23875237 -2.80943847 1.65202951 0.92232478 -0.55284172 0.75201017
3.11317849 -3.32214093 1.29933059 0.67740726 -0.65373141 0.59146023
4.10132360 -2.52586865 1.87681890 0.89242119 -0.49704081 0.85433513
3.53941870 -2.80623221 1.68294024 0.77015436 -0.55221081 0.76608086
3.47461510 -2.62945700 1.88042474 0.75605351 -0.51742494 0.85597652
3.68065500 -4.09718609 1.88915133 0.80088645 -0.80624491 0.85994893
3.02383780 -2.92904615 1.72387683 0.65796733 -0.57637817 0.78471529
4.23888969 -2.77125430 1.64510107 0.92235464 -0.54532784 0.74885631
3.13925028 -3.30810714 1.30158043 0.68308032 -0.65096980 0.59248441
4.14897013 -2.51921058 1.89158285 0.90278876 -0.49573064 0.86105573
3.55698085 -2.78393817 1.68294024 0.77397573 -0.54782379 0.76608086
3.50137019 -2.61519408 1.88606262 0.76187521 -0.51461828 0.85854292
3.03816319 -2.90618205 1.72156227 0.66108441 -0.57187897 0.78366172
4.23553324 -2.73110962 1.63691294 0.92162430 -0.53742814 0.74512905
3.16659212 -3.29526639 1.30439281 0.68902969 -0.64844304 0.59376460
3.58479285 -2.76948714 1.68791938 0.78002745 -0.54498011 0.76834732
3.52364731 -2.59746051 1.88928425 0.76672256 -0.51112866 0.86000943
3.04693055 -2.87821174 1.71616161 0.66299212 -0.56637496 0.78120333
