-9.16599274 -21.45670509 2.70880222 -1.00000000 -0.93087137 0.87711191
-8.74376106 -21.10666656 2.64943957 -0.95393497 -0.91568542 0.85789025
-8.59230614 -21.11520004 2.64338207 -0.93741143 -0.91605562 0.85592884
-8.45579147 -21.15954971 2.64217067 -0.92251778 -0.91797966 0.85553658
-8.32991123 -21.23074913 2.64459348 -0.90878439 -0.92106855 0.85632104
-8.11397552 -22.09976387 1.92276669 -0.88522607 -0.95876962 0.62259310
-8.07346916 -21.26164436 2.63684011 -0.88080686 -0.92240894 0.85381049
-8.74181938 -20.79868889 2.48744345 -0.95372313 -0.90232420 0.80543578
-7.92994595 -21.91661072 1.90218341 -0.86514860 -0.95082378 0.61592823
-8.02822018 -21.55015755 2.66785407 -0.87587023 -0.93492568 0.86385286
-7.72829628 -21.78568459 1.88543773 -0.84314883 -0.94514370 0.61050594
-7.79206276 -21.32411194 2.63199401 -0.85010570 -0.92511898 0.85224134
-8.57930088 -21.15164948 2.51819944 -0.93599254 -0.91763693 0.81539458
-7.66727829 -21.39882278 2.63538623 -0.83649188 -0.92836022 0.85333973
-8.43591785 -21.17930794 2.51496196 -0.92034960 -0.91883683 0.81434631
-7.42508984 -21.79618645 1.87758815 -0.81006938 -0.94559932 0.60796422
-7.53004980 -21.43907928 2.63441706 -0.82152039 -0.93010670 0.85302591
-8.30992985 -21.25038910 2.51727438 -0.90660447 -0.92192060 0.81509507
-7.25214577 -21.73464966 1.86764538 -0.79120135 -0.94292963 0.60474479
-7.39390755 -21.48221397 2.63393259 -0.80666739 -0.93197805 0.85286903
-8.14699268 -21.22616768 2.50779343 -0.88882816 -0.92086983 0.81202513
-7.14690971 -21.87640190 1.87654150 -0.77972019 -0.94907939 0.60762537
-7.29068661 -21.51117516 2.63320565 -0.79540610 -0.93323445 0.85263366
-8.03982925 -21.24574852 2.50548077 -0.87713677 -0.92171931 0.81127626
-8.99536228 -21.21607018 2.45300889 -0.98138440 -0.92043173 0.79428583
-7.03765965 -21.89086533 1.87479722 -0.76780117 -0.94970685 0.60706055
-7.15476131 -21.55467415 2.63296342 -0.78057683 -0.93512166 0.85255522
-7.90825939 -21.30142975 2.50617456 -0.86278266 -0.92413497 0.81150091
-8.77112293 -21.05377007 2.42640924 -0.95692015 -0.91339058 0.78567284
-6.90355444 -21.94605827 1.87584376 -0.75317043 -0.95210135 0.60739940
-7.01674128 -21.59164810 2.63199401 -0.76551896 -0.93672568 0.85224134
-7.80628824 -21.43840408 2.51704335 -0.85165769 -0.93007743 0.81502026
-6.87613964 -21.62017059 2.63005567 -0.75017947 -0.93796313 0.85161370
-7.64063025 -21.40099525 2.50640583 -0.83358461 -0.92845446 0.81157583
-8.51400280 -21.18261719 2.42886806 -0.92886859 -0.91898042 0.78646904
-6.71822071 -22.33451653 1.90357888 -0.73295069 -0.96895409 0.61638004
-6.74427795 -21.67621994 2.63175178 -0.73579353 -0.94039476 0.85216290
-7.50206661 -21.43733215 2.50501823 -0.81846744 -0.93003088 0.81112653
-8.37127781 -21.21165276 2.42596221 -0.91329747 -0.92024010 0.78552812
-6.61025476 -21.72576714 2.63272095 -0.72117174 -0.94254428 0.85247672
-7.36334801 -21.47277451 2.50363088 -0.80333340 -0.93156850 0.81067729
-8.22637558 -21.23416901 2.42238593 -0.89748877 -0.92121691 0.78437012
-6.50666666 -21.75287056 2.63223648 -0.70987040 -0.94372010 0.85231984
-7.26080418 -21.50347137 2.50316834 -0.79214597 -0.93290025 0.81052750
-8.11773014 -21.25041199 2.41970348 -0.88563567 -0.92192161 0.78350157
-6.37097263 -21.79713631 2.63272095 -0.69506627 -0.94564056 0.85247672
-7.12430096 -21.54489708 2.50270581 -0.77725363 -0.93469745 0.81037772
-7.98265839 -21.29727554 2.41925645 -0.87089950 -0.92395473 0.78335679
-8.93594646 -21.36181259 2.30696845 -0.97490221 -0.92675459 0.74699783
-6.23715162 -21.84819221 2.63417482 -0.68046659 -0.94785553 0.85294747
-6.99431229 -21.60623932 2.50478721 -0.76307201 -0.93735874 0.81105173
-7.84937143 -21.34887695 2.41948009 -0.85635805 -0.92619336 0.78342921
-8.76063919 -21.31823158 2.29562521 -0.95577633 -0.92486387 0.74332494
-8.34311771 -21.14825630 3.06570625 -0.91022521 -0.91748971 0.99267763
-6.10347223 -21.90034103 2.63587093 -0.66588229 -0.95011795 0.85349667
-6.85962248 -21.65354538 2.50524950 -0.74837750 -0.93941104 0.81120139
-7.71709585 -21.40338516 2.42015052 -0.84192687 -0.92855817 0.78364629
-8.17495060 -21.10979843 3.05202627 -0.89187837 -0.91582125 0.98824805
-5.96886396 -21.94975471 2.63732457 -0.65119666 -0.95226169 0.85396737
-6.71753740 -21.67724800 2.50293708 -0.73287612 -0.94043934 0.81045264
-7.57255268 -21.42333412 2.41679764 -0.82615739 -0.92942363 0.78256065
-8.44725990 -21.31388474 2.28281140 -0.92158699 -0.92467529 0.73917580
-8.10068703 -21.31434631 3.07519865 -0.88377631 -0.92469531 0.99575132
-5.82778978 -21.97530746 2.63587093 -0.63580561 -0.95337027 0.85349667
-6.58409262 -21.72853088 2.50409341 -0.71831745 -0.94266421 0.81082708
-7.43714857 -21.46861076 2.41657424 -0.81138498 -0.93138790 0.78248829
-8.29727268 -21.32577515 2.27818990 -0.90522355 -0.92519116 0.73767936
-8.76694965 -21.14797020 2.95876288 -0.95646483 -0.91747731 0.95804930
-6.48048878 -21.75550842 2.50363088 -0.70701438 -0.94383454 0.81067729
-7.33013773 -21.48648453 2.41456246 -0.79971015 -0.93216330 0.78183687
-8.20025635 -21.37391853 2.27924013 -0.89463919 -0.92727977 0.73801941
-7.82954216 -21.30364037 3.06040192 -0.85419470 -0.92423087 0.99096012
-8.64398479 -21.13216019 2.95044899 -0.94304949 -0.91679138 0.95535725
-5.58824158 -22.04768181 2.63708234 -0.60967118 -0.95651013 0.85388893
-6.34645224 -21.80533218 2.50478721 -0.69239116 -0.94599611 0.81105173
-7.19624662 -21.53588867 2.41500950 -0.78510278 -0.93430662 0.78198165
-8.05456066 -21.39524841 2.27587914 -0.87874395 -0.92820513 0.73693115
-7.76284790 -21.53866577 3.08832002 -0.84691840 -0.93442714 1.00000000
-8.50292873 -21.16581726 2.94749880 -0.92766041 -0.91825157 0.95440197
-5.48562193 -22.22887611 2.65549684 -0.59847546 -0.96437103 0.85985160
-6.20714140 -21.83713531 2.50386214 -0.67719251 -0.94737583 0.81075215
-7.05894232 -21.57501030 2.41433883 -0.77012306 -0.93600386 0.78176445
-7.91030216 -21.41932106 2.27293825 -0.86300552 -0.92924953 0.73597884
-8.34147453 -21.14689636 2.93703938 -0.91004592 -0.91743070 0.95101523
-5.33753347 -22.22814941 2.65113568 -0.58231920 -0.96433949 0.85843945
-6.07407570 -21.89101601 2.50571203 -0.66267514 -0.94971341 0.81135118
-6.91901302 -21.60568237 2.41277432 -0.75485694 -0.93733454 0.78125787
-7.77352858 -21.46299171 2.27230811 -0.84808367 -0.93114412 0.73577482
-8.25627899 -21.32276344 2.95500827 -0.90075123 -0.92506051 0.95683354
-5.18112755 -22.18970108 2.64217067 -0.56525546 -0.96267146 0.85553658
-5.93641138 -21.92874718 2.50571203 -0.64765614 -0.95135033 0.81135118
-6.78845787 -21.66580391 2.41478586 -0.74061346 -0.93994284 0.78190923
-7.63118076 -21.49079895 2.26999760 -0.83255368 -0.93235052 0.73502666
-8.07789326 -21.25745964 2.93811202 -0.88128948 -0.92222738 0.95136255
-5.04160404 -22.22181702 2.64217067 -0.55003363 -0.96406478 0.85553658
-5.80410957 -21.98673820 2.50825572 -0.63322216 -0.95386618 0.81217480
-6.65161371 -21.70612717 2.41456246 -0.72568393 -0.94169223 0.78183687
-7.48813486 -21.51578903 2.26747680 -0.81694752 -0.93343467 0.73421043
-7.92552042 -21.25763702 2.93087101 -0.86466581 -0.92223507 0.94901788
-8.76857471 -21.07796288 2.78851128 -0.95664209 -0.91444016 0.90292174
-6.55211067 -21.74674988 2.41568017 -0.71482825 -0.94345456 0.78219879
-7.39054108 -21.56212234 2.26873708 -0.80630010 -0.93544477 0.73461854
-8.21549702 -21.41501045 2.17071533 -0.89630193 -0.92906249 0.70287901
-8.65480614 -21.08419418 2.78367782 -0.94423008 -0.91471046 0.90135664
-6.41254520 -21.77795219 2.41456246 -0.69960183 -0.94480824 0.78183687
-7.24983931 -21.59305382 2.26705670 -0.79094970 -0.93678671 0.73407441
-8.50506210 -21.09585571 2.77782702 -0.92789316 -0.91521639 0.89946216
-5.42763805 -22.10109901 2.51033711 -0.59214950 -0.95882756 0.81284875
-6.27887058 -21.82927704 2.41590357 -0.68501806 -0.94703490 0.78227115
-7.11900711 -21.65328979 2.26873708 -0.77667606 -0.93939996 0.73461854
-7.93405581 -21.48480988 2.16730928 -0.86559701 -0.93209064 0.70177615
-7.56626940 -21.41757011 2.93462563 -0.82547188 -0.92917353 0.95023364
-8.46382523 -21.37935638 2.80962539 -0.92339426 -0.92751569 0.90975851
-5.29654408 -22.16760445 2.51426816 -0.57784730 -0.96171284 0.81412166
-6.14319706 -21.87403870 2.41657424 -0.67021620 -0.94897687 0.78248829
-7.43284369 -21.46843338 2.93516207 -0.81091529 -0.93138021 0.95040739
-8.23425770 -21.18812752 2.77604628 -0.89834869 -0.91921949 0.89888555
-5.19867134 -22.37843513 2.53554296 -0.56716949 -0.97085941 0.82101041
-6.01087427 -21.93137741 2.41880941 -0.65577996 -0.95146441 0.78321207
-6.83736229 -21.71258926 2.26558614 -0.74594891 -0.94197255 0.73359823
-7.29590273 -21.50907898 2.93435740 -0.79597521 -0.93314356 0.95014679
-8.11017895 -21.26353264 2.77935338 -0.88481182 -0.92249084 0.89995641
-5.87398100 -21.97255325 2.41925645 -0.64084506 -0.95325077 0.78335679
-6.70608854 -21.77222443 2.26747680 -0.73162711 -0.94455975 0.73421043
-7.15999126 -21.55261421 2.93408918 -0.78114736 -0.93503225 0.95005995
-8.00081062 -21.37907600 2.78825688 -0.87287986 -0.92750353 0.90283936
-5.77137804 -22.00383568 2.41970348 -0.62965119 -0.95460790 0.78350157
-6.60457182 -21.80739021 2.26789689 -0.72055173 -0.94608539 0.73434645
-7.06633329 -21.61061287 2.93757582 -0.77092940 -0.93754846 0.95118892
-7.85661936 -21.29932594 2.77223039 -0.85714877 -0.92404366 0.89765000
-6.46515751 -21.84082985 2.26705670 -0.70534176 -0.94753611 0.73407441
-6.91535044 -21.60737991 2.93087101 -0.75445735 -0.93740821 0.94901788
-7.71046066 -21.31470299 2.76765156 -0.84120303 -0.92471081 0.89616734
-5.51785851 -22.16914558 2.43065619 -0.60199249 -0.96177965 0.78704804
-6.32669210 -21.87720108 2.26663637 -0.69023532 -0.94911402 0.73393834
-6.78358555 -21.66364861 2.93274832 -0.74008191 -0.93984932 0.94962579
-7.57904434 -21.37020493 2.76866913 -0.82686561 -0.92711866 0.89649683
-5.35887814 -22.12223244 2.42126822 -0.58464789 -0.95974439 0.78400820
-7.85049391 -21.57339859 1.99598682 -0.85648048 -0.93593395 0.64630181
-6.64733601 -21.70584297 2.93274832 -0.72521722 -0.94167989 0.94962579
-7.44658136 -21.42302132 2.76943231 -0.81241405 -0.92941004 0.89674395
-6.51252413 -21.75287819 2.93355274 -0.71050942 -0.94372046 0.94988626
-7.30349493 -21.44498253 2.76612520 -0.79680347 -0.93036282 0.89567310
-6.38015747 -21.80858803 2.93569851 -0.69606835 -0.94613737 0.95058107
-7.17616177 -21.51302338 2.76917791 -0.78291160 -0.93331468 0.89666158
-5.00744200 -22.35312462 2.43758559 -0.54630655 -0.96976137 0.78929180
-5.81715059 -22.04902267 2.26978731 -0.63464493 -0.95656830 0.73495859
-5.47480488 -22.00828362 3.05788922 -0.59729534 -0.95480090 0.99014652
-6.27840805 -21.84222221 2.93623471 -0.68496758 -0.94759655 0.95075470
-7.07284307 -21.54094887 2.76841474 -0.77163959 -0.93452621 0.89641446
-4.91063118 -22.58616257 2.46083212 -0.53574461 -0.97987139 0.79681903
-5.68396568 -22.10632324 2.27209806 -0.62011456 -0.95905423 0.73570681
-5.35372114 -22.11345100 3.06821895 -0.58408523 -0.95936346 0.99349123
-6.14424896 -21.89269257 2.93784404 -0.67033100 -0.94978613 0.95127577
-6.94101048 -21.59629250 2.76994109 -0.75725681 -0.93692720 0.89690870
-5.54932022 -22.15896034 2.27398872 -0.60542488 -0.96133780 0.73631901
-6.26804638 -21.67456818 2.13305020 -0.68383718 -0.94032305 0.69068301
-6.01387882 -21.95763397 2.94159865 -0.65610772 -0.95260352 0.95249152
-6.80279398 -21.63190842 2.76892352 -0.74217755 -0.93847233 0.89657921
-5.41234684 -22.20304871 2.27503896 -0.59048122 -0.96325052 0.73665905
-6.20882511 -21.98744392 2.16169977 -0.67737615 -0.95389676 0.69995975
-5.87273788 -21.98349380 2.93998957 -0.64070940 -0.95372540 0.95197052
-6.67083740 -21.68749428 2.77070403 -0.72778124 -0.94088387 0.89715576
-6.53214836 -21.72138214 2.76968670 -0.71265042 -0.94235402 0.89682633
-5.58388615 -22.00751877 2.93328476 -0.60919601 -0.95476770 0.94979948
-6.39497948 -21.76009369 2.76943231 -0.69768542 -0.94403350 0.89674395
-5.46295738 -21.96433258 2.92362976 -0.59600282 -0.95289415 0.94667321
-6.29236698 -21.78998756 2.76943231 -0.68649048 -0.94533038 0.89674395
-4.99751425 -22.82363129 2.32902503 -0.54522347 -0.99017370 0.75413978
-5.81055498 -22.60183334 2.21098471 -0.63392532 -0.98055130 0.71591824
-6.53303051 -21.94796181 1.99061751 -0.71274662 -0.95218390 0.64456320
-5.35364676 -22.11767960 2.94025779 -0.58407712 -0.95954686 0.95205736
-6.15641308 -21.83291054 2.76994109 -0.67165810 -0.94719255 0.89690870
-5.69010448 -22.72478104 2.22000027 -0.62078428 -0.98588520 0.71883750
-5.22271633 -22.18561363 2.94508505 -0.56979275 -0.96249413 0.95362043
-6.02333736 -21.88645935 2.77197599 -0.65713966 -0.94951570 0.89756763
-5.58101511 -22.89931488 2.23442507 -0.60888278 -0.99345714 0.72350824
-5.88725090 -21.92961884 2.77273917 -0.64229280 -0.95138812 0.89781469
-5.46446753 -23.05012894 2.24644589 -0.59616756 -1.00000000 0.72740060
-5.53934526 -22.15505409 2.78952885 -0.60433662 -0.96116835 0.90325123
-5.38025904 -22.10848427 2.77884459 -0.58698052 -0.95914799 0.89979166
-5.26371717 -22.23642349 2.79130936 -0.57426590 -0.96469843 0.90382779
-5.10960913 -22.20720482 2.78316903 -0.55745292 -0.96343082 0.90119189
-4.96867418 -22.23306465 2.78240585 -0.54207706 -0.96455270 0.90094477
-4.85674906 -22.39177322 2.79919553 -0.52986610 -0.97143811 0.90638131
-4.79000616 -22.59679604 2.82310772 -0.52258456 -0.98033273 0.91412407
