-10.59037209 -10.28414440 1.66280627 -0.98237073 -0.87191731 0.67946315
-10.46193409 -10.28775501 1.65190291 -0.97045672 -0.87222344 0.67500776
-10.34298801 -10.26691341 1.63978815 -0.95942318 -0.87045646 0.67005742
-10.20696735 -10.25981808 1.62743092 -0.94680583 -0.86985487 0.66500795
-10.08395100 -10.26418591 1.61725450 -0.93539470 -0.87022519 0.66084957
-9.95024300 -10.25600052 1.60513961 -0.92299187 -0.86953121 0.65589917
-9.99057484 -10.17708588 2.37652874 -0.92673308 -0.86284059 0.97110754
-9.82389450 -10.25371933 1.59423625 -0.91127169 -0.86933780 0.65144378
-10.59842682 -10.33525944 1.58442068 -0.98311788 -0.87625098 0.64743292
-9.86457539 -10.17602921 2.36152911 -0.91504526 -0.86275101 0.96497834
-9.70614433 -10.25892353 1.58478665 -0.90034908 -0.86977905 0.64758247
-10.44976902 -10.31940556 1.57077706 -0.96932828 -0.87490684 0.64185780
-9.77722549 -10.21362495 2.35586262 -0.90694267 -0.86593848 0.96266288
-9.59940529 -10.24217796 1.57436788 -0.89044791 -0.86835933 0.64332509
-10.32494450 -10.29290295 1.55828965 -0.95774949 -0.87265992 0.63675511
-9.78062820 -10.31388760 2.36852884 -0.90725827 -0.87443906 0.96783859
-9.49043274 -10.25414371 1.56637216 -0.88033956 -0.86937380 0.64005786
-10.19146729 -10.28851223 1.54695857 -0.94536799 -0.87228763 0.63212496
-10.74978256 -10.30627632 2.03548551 -0.99715775 -0.87379372 0.83174896
-9.37500477 -10.25781059 1.55716479 -0.86963236 -0.86968470 0.63629550
-10.07793140 -10.30270672 1.53886485 -0.93483633 -0.87349111 0.62881768
-10.57421017 -10.26593876 2.01294303 -0.98087156 -0.87037379 0.82253760
-8.52238941 -10.25421143 2.28945398 -0.79054314 -0.86937952 0.93552667
-9.28380966 -10.28699684 1.55231893 -0.86117303 -0.87215918 0.63431537
-9.95079994 -10.30161476 1.52845871 -0.92304355 -0.87339854 0.62456548
-10.42212200 -10.24603462 1.99502456 -0.96676373 -0.86868626 0.81521565
-8.39167500 -10.22672749 2.27125669 -0.77841794 -0.86704940 0.92809081
-9.86939812 -10.34670734 1.52568376 -0.91549265 -0.87722158 0.62343156
-10.74239159 -10.39057064 1.54214358 -0.99647218 -0.88094044 0.63015747
-10.34913540 -10.30292702 1.99329054 -0.95999342 -0.87350976 0.81450707
-8.28887844 -10.23173237 2.26061273 -0.76888245 -0.86747372 0.92374146
-9.72097874 -10.32042122 1.51157761 -0.90172517 -0.87499297 0.61766744
-10.57905579 -10.36176872 1.52672040 -0.98132104 -0.87849855 0.62385517
-10.14502239 -10.22705269 1.96438980 -0.94105977 -0.86707693 0.80269754
-8.17529774 -10.22198486 2.24687886 -0.75834662 -0.86664730 0.91812944
-9.13923645 -10.26592350 2.28919768 -0.84776229 -0.87037253 0.93542194
-9.61522770 -10.30519199 1.50186515 -0.89191562 -0.87370181 0.61369872
-10.47788906 -10.35973167 1.51844990 -0.97193670 -0.87832582 0.62047565
-10.05239296 -10.22951412 1.95514166 -0.93246740 -0.86728561 0.79891855
-8.08918762 -10.21245861 2.23623514 -0.75035900 -0.86583960 0.91378015
-9.02412701 -10.23354244 2.27219820 -0.83708465 -0.86762714 0.92847556
-9.99221134 -10.09908485 2.26532555 -0.92688489 -0.85622746 0.92566723
-10.35789108 -10.37044334 1.50973248 -0.96080559 -0.87923396 0.61691350
-10.08150196 -10.38918114 1.97479403 -0.93516755 -0.88082260 0.80694896
-10.73786259 -10.27840519 1.95623374 -0.99605203 -0.87143075 0.79936481
-7.99579191 -10.22578526 2.22799492 -0.74169552 -0.86696947 0.91041303
-8.88181877 -10.20092010 2.25219870 -0.82388407 -0.86486137 0.92030329
-9.99882412 -10.23378849 2.28162146 -0.92749828 -0.86764801 0.93232614
-10.24096203 -10.38289261 1.50146198 -0.94995916 -0.88028949 0.61353397
-9.78633213 -10.21194553 1.92624104 -0.90778738 -0.86579609 0.78710902
-10.56200695 -10.23830700 1.93445754 -0.97973955 -0.86803108 0.79046649
-7.89053488 -10.22272682 2.21632099 -0.73193181 -0.86671019 0.90564275
-8.77633858 -10.20873451 2.24153233 -0.81409961 -0.86552387 0.91594476
-9.84124660 -10.19966316 2.25989342 -0.91288131 -0.86475480 0.92344755
-10.12290287 -10.39285755 1.49296808 -0.93900794 -0.88113433 0.61006314
-9.65134907 -10.19838619 1.91121268 -0.89526623 -0.86464649 0.78096807
-10.40264988 -10.21164894 1.91575229 -0.96495748 -0.86577100 0.78282309
-7.78682566 -10.22032070 2.20499063 -0.72231168 -0.86650616 0.90101290
-8.65065861 -10.19160366 2.22553277 -0.80244148 -0.86407149 0.90940690
-9.16307259 -10.32984352 1.46856546 -0.84997338 -0.87579185 0.60009164
-9.97348118 -10.36876106 1.47933304 -0.92514747 -0.87909138 0.60449153
-9.54121017 -10.20959854 1.90138638 -0.88504970 -0.86559713 0.77695280
-10.25248814 -10.19176102 1.89872217 -0.95102835 -0.86408484 0.77586412
-7.68345928 -10.21701717 2.19366026 -0.71272337 -0.86622608 0.89638305
-8.54711437 -10.19896030 2.21519971 -0.79283661 -0.86469519 0.90518457
-9.64070606 -10.24621105 2.24295855 -0.89427900 -0.86870122 0.91652751
-9.85756779 -10.37783241 1.47106266 -0.91439527 -0.87986046 0.60111207
-9.42595291 -10.21400642 1.89040422 -0.87435836 -0.86597085 0.77246523
-10.26512241 -10.33314419 1.91407716 -0.95220029 -0.87607169 0.78213859
-7.61208200 -10.25558758 2.19160008 -0.70610231 -0.86949623 0.89554119
-8.44508076 -10.20693874 2.20519996 -0.78337193 -0.86537164 0.90109843
-9.49831486 -10.22258186 2.22442579 -0.88107067 -0.86669791 0.90895456
-9.73103905 -10.34155464 1.45832169 -0.90265834 -0.87678474 0.59590578
-9.31772518 -10.19249344 1.87739885 -0.86431909 -0.86414689 0.76715094
-10.01878357 -10.18123913 1.87443316 -0.92934972 -0.86319274 0.76593906
-8.34429169 -10.18264008 2.19120026 -0.77402264 -0.86331153 0.89537781
-9.39263535 -10.20467949 2.21068597 -0.87126780 -0.86518008 0.90334016
-9.59968185 -10.33105564 1.44736898 -0.89047354 -0.87589461 0.59143025
-9.21113491 -10.20376682 1.86815071 -0.85443169 -0.86510271 0.76337188
-9.89932823 -10.18725491 1.86326587 -0.91826898 -0.86370277 0.76137584
-10.77004623 -10.29067230 1.87660539 -0.99903744 -0.87247080 0.76682669
-7.40882254 -10.21411705 2.16481900 -0.68724781 -0.86598021 0.88459778
-8.24411011 -10.19046211 2.18153405 -0.76472974 -0.86397469 0.89142799
-9.27265072 -10.20204926 2.19726586 -0.86013794 -0.86495709 0.89785635
-9.56677914 -10.42636013 1.45273352 -0.88742149 -0.88397473 0.59362233
-9.07979488 -10.18599796 1.85341132 -0.84224844 -0.86359620 0.75734901
-9.70054626 -10.10940933 1.83590603 -0.89982980 -0.85710281 0.75019592
-10.59138012 -10.24773026 1.85514998 -0.98246425 -0.86883003 0.75805950
-7.33191299 -10.24282169 2.16104221 -0.68011367 -0.86841387 0.88305449
-8.15279198 -10.20820236 2.17420077 -0.75625896 -0.86547875 0.88843143
-9.15307236 -10.19831562 2.18384552 -0.84904575 -0.86464053 0.89237249
-10.19976807 -10.19272423 2.16820645 -0.94613802 -0.86416650 0.88598198
-8.01027203 -10.27818775 1.45152342 -0.74303871 -0.87141234 0.59312785
-10.78042316 -11.05671597 1.49234557 -1.00000000 -0.93741804 0.60980874
-8.98298168 -10.20565987 1.84618616 -0.83326799 -0.86526322 0.75439668
-9.65866375 -10.19312859 1.84037292 -0.89594477 -0.86420077 0.75202125
-10.46599102 -10.25434780 1.84361768 -0.97083306 -0.86939108 0.75334710
-7.24132586 -10.25163078 2.15314531 -0.67171073 -0.86916071 0.87982762
-8.04200459 -10.20045090 2.16153455 -0.74598229 -0.86482155 0.88325572
-9.03913784 -10.19940281 2.17170358 -0.83847708 -0.86473268 0.88741100
-10.08403301 -10.20464993 2.15703487 -0.93540233 -0.86517757 0.88141704
-10.07944107 -10.47028923 1.39634693 -0.93497640 -0.88769919 0.57058138
-8.86943436 -10.20506477 1.83520389 -0.82273525 -0.86521274 0.74990904
-9.52666855 -10.18140888 1.82641375 -0.88370079 -0.86320716 0.74631715
-10.34375000 -10.26259136 1.83262181 -0.95949388 -0.87009001 0.74885392
-7.16890240 -10.28559875 2.15074182 -0.66499269 -0.87204063 0.87884551
-7.94620085 -10.21036530 2.15286803 -0.73709548 -0.86566216 0.87971437
-8.93334103 -10.20838928 2.16147852 -0.82866329 -0.86549461 0.88323277
-9.98929501 -10.23672104 2.15039253 -0.92661434 -0.86789668 0.87870282
-9.15442467 -10.36173248 1.41629899 -0.84917116 -0.87849545 0.57873428
-9.93934727 -10.45567417 1.38500357 -0.92198116 -0.88646007 0.56594622
-8.75239182 -10.19893742 1.82335472 -0.81187832 -0.86469322 0.74506718
-9.41808701 -10.19312859 1.81720078 -0.87362868 -0.86420077 0.74255252
-10.18272781 -10.23031998 1.81411648 -0.94455731 -0.86735398 0.74129218
-7.07072067 -10.28168011 2.14044142 -0.65588528 -0.87170839 0.87463653
-7.83975697 -10.20542240 2.14120173 -0.72722161 -0.86524308 0.87494719
-8.81748104 -10.20448494 2.14869738 -0.81791604 -0.86516356 0.87801009
-9.86295319 -10.23530674 2.13680553 -0.91489482 -0.86777675 0.87315083
-9.80120277 -10.40840244 1.37134957 -0.90916681 -0.88245225 0.56036687
-8.66585064 -10.19477463 1.81468451 -0.80385071 -0.86434031 0.74152434
-9.30834389 -10.17028618 1.80435836 -0.86344886 -0.86226410 0.73730481
-10.05103302 -10.19339657 1.79802489 -0.93234122 -0.86422348 0.73471677
-6.94144297 -10.19585896 2.11537719 -0.64389336 -0.86443228 0.86439466
-7.75688124 -10.19679165 2.13153529 -0.71953404 -0.86451131 0.87099725
-8.72828770 -10.19786263 2.13847256 -0.80964237 -0.86460215 0.87383199
-9.72574425 -10.18884087 2.11717987 -0.90216720 -0.86383724 0.86513132
-9.67050171 -10.39995861 1.36126649 -0.89704287 -0.88173640 0.55624664
-8.55717659 -10.19589806 1.80456924 -0.79377002 -0.86443555 0.73739100
-9.19105625 -10.16987896 1.79319108 -0.85256916 -0.86222959 0.73274159
-9.93570423 -10.20373631 1.78810179 -0.92164326 -0.86510015 0.73066199
-6.86847687 -10.22617245 2.11263037 -0.63712496 -0.86700231 0.86327225
-7.65824986 -10.19964981 2.12186885 -0.71038491 -0.86475366 0.86704731
-8.60807037 -10.18606663 2.12441325 -0.79849094 -0.86360204 0.86808705
-8.17763805 -10.41025162 1.40219736 -0.75856376 -0.88260901 0.57297200
-9.52951813 -10.37858105 1.34950304 -0.88396513 -0.87992394 0.55143982
-8.45261383 -10.20063877 1.79532099 -0.78407067 -0.86483753 0.73361188
-9.08735180 -10.18315697 1.78481555 -0.84294945 -0.86335534 0.72931916
-9.82201576 -10.21446037 1.77844691 -0.91109741 -0.86600935 0.72671676
-10.66107655 -10.30963516 1.76282477 -0.98892933 -0.87407851 0.72033316
-6.81494427 -10.28556919 2.11606383 -0.63215923 -0.87203813 0.86467522
-7.57165623 -10.21749878 2.11553574 -0.70235240 -0.86626691 0.86445946
-8.51233673 -10.20200539 2.11642504 -0.78961062 -0.86495334 0.86482286
-9.48496437 -10.19029713 2.09211946 -0.87983227 -0.86396068 0.85489100
-9.47214794 -10.44708061 1.35076344 -0.87864345 -0.88573152 0.55195487
-8.35708618 -10.21520424 1.78809583 -0.77520949 -0.86607242 0.73065954
-8.97335339 -10.18366432 1.77420664 -0.83237487 -0.86339837 0.72498405
-9.71131325 -10.22704029 1.76932836 -0.90082860 -0.86707592 0.72299069
-10.49106503 -10.27385139 1.74400008 -0.97315890 -0.87104464 0.71264094
-6.71685266 -10.27700138 2.10542011 -0.62306023 -0.87131172 0.86032599
-7.45247459 -10.19014645 2.09986949 -0.69129705 -0.86394793 0.85805786
-8.39544296 -10.19120598 2.10300469 -0.77876747 -0.86403775 0.85933894
-9.37250900 -10.19735909 2.08124995 -0.86940086 -0.86455941 0.85044944
-8.24805927 -10.21201801 1.77769160 -0.76509607 -0.86580229 0.72640812
-8.85710430 -10.18015957 1.76303923 -0.82159150 -0.86310124 0.72042078
-9.58189106 -10.21836567 1.75645506 -0.88882327 -0.86634046 0.71773034
-10.33885479 -10.25308228 1.72822821 -0.95903981 -0.86928380 0.70619619
-6.65427780 -10.32231712 2.10610676 -0.61725569 -0.87515372 0.86060655
-7.38136148 -10.22718716 2.09786963 -0.68470055 -0.86708832 0.85724068
-8.29518700 -10.19927979 2.09373856 -0.76946765 -0.86472225 0.85555261
-9.25368690 -10.19610214 2.06887054 -0.85837883 -0.86445290 0.84539092
-9.18970013 -10.39562511 1.32681620 -0.85244334 -0.88136894 0.54216945
-8.14802265 -10.21871185 1.76931047 -0.75581658 -0.86636978 0.72298336
-8.75676918 -10.19360161 1.75522220 -0.81228435 -0.86424088 0.71722656
-9.46371937 -10.22012138 1.74572742 -0.87786156 -0.86648929 0.71334678
-10.17190361 -10.21536732 1.70965791 -0.94355327 -0.86608624 0.69860786
-6.60299683 -10.38556099 2.11057019 -0.61249888 -0.88051569 0.86243039
-7.28370476 -10.22683525 2.08820319 -0.67564183 -0.86705852 0.85329074
-8.18899345 -10.19879055 2.08287454 -0.75961709 -0.86468083 0.85111332
-9.12732315 -10.18493462 2.05467987 -0.84665722 -0.86350608 0.83959228
-8.06917572 -10.21811962 1.76208532 -0.74850267 -0.86631960 0.72003102
-8.66106606 -10.17901802 1.74489236 -0.80340689 -0.86300445 0.71300554
-9.35526180 -10.19879150 1.73365867 -0.86780101 -0.86468089 0.70841521
-10.09156513 -10.23075008 1.70380700 -0.93610102 -0.86739039 0.69621706
-6.59584379 -10.48333836 2.12430406 -0.61183536 -0.88880551 0.86804241
-7.21720695 -10.23528767 2.08287001 -0.66947341 -0.86777514 0.85111147
-8.10282326 -10.18930435 2.07296920 -0.75162387 -0.86387652 0.84706575
-9.03584099 -10.17910480 2.04471612 -0.83817124 -0.86301178 0.83552086
-7.96717262 -10.22017384 1.75312614 -0.73904079 -0.86649376 0.71637005
-8.54971981 -10.17720318 1.73456264 -0.79307830 -0.86285055 0.70878458
-9.73418713 -10.44621944 1.29901183 -0.90295035 -0.88565850 0.53080791
-9.25513077 -10.21765709 1.72641754 -0.85851276 -0.86628038 0.70545626
-9.96193314 -10.22725868 1.69185090 -0.92407626 -0.86709440 0.69133151
-6.57542944 -10.59831524 2.13941145 -0.60994166 -0.89855355 0.87421566
-7.09856701 -10.20281982 2.06687045 -0.65846831 -0.86502242 0.84457362
-7.99119186 -10.17937469 2.06050754 -0.74126887 -0.86303467 0.84197360
-8.91557312 -10.17182922 2.03173304 -0.82701516 -0.86239493 0.83021563
-8.20995331 -10.35690784 1.34767675 -0.76156133 -0.87808639 0.55069357
-7.87871218 -10.23862457 1.74734592 -0.73083514 -0.86805803 0.71400815
-8.45520687 -10.19418430 1.72786224 -0.78431123 -0.86429030 0.70604664
-9.61050987 -10.44412518 1.29039705 -0.89147800 -0.88548094 0.52728766
-9.13534641 -10.21348000 1.71515346 -0.84740144 -0.86592621 0.70085353
-9.83136940 -10.22111702 1.67964029 -0.91196507 -0.86657369 0.68634194
-6.52921820 -10.67306900 2.14627838 -0.60565507 -0.90489137 0.87702167
-7.00523424 -10.20499611 2.05820394 -0.64981067 -0.86520690 0.84103227
-7.89086914 -10.18250942 2.05092168 -0.73196286 -0.86330044 0.83805656
-8.81001282 -10.17986965 2.02207112 -0.81722331 -0.86307663 0.82626754
-7.78555679 -10.25005817 1.74040985 -0.72219402 -0.86902744 0.71117389
-8.35579109 -10.20425892 1.72004509 -0.77508932 -0.86514443 0.70285237
-9.47922897 -10.43204403 1.28058004 -0.87930030 -0.88445663 0.52327621
-9.01336288 -10.20522881 1.70335293 -0.83608621 -0.86522663 0.69603151
-9.71359253 -10.22666836 1.66971922 -0.90104002 -0.86704433 0.68228799
-6.51784706 -10.80676746 2.16516232 -0.60460031 -0.91622669 0.88473809
-6.91437292 -10.20966530 2.05020428 -0.64138234 -0.86560279 0.83776343
-7.80159712 -10.19891739 2.04421139 -0.72368193 -0.86469156 0.83531457
-8.70470428 -10.18698692 2.01240921 -0.80745476 -0.86368006 0.82231945
-9.66812611 -11.61498165 1.45747519 -0.89682251 -0.98474926 0.59555990
-7.68664742 -10.25279903 1.73202860 -0.71301907 -0.86925977 0.70774907
-8.25408840 -10.21041298 1.71166968 -0.76565534 -0.86566621 0.69942993
-9.38165188 -10.45580482 1.27577174 -0.87024897 -0.88647115 0.52131140
-8.91395283 -10.22127724 1.69611168 -0.82686484 -0.86658728 0.69307256
-9.58934021 -10.22392178 1.65852630 -0.88951427 -0.86681151 0.67771429
-6.46488142 -10.87293434 2.17031264 -0.59968716 -0.92183650 0.88684261
-6.71830034 -10.05635738 2.01020527 -0.62319452 -0.85260493 0.82141888
-7.69343710 -10.18936634 2.03238893 -0.71364892 -0.86388177 0.83048362
-8.58049774 -10.17054749 1.99821842 -0.79593331 -0.86228627 0.81652075
-9.55448055 -11.62638092 1.45075321 -0.88628066 -0.98571575 0.59281313
-7.58801174 -10.25470448 1.72364748 -0.70386958 -0.86942136 0.70432436
-8.14397621 -10.20487118 1.70133984 -0.75544125 -0.86519635 0.69520891
-8.80824280 -10.22896194 1.68752956 -0.81705910 -0.86723882 0.68956572
-9.46955872 -10.22437954 1.64809644 -0.87840325 -0.86685032 0.67345238
-6.43816757 -10.98480129 2.18473315 -0.59720916 -0.93132091 0.89273518
-6.75833368 -10.25462627 2.04187107 -0.62690800 -0.86941469 0.83435827
-7.60101080 -10.19946575 2.02472019 -0.70507538 -0.86473805 0.82735002
-8.48093033 -10.18177891 1.98976433 -0.78669733 -0.86323851 0.81306618
-7.50246763 -10.27337742 1.71844530 -0.69593441 -0.87100446 0.70219862
-8.04654121 -10.21388817 1.69380188 -0.74640310 -0.86596084 0.69212872
-8.70150948 -10.23421097 1.67867923 -0.80715841 -0.86768383 0.68594927
-9.34747028 -10.22081375 1.63715780 -0.86707824 -0.86654800 0.66898257
-6.70238972 -10.31010056 2.04453754 -0.62171859 -0.87411797 0.83544785
-7.50175858 -10.19925308 2.01513433 -0.69586867 -0.86471999 0.82343298
-8.36646461 -10.17386055 1.97768700 -0.77607942 -0.86256719 0.80813110
-8.06928825 -11.79486179 1.52475870 -0.74851310 -1.00000000 0.62305355
-8.35161304 -10.39727116 1.26988924 -0.77470177 -0.88150853 0.51890767
-7.43430281 -10.28132343 1.71353221 -0.68961143 -0.87167817 0.70019102
-7.96658325 -10.21114635 1.68654323 -0.73898613 -0.86572838 0.68916267
-8.61495399 -10.22956467 1.67063344 -0.79912949 -0.86728990 0.68266153
-9.25384521 -10.21483040 1.62850869 -0.85839349 -0.86604071 0.66544831
-6.65800905 -10.34819603 2.04587102 -0.61760181 -0.87734783 0.83599275
-7.51855707 -10.32396793 2.03302789 -0.69742692 -0.87529367 0.83074474
-8.28465366 -10.17183590 1.96953475 -0.76849055 -0.86239552 0.80479991
-7.36038160 -10.31492901 1.71122015 -0.68275440 -0.87452734 0.69924623
-7.88047314 -10.23279095 1.68151784 -0.73099852 -0.86756343 0.68710917
-8.51509476 -10.24076748 1.66312397 -0.78986645 -0.86823970 0.67959297
-9.14841270 -10.22699833 1.62062263 -0.84861350 -0.86707234 0.66222590
-6.59285879 -10.38982487 2.04587102 -0.61155844 -0.88087720 0.83599275
-7.32707930 -10.19444847 1.99787974 -0.67966527 -0.86431265 0.81638235
-8.16844559 -10.15905666 1.95685363 -0.75771105 -0.86131203 0.79961807
-7.28974247 -10.35287189 1.70977509 -0.67620188 -0.87774426 0.69865578
-7.78359747 -10.23958588 1.67398000 -0.72201222 -0.86813956 0.68402904
-9.76542187 -11.56210232 1.38516045 -0.90584773 -0.98026603 0.56601030
-9.58030510 -10.53407764 1.18540716 -0.88867617 -0.89310735 0.48438627
-8.41292667 -10.24805260 1.65507817 -0.78038931 -0.86885738 0.67630529
-9.02214718 -10.21448898 1.60866654 -0.83690101 -0.86601174 0.65734035
-6.55262041 -10.47112370 2.05387068 -0.60782588 -0.88776994 0.83926159
-7.23895073 -10.20642757 1.99116969 -0.67149043 -0.86532831 0.81364048
-8.08351612 -10.18388748 1.95172071 -0.74983293 -0.86341727 0.79752064
-7.23130941 -10.40823269 1.71150911 -0.67078161 -0.88243788 0.69936430
-7.69171333 -10.25189781 1.66755879 -0.71348900 -0.86918336 0.68140519
-9.65950012 -11.58345222 1.37995148 -0.89602238 -0.98207611 0.56388181
-9.46728420 -10.54227352 1.17892694 -0.87819225 -0.89380223 0.48173827
-8.30851269 -10.25137711 1.64649606 -0.77070373 -0.86913925 0.67279840
-8.92644310 -10.23514080 1.60256124 -0.82802343 -0.86776268 0.65484560
-6.51577330 -10.55903053 2.06320381 -0.60440791 -0.89522290 0.84307534
-7.12950325 -10.18693447 1.97838855 -0.66133797 -0.86367559 0.80841780
-7.98027086 -10.18473721 1.94205892 -0.74025583 -0.86348933 0.79357260
-7.16465378 -10.45182800 1.71122015 -0.66459858 -0.88613397 0.69924623
-7.61297417 -10.28094673 1.66420853 -0.70618510 -0.87164623 0.68003619
-8.63063240 -10.47967529 1.22828996 -0.80058384 -0.88849497 0.50190920
-9.33601284 -10.52863312 1.16985476 -0.86601543 -0.89264572 0.47803116
-8.21798515 -10.27084064 1.64086401 -0.76230633 -0.87078941 0.67049700
-8.81916618 -10.24148273 1.59416640 -0.81807238 -0.86830038 0.65141523
-6.48938465 -10.66539860 2.07620335 -0.60196012 -0.90424109 0.84838730
-7.04185343 -10.19737434 1.97167838 -0.65320754 -0.86456072 0.80567580
-7.89188004 -10.20343781 1.93602026 -0.73205662 -0.86507481 0.79110503
-7.11100864 -10.51469040 1.71439922 -0.65962243 -0.89146364 0.70054531
-7.54120111 -10.31899548 1.66253340 -0.69952738 -0.87487209 0.67935169
-8.54206085 -10.50586987 1.22468364 -0.79236788 -0.89071584 0.50043559
-9.22894192 -10.54069710 1.16411507 -0.85608345 -0.89366853 0.47568578
-8.12263870 -10.28334236 1.63415921 -0.75346196 -0.87184936 0.66775727
-6.45479488 -10.76002407 2.08686996 -0.59875154 -0.91226369 0.85274589
-6.96433496 -10.22181702 1.96784413 -0.64601684 -0.86663306 0.80410904
-7.79034615 -10.20416641 1.92666030 -0.72263825 -0.86513656 0.78728032
-7.07346153 -10.56619263 1.71757829 -0.65613949 -0.89583015 0.70184433
-7.49132681 -10.35281467 1.66225421 -0.69490099 -0.87773937 0.67923760
-8.48747635 -10.53979969 1.22388232 -0.78730458 -0.89359248 0.50010812
-9.14257431 -10.54199886 1.15893102 -0.84807193 -0.89377892 0.47356746
-8.05337143 -10.29493523 1.62959993 -0.74703670 -0.87283218 0.66589427
-6.36970425 -10.73271847 2.07553673 -0.59085846 -0.90994865 0.84811491
-6.78283691 -10.05624676 1.92918110 -0.62918097 -0.85259557 0.78831041
-7.70991373 -10.19823360 1.91850817 -0.71517730 -0.86463356 0.78394920
-7.04065847 -10.66167545 1.72653747 -0.65309668 -0.90392542 0.70550531
-7.42728424 -10.40128899 1.66253340 -0.68896037 -0.88184917 0.67935169
-8.44580460 -10.62411022 1.22788918 -0.78343904 -0.90074056 0.50174546
-9.04242229 -10.55995655 1.15411711 -0.83878177 -0.89530140 0.47160038
-6.38302660 -10.91027069 2.10253620 -0.59209424 -0.92500198 0.85914755
-6.83406687 -10.27144623 1.96273160 -0.63393307 -0.87084073 0.80201995
-7.62791157 -10.22273445 1.91397917 -0.70757067 -0.86671084 0.78209853
-6.98215055 -10.71898174 1.72884953 -0.64766943 -0.90878403 0.70645005
-7.37093115 -10.46068764 1.66476691 -0.68373299 -0.88688517 0.68026435
-8.41934872 -10.72868729 1.23450065 -0.78098500 -0.90960687 0.50444704
-8.96301460 -10.60137367 1.15226567 -0.83141583 -0.89881289 0.47084382
-7.81426096 -10.25171089 1.60519433 -0.72485662 -0.86916751 0.65592152
-6.44771051 -11.18057346 2.14753485 -0.59809440 -0.94791901 0.87753505
-6.75858879 -10.29765892 1.95953631 -0.62693167 -0.87306315 0.80071431
-7.50948381 -10.19731522 1.90009022 -0.69658524 -0.86455572 0.77642316
-6.93173695 -10.78930759 1.73347366 -0.64299303 -0.91474640 0.70833957
-7.31752396 -10.52466011 1.66783798 -0.67877895 -0.89230889 0.68151927
-8.90006351 -10.66206169 1.15282106 -0.82557642 -0.90395814 0.47107077
-8.15049076 -10.05831337 1.52115750 -0.75604552 -0.85277075 0.62158203
-6.73335028 -10.40130806 1.97135890 -0.62459052 -0.88185078 0.80554527
-7.40332794 -10.18678951 1.88922071 -0.68673813 -0.86366332 0.77198160
-8.21953869 -11.62232399 1.36483753 -0.76245046 -0.98537177 0.55770588
-6.87965775 -10.85774803 1.73780870 -0.63816214 -0.92054898 0.71011096
-7.26135731 -10.58511162 1.67035055 -0.67356884 -0.89743412 0.68254596
-8.83670235 -10.72237587 1.15337646 -0.81969905 -0.90907174 0.47129774
-7.73316193 -10.41441250 1.61619031 -0.71733379 -0.88296181 0.66041476
-8.09085751 -10.11396694 1.52192068 -0.75051391 -0.85748923 0.62189388
-6.65090895 -10.41675663 1.96624649 -0.61694324 -0.88316053 0.80345625
-7.48237705 -10.43209171 1.92666030 -0.69407082 -0.88446069 0.78728032
-6.83012962 -10.93099880 1.74301088 -0.63356787 -0.92675936 0.71223670
-7.19025564 -10.62397289 1.66923380 -0.66697341 -0.90072888 0.68208963
-8.78426647 -10.79620075 1.15559828 -0.81483501 -0.91533083 0.47220561
-7.66640520 -10.46119499 1.61592209 -0.71114141 -0.88692814 0.66030514
-8.06533909 -10.21280575 1.52980661 -0.74814677 -0.86586905 0.62511629
-6.60106611 -10.48342609 1.97103941 -0.61231977 -0.88881296 0.80541474
-7.40523577 -10.46277905 1.92364097 -0.68691510 -0.88706243 0.78604656
-6.81591463 -11.02371979 1.75341511 -0.63224924 -0.93462050 0.71648812
-7.15999985 -10.68732262 1.67425919 -0.66416687 -0.90609986 0.68414313
-8.76458836 -10.87619495 1.16022694 -0.81300968 -0.92211294 0.47409701
-7.63096046 -10.51647663 1.61914039 -0.70785350 -0.89161509 0.66162020
-6.58074856 -10.56138134 1.97998619 -0.61043507 -0.89542222 0.80907059
-7.18300533 -10.25172424 1.87774730 -0.66630089 -0.86916864 0.76729333
-6.78453398 -11.12890816 1.76410830 -0.62933838 -0.94353867 0.72085762
-7.12226057 -10.77666187 1.68179703 -0.66066617 -0.91367429 0.68722326
-8.71346760 -10.95284271 1.16281903 -0.80826765 -0.92861134 0.47515619
-7.57854986 -10.58357430 1.62235868 -0.70299184 -0.89730382 0.66293532
-7.97320795 -10.32753086 1.53413129 -0.73960066 -0.87559575 0.62688345
-6.55136871 -10.66314030 1.99148917 -0.60770977 -0.90404963 0.81377101
-7.04181814 -10.18619061 1.85721588 -0.65320426 -0.86361253 0.75890368
-6.75108194 -11.23243713 1.77451253 -0.62623537 -0.95231611 0.72510904
-7.09343767 -10.88086224 1.69184768 -0.65799248 -0.92250866 0.69133019
-8.68021297 -11.05274105 1.16818833 -0.80518293 -0.93708104 0.47735023
-7.51874924 -10.64070511 1.62396789 -0.69744474 -0.90214753 0.66359288
-6.51688719 -10.75818253 2.00171423 -0.60451126 -0.91210753 0.81794924
-6.98884535 -10.24654961 1.86023521 -0.64829046 -0.86872995 0.76013744
-6.72866917 -11.35643196 1.78838491 -0.62415630 -0.96282876 0.73077768
-7.04747963 -10.96016312 1.69771051 -0.65372938 -0.92923200 0.69372588
-8.63871002 -11.14321995 1.17244685 -0.80133313 -0.94475204 0.47909036
-7.45852947 -10.69750214 1.62557709 -0.69185871 -0.90696293 0.66425043
-6.48449755 -10.85830021 2.01289773 -0.60150677 -0.92059582 0.82251906
-6.91658163 -10.27878952 1.85812163 -0.64158720 -0.87146336 0.75927377
-6.76369381 -11.58150196 1.81930864 -0.62740523 -0.98191077 0.74341387
-6.99655104 -11.03263092 1.70245659 -0.64900523 -0.93537605 0.69566524
-8.60611248 -11.24625015 1.17818642 -0.79830933 -0.95348722 0.48143569
-7.42479086 -10.79319191 1.63362277 -0.68872905 -0.91507572 0.66753805
-6.49305773 -11.02995872 2.03750134 -0.60230082 -0.93514949 0.83257270
-6.83542013 -10.29736423 1.85359263 -0.63405859 -0.87303811 0.75742310
-7.44053936 -10.29835510 2.44723535 -0.69018990 -0.87312216 1.00000000
-6.95762157 -11.12501907 1.71055293 -0.64539409 -0.94320893 0.69897360
-7.38014889 -10.87410450 1.63925481 -0.68458807 -0.92193574 0.66983944
-6.44635439 -11.10985088 2.04485059 -0.59796858 -0.94192296 0.83557576
-6.76515627 -10.33184719 1.85208297 -0.62754089 -0.87596172 0.75680625
-7.27000189 -10.16228485 2.40621424 -0.67437071 -0.86158574 0.98323780
-6.93959761 -11.21320152 1.71976590 -0.64372218 -0.95068526 0.70273829
-7.34315920 -10.93017101 1.64274132 -0.68115687 -0.92668921 0.67126411
-6.42039108 -11.18637943 2.05347776 -0.59556019 -0.94841123 0.83910108
-6.71100378 -10.35532570 1.85057330 -0.62251765 -0.87795228 0.75618935
-7.18003035 -10.17083740 2.39739680 -0.66602492 -0.86231089 0.97963476
-6.91244268 -11.32751846 1.73149157 -0.64120328 -0.96037740 0.70752966
-7.30710840 -11.02570534 1.65078712 -0.67781276 -0.93478888 0.67455184
-6.44787741 -11.40021801 2.08575034 -0.59810984 -0.96654105 0.85228842
-6.71733236 -10.50878143 1.87080276 -0.62310469 -0.89096266 0.76445562
-7.07680798 -10.15931225 2.38397861 -0.65644991 -0.86133373 0.97415173
-7.26581812 -11.11457443 1.65776014 -0.67398262 -0.94232339 0.67740119
-6.74524975 -10.69947910 1.89767480 -0.62569433 -0.90713054 0.77543616
-6.98399782 -10.16146946 2.37401104 -0.64784080 -0.86151659 0.97007877
-7.22798443 -11.21002769 1.66580594 -0.67047316 -0.95041621 0.68068892
-7.65206718 -10.97649288 1.57686818 -0.70981139 -0.93061650 0.64434677
-6.63812160 -10.67790890 1.88620138 -0.61575705 -0.90530175 0.77074784
-6.95627975 -10.25882244 2.38666224 -0.64526963 -0.86977047 0.97524834
-7.20727301 -11.33390045 1.67841101 -0.66855198 -0.96091849 0.68583965
-7.64379168 -11.11252308 1.59060502 -0.70904374 -0.94214952 0.64995998
-6.54292822 -10.67393970 1.87804914 -0.60692686 -0.90496522 0.76741666
-7.17898607 -11.44786930 1.68940687 -0.66592807 -0.97058105 0.69033283
-7.60619545 -11.20788383 1.59798229 -0.70555627 -0.95023441 0.65297449
-6.50957060 -10.77062225 1.88801301 -0.60383254 -0.91316223 0.77148813
-7.62273884 -10.28725338 2.34873652 -0.70709085 -0.87218094 0.95975101
-7.20882130 -11.65809917 1.71568978 -0.66869557 -0.98840487 0.70107263
-7.53221273 -10.26605606 2.33556318 -0.69869363 -0.87038374 0.95436805
-7.63736582 -11.52376461 1.63385069 -0.70844769 -0.97701567 0.66763121
-6.49746370 -11.02191257 1.92001784 -0.60270953 -0.93446732 0.78456610
-7.37626076 -10.18751144 2.30665469 -0.68422741 -0.86372453 0.94255531
-6.47190809 -11.13766575 1.93330288 -0.60033900 -0.94428116 0.78999466
-7.30752277 -10.22726440 2.30519104 -0.67785120 -0.86709487 0.94195724
-6.52988577 -11.40094090 1.97255409 -0.60571700 -0.96660233 0.80603367
-7.20223713 -10.21519184 2.29201746 -0.66808480 -0.86607134 0.93657416
-7.10076952 -10.20703888 2.27994180 -0.65867263 -0.86538011 0.93163979
-6.99745941 -10.19477749 2.26713443 -0.64908952 -0.86434054 0.92640638
-6.92718554 -10.19514847 2.25981569 -0.64257085 -0.86437201 0.92341578
-6.85860157 -10.23194599 2.25835204 -0.63620895 -0.86749178 0.92281771
-6.77895641 -10.25190163 2.25322914 -0.62882102 -0.86918372 0.92072433
-6.70902395 -10.28606701 2.25139928 -0.62233400 -0.87208033 0.91997659
-6.65172815 -10.33958054 2.25396085 -0.61701924 -0.87661737 0.92102331
-6.62782145 -10.44585133 2.26823211 -0.61480159 -0.88562727 0.92685491
-6.63722897 -10.57012272 2.28872418 -0.61567426 -0.89616334 0.93522847
-6.59247875 -10.64668751 2.29640865 -0.61152321 -0.90265471 0.93836856
-6.49668884 -10.64095592 2.28616261 -0.60263765 -0.90216875 0.93418175
-6.55766010 -11.04947567 2.35715294 -0.60829341 -0.93680418 0.96319014
