-14.16107750 -10.45276165 2.00929093 -0.99561048 -0.86863565 0.81227505
-14.01890469 -10.69518566 1.40539443 -0.98561490 -0.88878137 0.56814414
-13.78447819 -10.65371323 1.38690436 -0.96913326 -0.88533497 0.56066930
-13.84364033 -10.48939133 1.98094225 -0.97329271 -0.87167960 0.80081481
-13.65631104 -10.48294067 1.96228540 -0.96012235 -0.87114358 0.79327261
-13.44842815 -10.42414856 1.93781340 -0.94550687 -0.86625785 0.78337955
-13.36082745 -10.49125004 1.93442118 -0.93934804 -0.87183410 0.78200823
-13.73215485 -11.14018059 1.40975523 -0.96545458 -0.92576092 0.56990701
-13.17202091 -10.47721195 1.91527975 -0.92607373 -0.87066752 0.77427012
-14.10336590 -10.44660473 1.90423644 -0.99155301 -0.86812401 0.76980579
-13.02253342 -10.49240494 1.90219569 -0.91556388 -0.87193006 0.76898080
-14.22351170 -10.67431355 1.93129241 -1.00000000 -0.88704687 0.78074342
-13.93778324 -10.75670338 1.31319129 -0.97991157 -0.89389354 0.53087014
-12.84572029 -10.48350716 1.88475037 -0.90313280 -0.87119061 0.76192832
-14.16249371 -10.76827335 1.93221748 -0.99571007 -0.89485502 0.78111738
-14.12087059 -11.90496349 1.47865677 -0.99278373 -0.98931515 0.59776109
-12.69246674 -10.49180698 1.87093937 -0.89235818 -0.87188035 0.75634509
-13.66925526 -10.53021049 1.86978054 -0.96103239 -0.87507170 0.75587666
-12.83479977 -10.95709991 1.33910930 -0.90236503 -0.91054672 0.54134774
-12.54848289 -10.47251797 1.85591698 -0.88223523 -0.87027740 0.75027215
-13.47509098 -10.48246098 1.84850574 -0.94738144 -0.87110370 0.74727607
-12.82975960 -11.05783939 1.34451675 -0.90201068 -0.91891825 0.54353374
-12.38701534 -10.47029591 1.84065223 -0.87088305 -0.87009275 0.74410123
-13.28870487 -10.47238350 1.83069968 -0.93427736 -0.87026626 0.74007785
-14.07234573 -10.52311039 2.42680025 -0.98937213 -0.87448168 0.98105717
-13.74363708 -11.99890900 1.45894575 -0.96626186 -0.99712217 0.58979273
-13.73939896 -11.12969685 1.31943583 -0.96596390 -0.92488968 0.53339452
-12.23210239 -10.47163296 1.82635677 -0.85999173 -0.87020385 0.73832214
-13.12784672 -10.48018169 1.81659353 -0.92296803 -0.87091428 0.73437530
-13.85307503 -10.49522018 2.39876676 -0.97395605 -0.87216401 0.96972436
-12.12465477 -10.71737480 1.27840614 -0.85243750 -0.89062530 0.51680791
-12.09714222 -10.48837185 1.81521106 -0.85050321 -0.87159491 0.73381639
-12.96123409 -10.48138618 1.80156243 -0.91125417 -0.87101436 0.72829884
-14.16631413 -10.55173492 1.84792614 -0.99597865 -0.87686044 0.74704176
-13.73039341 -10.53860855 2.38836241 -0.96533078 -0.87576962 0.96551830
-12.00666142 -10.74809933 1.27247548 -0.84414184 -0.89317852 0.51441038
-11.95649719 -10.49858189 1.80309629 -0.84061497 -0.87244338 0.72891891
-12.79051304 -10.47714233 1.78583753 -0.89925140 -0.87066174 0.72194189
-13.96500778 -10.53861713 1.82892644 -0.98182559 -0.87577033 0.73936099
-13.77549839 -10.77051544 1.20547748 -0.96850193 -0.89504135 0.48732579
-11.83566284 -10.49150658 1.79146600 -0.83211958 -0.87185538 0.72421724
-12.65824890 -10.46903324 1.77335012 -0.88995242 -0.86998785 0.71689373
-13.72092819 -10.45590973 1.80143285 -0.96466529 -0.86889726 0.72824645
-12.86524296 -10.93469143 1.25370359 -0.90450537 -0.90868455 0.50682163
-11.69720459 -10.50058746 1.77959347 -0.82238513 -0.87261003 0.71941763
-12.49770451 -10.46938419 1.75901282 -0.87866521 -0.87001699 0.71109772
-13.61409569 -10.51028824 1.79562116 -0.95715433 -0.87341619 0.72589701
-11.56497192 -10.51369381 1.76869011 -0.81308836 -0.87369919 0.71500987
-12.34524155 -10.47455120 1.74583173 -0.86794609 -0.87044638 0.70576912
-13.43830299 -10.50978279 1.77997446 -0.94479501 -0.87337416 0.71957165
-14.07532501 -10.49887180 2.33620167 -0.98958158 -0.87246746 0.94443184
-12.31322002 -10.73578262 1.20851254 -0.86569482 -0.89215499 0.48855275
-11.43449688 -10.52690315 1.75802898 -0.80391520 -0.87479687 0.71070004
-12.20980167 -10.49243927 1.73519433 -0.85842383 -0.87193292 0.70146888
-13.26617146 -10.50995922 1.76477468 -0.93269312 -0.87338883 0.71342701
-13.89364243 -10.50007057 2.31582117 -0.97680819 -0.87256706 0.93619281
-12.11619663 -11.51666832 1.32515454 -0.85184282 -0.95704740 0.53570640
-12.23654747 -10.80503178 1.20752656 -0.86030424 -0.89790970 0.48815414
-11.31591797 -10.54973507 1.74930632 -0.79557836 -0.87669426 0.70717376
-12.06862640 -10.50383282 1.72363186 -0.84849834 -0.87287974 0.69679463
-13.08992672 -10.50465298 1.74890447 -0.92030203 -0.87294787 0.70701134
-14.08797169 -10.47357082 1.71543217 -0.99047071 -0.87036490 0.69347984
-12.70380020 -10.49988651 2.26755762 -0.89315498 -0.87255180 0.91668183
-13.73453808 -10.51623440 2.29934955 -0.96562219 -0.87391031 0.92953402
-11.92928505 -10.51518059 1.71230078 -0.83870178 -0.87382275 0.69221395
-12.92968369 -10.51010609 1.73526943 -0.90903598 -0.87340105 0.70149922
-13.97895527 -10.52962017 1.70976043 -0.98280621 -0.87502265 0.69118696
-12.59058475 -10.54006004 2.25859857 -0.88519526 -0.87589025 0.91306007
-13.65722847 -10.59383869 2.29739523 -0.96018684 -0.88035929 0.92874396
-12.15009403 -11.00337315 1.21311378 -0.85422605 -0.91439205 0.49041283
-12.80594826 -10.77882195 1.14801311 -0.90033662 -0.89573163 0.46409526
-11.18631840 -10.66117573 1.74712563 -0.78646672 -0.88595510 0.70629221
-11.80828476 -10.50797939 1.70120084 -0.83019477 -0.87322432 0.68772668
-12.78178787 -10.49010277 1.72096384 -0.89863801 -0.87173873 0.69571608
-13.81510258 -10.50881195 1.69463587 -0.97128636 -0.87329352 0.68507272
-12.43508339 -10.50972080 2.23836803 -0.87426251 -0.87336904 0.90488166
-13.45266247 -10.53736305 2.26975608 -0.94580460 -0.87566614 0.91757059
-12.02604485 -11.83342266 1.33876050 -0.84550464 -0.98337007 0.54120672
-13.74850273 -10.82668972 1.09785414 -0.96660393 -0.89970946 0.44381803
-11.11911106 -10.73125076 1.74712563 -0.78174162 -0.89177841 0.70629221
-11.67849922 -10.52486038 1.69125724 -0.82107002 -0.87462711 0.68370688
-12.63623142 -10.50404167 1.70934045 -0.88840449 -0.87289709 0.69101721
-13.64946175 -10.51903725 1.68140197 -0.95964080 -0.87414324 0.67972279
-12.28320026 -10.51418304 2.22189474 -0.86358422 -0.87373984 0.89822215
-13.29923058 -10.55284882 2.25412178 -0.93501735 -0.87695301 0.91125023
-12.02334881 -11.98055840 1.34765661 -0.84531510 -0.99559718 0.54480308
-12.54473305 -10.79652596 1.13360870 -0.88197160 -0.89720285 0.45827213
-13.56000519 -10.81720257 1.08700383 -0.95335144 -0.89892107 0.43943167
-11.06280994 -10.81201744 1.74906397 -0.77778333 -0.89849019 0.70707583
-11.54015446 -10.53250217 1.67992604 -0.81134355 -0.87526220 0.67912614
-12.48189449 -10.50887775 1.69637597 -0.87755364 -0.87329894 0.68577617
-13.45442677 -10.50437737 1.66417682 -0.94592863 -0.87292498 0.67275935
-12.12727451 -10.51325989 2.20455432 -0.85262167 -0.87366313 0.89121217
-13.11214733 -10.53956985 2.23234558 -0.92186427 -0.87584949 0.90244704
-14.04840851 -10.46884346 2.23169255 -0.98768920 -0.86997205 0.90218306
-12.10956573 -11.35325527 1.23020422 -0.85137665 -0.94346762 0.49732181
-12.41508293 -10.82133675 1.12732601 -0.87285638 -0.89926463 0.45573232
-13.42343140 -10.84709740 1.08080351 -0.94374943 -0.90140539 0.43692514
-10.96083641 -10.84775352 1.74324894 -0.77061397 -0.90145987 0.70472503
-11.41824532 -10.55363560 1.67113864 -0.80277258 -0.87701839 0.67557377
-12.34008503 -10.52252293 1.68519974 -0.86758357 -0.87443286 0.68125808
-13.29447269 -10.51478958 1.65157306 -0.93468285 -0.87379026 0.66766417
-11.97630501 -10.51471806 2.18808079 -0.84200758 -0.87378430 0.88455254
-12.95035648 -10.54433727 2.21503615 -0.91048938 -0.87624568 0.89544952
-13.95074654 -10.53298378 2.22632861 -0.98082292 -0.87530220 0.90001458
-12.16968727 -11.55384445 1.24515831 -0.85560358 -0.96013683 0.50336713
-12.39612675 -10.94273949 1.13238287 -0.87152362 -0.90935332 0.45777658
-13.24220467 -10.83911228 1.07051682 -0.93100810 -0.90074182 0.43276665
-10.94567776 -10.96988010 1.75245619 -0.76954818 -0.91160876 0.70844716
-12.19859982 -10.53480339 1.67402351 -0.85763627 -0.87545341 0.67673999
-13.11006355 -10.50374222 1.63560832 -0.92171776 -0.87287217 0.66121030
-11.81102657 -10.50152779 2.16871738 -0.83038753 -0.87268817 0.87672472
-12.77373314 -10.53490829 2.19493508 -0.89807171 -0.87546211 0.88732344
-13.77262211 -10.53480625 2.20728707 -0.96829969 -0.87545365 0.89231688
-12.16878033 -11.69906521 1.25337493 -0.85553980 -0.97220480 0.50668877
-12.32564163 -11.01907921 1.13222957 -0.86656809 -0.91569722 0.45771462
-13.09389782 -10.85598278 1.06318939 -0.92058122 -0.90214378 0.42980447
-10.89880085 -11.06109238 1.75633299 -0.76625246 -0.91918856 0.71001440
-11.25296688 -10.66626072 1.66605115 -0.79115248 -0.88637763 0.67351711
-12.06791115 -10.55489635 1.66441190 -0.84844810 -0.87712318 0.67285442
-12.95414829 -10.51332188 1.62342465 -0.91075599 -0.87366825 0.65628493
-12.61600113 -10.53889370 2.17818403 -0.88698214 -0.87579334 0.88055170
-14.07421207 -10.59054375 1.63479102 -0.98950332 -0.88008547 0.66087991
-13.59659576 -10.53602505 2.18851352 -0.95592397 -0.87555492 0.88472748
-12.13077927 -11.81000996 1.25748312 -0.85286808 -0.98142445 0.50834954
-12.29455662 -11.13115025 1.13621378 -0.86438262 -0.92501044 0.45932528
-12.96578598 -10.88807583 1.05769372 -0.91157418 -0.90481073 0.42758280
-10.89917946 -11.16638374 1.76554024 -0.76627910 -0.92793840 0.71373647
-11.09910393 -10.62041950 1.64940131 -0.78033501 -0.88256818 0.66678625
-11.95851231 -10.55895329 1.65547085 -0.84075665 -0.87746030 0.66923988
-12.80436420 -10.49243164 1.60977066 -0.90022522 -0.87193227 0.65076518
-11.53833675 -10.48812389 2.13779378 -0.81121576 -0.87157428 0.86422354
-12.46011543 -10.50898361 2.15864134 -0.87602246 -0.87330776 0.87265140
-13.84526920 -10.52049446 1.61215186 -0.97340721 -0.87426430 0.65172780
-13.46102524 -10.53270531 2.17376304 -0.94639254 -0.87527907 0.87876445
-12.22443771 -12.01356316 1.27473783 -0.85945284 -0.99833995 0.51532495
-12.28607464 -11.22937679 1.14081097 -0.86378628 -0.93317318 0.46118373
-12.90062332 -10.93745899 1.05642545 -0.90699285 -0.90891451 0.42707008
-10.85081863 -11.25754356 1.76941693 -0.76287901 -0.93551391 0.71530372
-11.13072205 -10.78520489 1.66535747 -0.78255796 -0.89626205 0.67323667
-11.81794071 -10.56754780 1.64429462 -0.83087361 -0.87817448 0.66472179
-12.69682217 -10.53842926 1.60409892 -0.89266437 -0.87575471 0.64847231
-11.39658833 -10.49061871 2.12276554 -0.80124998 -0.87178159 0.85814822
-12.30942440 -10.51513767 2.14300704 -0.86542791 -0.87381917 0.86633104
-13.68279457 -10.53312016 1.59993088 -0.96198428 -0.87531352 0.64678735
-13.30768490 -10.54802799 2.15874410 -0.93561178 -0.87655240 0.87269294
-12.27667141 -11.36331749 1.14724696 -0.86312521 -0.94430381 0.46378553
-12.83164692 -11.01830006 1.05642545 -0.90214336 -0.91563249 0.42707008
-11.43310928 -10.45717144 2.47365832 -0.80381763 -0.86900210 1.00000000
-10.84548092 -11.39460850 1.78104722 -0.76250374 -0.94690412 0.72000533
-11.08829403 -10.87993813 1.66951990 -0.77957499 -0.90413445 0.67491937
-11.68509293 -10.58147430 1.63423598 -0.82153362 -0.87933183 0.66065550
-12.53891659 -10.54131794 1.59149516 -0.88156265 -0.87599480 0.64337713
-11.26683235 -10.50255966 2.11004925 -0.79212731 -0.87277395 0.85300756
-12.17114639 -10.53016567 2.12960625 -0.85570616 -0.87506801 0.86091363
-13.50973701 -10.53554344 1.58630729 -0.94981724 -0.87551492 0.64127988
-13.11608696 -10.53077602 2.13702059 -0.92214125 -0.87511873 0.86391097
-12.28350735 -11.51396656 1.15552187 -0.86360580 -0.95682293 0.46713075
-12.79682446 -11.12877464 1.05966651 -0.89969516 -0.92481303 0.42838031
-11.28182507 -10.44953442 2.45480609 -0.79318142 -0.86836749 0.99237883
-10.86057091 -11.55522156 1.79655421 -0.76356465 -0.96025127 0.72627419
-11.05922413 -10.98854733 1.67599487 -0.77753121 -0.91316003 0.67753690
-11.55107689 -10.59280682 1.62395382 -0.81211144 -0.88027358 0.65649885
-12.40876675 -10.56581688 1.58267260 -0.87241232 -0.87803066 0.63981050
-11.17474937 -10.54865646 2.10484695 -0.78565335 -0.87660462 0.85090446
-12.03018475 -10.54126835 2.11564708 -0.84579569 -0.87599063 0.85527056
-13.33095360 -10.53126907 1.57188249 -0.93724769 -0.87515968 0.63544852
-12.95595932 -10.53658390 2.12066078 -0.91088331 -0.87560135 0.85729736
-13.89169407 -10.47363758 2.09200096 -0.97667116 -0.87037045 0.84571135
-12.29615402 -11.67201996 1.16456294 -0.86449492 -0.96995729 0.47078568
-12.73863792 -11.21949387 1.06079388 -0.89560425 -0.93235189 0.42883605
-11.22457600 -10.52832890 2.45672321 -0.78915644 -0.87491536 0.99315381
-10.88215923 -11.72521114 1.81351507 -0.76508248 -0.97437757 0.73313081
-11.03203011 -11.10003376 1.68293226 -0.77561927 -0.92242467 0.68034142
-11.45229244 -10.63537884 1.61903632 -0.80516630 -0.88381135 0.65451092
-12.02398205 -10.36989880 1.53834927 -0.84535956 -0.86174965 0.62189239
-11.86287498 -10.52739048 2.09666276 -0.83403277 -0.87483740 0.84759593
-13.17604542 -10.54384518 1.56046271 -0.92635673 -0.87620479 0.63083196
-12.79322338 -10.53827381 2.10376453 -0.89944196 -0.87574178 0.85046691
-13.74198532 -10.49699020 2.07851839 -0.96614575 -0.87231112 0.84026092
-12.31160450 -11.83483410 1.17406368 -0.86558121 -0.98348737 0.47462645
-12.74390411 -11.36694717 1.06798041 -0.89597452 -0.94460547 0.43174127
-10.99551010 -11.20311451 1.68848217 -0.77305174 -0.93099076 0.68258506
-11.37801266 -10.70030785 1.61791861 -0.79994398 -0.88920701 0.65405905
-11.94209290 -10.43087101 1.53603864 -0.83960229 -0.86681652 0.62095827
-13.02305317 -10.55614853 1.54924345 -0.91560042 -0.87722719 0.62629646
-12.64314365 -10.54851055 2.08901405 -0.88889045 -0.87659246 0.84450388
-13.51245022 -10.45705414 2.05206227 -0.95000803 -0.86899239 0.82956576
-12.75819206 -11.52425575 1.07615340 -0.89697903 -0.95767796 0.43504530
-11.00222206 -11.31597424 1.69842589 -0.77352363 -0.94036955 0.68660486
-11.34329796 -10.76887989 1.62037742 -0.79750335 -0.89490539 0.65505302
-11.92566299 -10.51592827 1.54066002 -0.83844715 -0.87388486 0.62282652
-12.91162682 -10.56691360 1.54122961 -0.90776646 -0.87812179 0.62305677
-14.00823212 -10.62291527 1.49608612 -0.98486453 -0.88277560 0.60480708
-12.49789715 -10.52741337 2.07211781 -0.87867874 -0.87483931 0.83767343
-13.39261818 -10.46573067 2.04061484 -0.94158310 -0.86971337 0.82493806
-12.94576550 -11.80441952 1.09926331 -0.91016662 -0.98095983 0.44438770
-11.00116825 -11.45787239 1.71021950 -0.77344954 -0.95216143 0.69137257
-11.28113556 -10.84545612 1.62127149 -0.79313296 -0.90126896 0.65541446
-10.84726143 -10.73373508 2.08924055 -0.76262891 -0.89198482 0.84459543
-11.41348457 -10.48726273 2.04585147 -0.80243790 -0.87150270 0.82705498
-12.75008965 -10.56897736 1.52880824 -0.89640939 -0.87829328 0.61803532
-13.75628376 -10.56898594 1.47442377 -0.96715099 -0.87829399 0.59604990
-12.35167789 -10.53745651 2.05790377 -0.86839861 -0.87567389 0.83192724
-13.23785496 -10.47959518 2.02611470 -0.93070227 -0.87086552 0.81907624
-11.02750587 -11.63043880 1.72686934 -0.77530122 -0.96650189 0.69810343
-11.24121475 -10.94388771 1.62574208 -0.79032624 -0.90944874 0.65722173
-11.69658279 -10.57836342 1.52700591 -0.82234144 -0.87907326 0.61730671
-10.79217052 -10.81430149 2.09184170 -0.75875568 -0.89867997 0.84564698
-11.31978607 -10.53317165 2.04054689 -0.79585028 -0.87531781 0.82491058
-13.62039661 -10.60147190 1.46627724 -0.95759732 -0.88099360 0.59275657
-12.20882416 -10.54867554 2.04422593 -0.85835510 -0.87660623 0.82639784
-13.07105732 -10.48201656 2.00957966 -0.91897541 -0.87106675 0.81239176
-11.01675510 -11.76612473 1.73750675 -0.77454537 -0.97777754 0.70240372
-11.20191479 -11.04364204 1.63043606 -0.78756320 -0.91773844 0.65911937
-11.54765224 -10.57652378 1.51524246 -0.81187069 -0.87892044 0.61255121
-10.76701355 -10.92565060 2.10080099 -0.75698704 -0.90793324 0.84926885
-11.17400932 -10.52949333 2.02519202 -0.78560132 -0.87501216 0.81870323
-13.43299484 -10.59204102 1.45202088 -0.94442183 -0.88020992 0.58699334
-12.04993248 -10.54414082 2.02759790 -0.84718406 -0.87622935 0.81967580
-12.90013123 -10.47901249 1.99228132 -0.90695822 -0.87081712 0.80539876
-11.17163658 -11.15317535 1.63669479 -0.78543448 -0.92684078 0.66164953
-10.72847748 -11.02432823 2.10715914 -0.75427771 -0.91613346 0.85183918
-11.05311775 -10.54761124 2.01458311 -0.77710187 -0.87651777 0.81441444
-12.12235641 -10.43939209 1.47211039 -0.85227591 -0.86752462 0.59511471
-11.88862038 -10.53539562 2.01043367 -0.83584285 -0.87550265 0.81273699
-12.72669697 -10.47176075 1.97447431 -0.89476478 -0.87021452 0.79820007
-11.45440865 -10.48524952 2.33759069 -0.80531508 -0.87133545 0.94499338
-11.15530396 -11.24242401 1.64250648 -0.78428620 -0.93425745 0.66399890
-10.72304249 -11.12326527 2.11698532 -0.75389558 -0.92435521 0.85581154
-10.99043751 -10.58723164 2.01207042 -0.77269506 -0.87981027 0.81339866
-11.94852066 -10.38787651 1.45548177 -0.84005421 -0.86324364 0.58839238
-11.75179195 -10.51322556 1.99461019 -0.82622296 -0.87366027 0.80634022
-12.61000061 -10.47592449 1.96328127 -0.88656026 -0.87056053 0.79367518
-11.37288761 -10.50963306 2.33094811 -0.79958367 -0.87336171 0.94230801
-11.14001274 -11.36914635 1.65144742 -0.78321111 -0.94478822 0.66761339
-10.66929340 -11.20764256 2.12045336 -0.75011671 -0.93136704 0.85721350
-10.91944122 -10.65193462 2.01123285 -0.76770359 -0.88518715 0.81306010
-11.94268990 -10.51542282 1.46349549 -0.83964425 -0.87384284 0.59163201
-13.74814606 -11.23015785 1.51200891 -0.96657890 -0.93323809 0.61124402
-11.80727100 -10.69746017 2.01687026 -0.83012348 -0.88897038 0.81533909
-12.42844963 -10.45802307 1.94394791 -0.87379616 -0.86907285 0.78585953
-11.18233109 -10.46486759 2.30498195 -0.78618640 -0.86964166 0.93181098
-11.14288902 -11.51613998 1.66351783 -0.78341335 -0.95700353 0.67249298
-11.50786018 -11.04924965 1.54633164 -0.80907309 -0.91820443 0.62511933
-10.69341564 -11.37551689 2.14068389 -0.75181264 -0.94531763 0.86539191
-10.86640549 -10.73423195 2.01402473 -0.76397485 -0.89202613 0.81418872
-11.69752216 -10.73252487 2.00909257 -0.82240748 -0.89188427 0.81219488
-12.28541183 -10.47037792 1.93097425 -0.86373973 -0.87009960 0.78061479
-11.02009010 -10.44393158 2.28475261 -0.77477986 -0.86790186 0.92363304
-11.16355324 -11.68375683 1.67871749 -0.78486615 -0.97093266 0.67863756
-11.49674797 -11.17810917 1.55494428 -0.80829179 -0.92891282 0.62860107
-10.71718979 -11.54558468 2.16120338 -0.75348407 -0.95945042 0.87368709
-10.82538414 -10.82887077 2.01932907 -0.76109082 -0.89989072 0.81633306
-11.69454670 -10.56048965 1.44786859 -0.82219827 -0.87758797 0.58531469
-12.82218742 -10.74675751 1.41702783 -0.90147829 -0.89306700 0.57284701
-11.49788857 -10.68287659 1.98468709 -0.80837202 -0.88775843 0.80232871
-12.13218880 -10.47229195 1.91621983 -0.85296720 -0.87025863 0.77465016
-10.91283131 -10.47332096 2.27599645 -0.76723891 -0.87034416 0.92009330
-11.21659946 -11.88826656 1.69950533 -0.78859568 -0.98792762 0.68704128
-11.40358257 -11.22782612 1.55158329 -0.80174172 -0.93304431 0.62724239
-10.72722626 -11.70325089 2.17912173 -0.75418973 -0.97255266 0.88093078
-10.77663612 -10.91637993 2.02323771 -0.75766355 -0.90716285 0.81791317
-11.70276642 -10.70234585 1.45808625 -0.82277614 -0.88937634 0.58944529
-12.88814735 -10.94035721 1.43332088 -0.90611571 -0.90915537 0.57943368
-11.22437859 -10.56042862 1.94633555 -0.78914255 -0.87758291 0.78682476
-12.00036335 -10.49094868 1.90502679 -0.84369904 -0.87180901 0.77012527
-10.90927601 -10.60222626 2.28928161 -0.76698893 -0.88105631 0.92546397
-11.39909363 -11.36517239 1.56145620 -0.80142611 -0.94445795 0.63123357
-10.77681255 -11.90703392 2.20599937 -0.75767595 -0.98948723 0.89179629
-10.75074768 -11.02777863 2.03189230 -0.75584340 -0.91642016 0.82141185
-12.87961769 -11.07297707 1.44072676 -0.90551603 -0.92017621 0.58242756
-11.09761333 -10.57324505 1.93507147 -0.78023022 -0.87864792 0.78227115
-11.83904552 -10.48210239 1.88874602 -0.83235741 -0.87107390 0.76354361
-10.85232162 -10.68025494 2.29139495 -0.76298469 -0.88754058 0.92631829
-11.50261688 -11.57658768 1.58498323 -0.80870444 -0.96202677 0.64074463
-10.74687767 -11.12811375 2.04166365 -0.75557131 -0.92475814 0.82536203
-13.69746685 -11.88699532 1.54774261 -0.96301585 -0.98782200 0.62568974
-11.03197193 -10.61029053 1.93212128 -0.77561522 -0.88172644 0.78107846
-11.71548080 -10.47177029 1.87602675 -0.82367009 -0.87021530 0.75840175
-10.81591606 -10.74519253 2.29441428 -0.76042515 -0.89293694 0.92753887
-11.49102211 -11.71102047 1.59422600 -0.80788922 -0.97319829 0.64448106
-10.71506882 -11.23549652 2.04948092 -0.75333500 -0.93368173 0.82852221
-12.68805599 -12.01535225 1.62076676 -0.89204806 -0.99848861 0.65521044
-10.95941639 -10.67385769 1.93104851 -0.77051413 -0.88700897 0.78064477
-11.53754997 -10.44414043 1.85669339 -0.81116045 -0.86791921 0.75058603
-10.77331161 -10.83814430 2.29984903 -0.75742978 -0.90066135 0.92973596
-11.51837730 -11.88713646 1.60956061 -0.80981249 -0.98783374 0.65068024
-10.72448158 -11.38755608 2.06595254 -0.75399673 -0.94631809 0.83518106
-12.02526569 -10.70672989 1.35852087 -0.84544986 -0.88974071 0.54919505
-10.91609192 -10.76619720 1.93560779 -0.76746815 -0.89468247 0.78248793
-11.42045879 -10.46957493 1.84778976 -0.80292821 -0.87003285 0.74698669
-10.73273754 -10.93380260 2.30588770 -0.75457722 -0.90861064 0.93217713
-11.43107033 -11.94635487 1.60766995 -0.80367428 -0.99275482 0.64991593
-10.70809364 -11.51410198 2.07739902 -0.75284457 -0.95683414 0.83980840
-11.84966850 -10.68486118 1.34500504 -0.83310425 -0.88792336 0.54373115
-10.86923790 -10.85560799 1.93963075 -0.76417398 -0.90211260 0.78411424
-11.27875996 -10.47104073 1.83456171 -0.79296589 -0.87015468 0.74163908
-10.70792198 -11.04639053 2.31554961 -0.75283253 -0.91796684 0.93608302
-10.72407150 -11.67731190 2.09582520 -0.75396794 -0.97039706 0.84725738
-10.82168961 -10.94485474 1.94365358 -0.76083106 -0.90952909 0.78574049
-11.18669891 -10.51727581 1.82998276 -0.78649348 -0.87399685 0.73978800
-10.67526817 -11.15196419 2.32370186 -0.75053674 -0.92674011 0.93937868
-10.76373196 -11.86901379 2.11955571 -0.75675631 -0.98632771 0.85685062
-11.08730984 -10.55593872 1.82413185 -0.77950579 -0.87720978 0.73742270
-10.67299080 -11.29056644 2.33879852 -0.75037664 -0.93825811 0.94548166
-12.80007744 -11.94651985 1.48942089 -0.89992386 -0.99276853 0.60211259
-10.84379959 -11.21152782 1.97154558 -0.76238555 -0.93168992 0.79701614
-10.68056297 -11.40559769 2.35238552 -0.75090903 -0.94781733 0.95097429
-11.66773796 -11.87601376 1.53762341 -0.82031345 -0.98690945 0.62159896
-12.73200703 -12.03353977 1.49034655 -0.89513808 -1.00000000 0.60248685
-10.84422779 -11.35406017 1.98549163 -0.76241565 -0.94353449 0.80265397
-10.70009327 -11.57106876 2.37291694 -0.75228208 -0.96156818 0.95927435
-11.58458519 -11.94050980 1.53642130 -0.81446731 -0.99226910 0.62111300
-11.07162380 -10.91141129 1.85440385 -0.77840298 -0.90674990 0.74966049
-10.78702545 -11.58236694 2.00265598 -0.75839394 -0.96250707 0.80959278
-10.76805019 -10.74704742 1.81192136 -0.75705987 -0.89309114 0.73248649
-10.78236580 -11.72440147 2.01633382 -0.75806636 -0.97431028 0.81512219
-10.82046700 -10.93560505 1.83379853 -0.76074511 -0.90876043 0.74133056
-10.81363106 -11.87042618 2.03376627 -0.76026452 -0.98644507 0.82216942
-10.78132915 -10.99920750 1.83608806 -0.75799346 -0.91404587 0.74225610
-11.83663845 -11.87698460 1.42054558 -0.83218819 -0.98699009 0.57426912
-10.76450634 -11.12082672 1.84575474 -0.75681072 -0.92415255 0.74616396
-10.72599030 -11.22118282 1.85160565 -0.75410283 -0.93249226 0.74852926
-10.73719597 -11.51885700 1.88035131 -0.75489062 -0.95722932 0.76014996
-10.77493000 -11.70563507 1.90121102 -0.75754356 -0.97275078 0.76858270
