-21.47783852 -8.19550228 1.87427390 -1.00000000 -0.82603562 0.81334269
-21.02290916 -8.13518524 1.83520055 -0.97881866 -0.81995618 0.79638678
-20.35345459 -8.17105675 1.78182364 -0.94764912 -0.82357174 0.77322382
-19.99384117 -8.17259598 1.75269318 -0.93090564 -0.82372683 0.76058269
-19.65525055 -8.17838287 1.72548139 -0.91514099 -0.82431012 0.74877405
-19.34856415 -8.15764618 1.70001400 -0.90086180 -0.82222003 0.73772246
-19.07180977 -8.18221378 1.67855859 -0.88797623 -0.82469624 0.72841191
-18.80829620 -8.20922184 1.65832424 -0.87570715 -0.82741845 0.71963120
-20.79871368 -8.17006588 1.70396996 -0.96838021 -0.82347184 0.73943919
-18.51426125 -8.21947002 1.63512444 -0.86201698 -0.82845134 0.70956361
-20.44520760 -8.18017387 1.67718399 -0.95192111 -0.82449067 0.72781539
-19.56906891 -8.50986195 0.99901760 -0.91112840 -0.85772032 0.43352452
-18.28256226 -8.25428867 1.61785543 -0.85122913 -0.83196080 0.70206970
-20.09056282 -8.18541622 1.65023375 -0.93540895 -0.82501900 0.71612030
-19.43305779 -8.59621334 0.99422878 -0.90479577 -0.86642385 0.43144640
-18.10002899 -8.30901623 1.60529613 -0.84273046 -0.83747685 0.69661957
-19.75693130 -8.19491196 1.62509108 -0.91987520 -0.82597613 0.70520961
-18.28184128 -8.14734459 2.30392408 -0.85119557 -0.82118171 0.99978977
-19.43787956 -8.70815086 0.99688923 -0.90502030 -0.87770617 0.43260092
-17.97579575 -8.35466385 1.59709775 -0.83694625 -0.84207773 0.69306189
-19.44970894 -8.17541504 1.60109890 -0.90557104 -0.82401097 0.69479817
-18.23390388 -8.26369381 2.30440855 -0.84896362 -0.83290875 1.00000000
-19.43183136 -8.85251141 0.99976254 -0.90473866 -0.89225644 0.43384778
-20.72932053 -8.51176739 0.93022138 -0.96514928 -0.85791242 0.40367034
-17.86352730 -8.43929672 1.59134138 -0.83171904 -0.85060799 0.69056392
-19.17061996 -8.20047474 1.58072186 -0.89257675 -0.82653677 0.68595558
-21.29189110 -8.22270012 1.61569643 -0.99134237 -0.82877690 0.70113283
-19.42292404 -8.99629879 1.00252938 -0.90432394 -0.90674895 0.43504846
-20.38962555 -8.52268982 0.91546053 -0.94933319 -0.85901326 0.39726487
-17.78322220 -8.53840637 1.58872485 -0.82798004 -0.86059737 0.68942845
-18.89747810 -8.22473431 1.56083775 -0.87985939 -0.82898194 0.67732686
-20.80016708 -8.18289948 1.57937896 -0.96844786 -0.82476538 0.68537283
-19.42019844 -9.14373207 1.00572193 -0.90419704 -0.92160898 0.43643385
-17.76859665 -8.66923237 1.59256244 -0.82729912 -0.87378353 0.69109380
-18.66308784 -8.26279640 1.54440475 -0.86894625 -0.83281827 0.67019570
-20.43747711 -8.18854237 1.55363488 -0.95156115 -0.82533413 0.67420113
-19.46500206 -9.31480789 1.01178777 -0.90628308 -0.93885189 0.43906614
-17.72091293 -8.78425121 1.59326017 -0.82507896 -0.88537639 0.69139659
-18.45261002 -8.30885601 1.53010798 -0.85914654 -0.83746070 0.66399163
-20.08847046 -8.19524097 1.52896357 -0.93531156 -0.82600927 0.66349500
-19.48508263 -9.47542953 1.01647019 -0.90721804 -0.95504117 0.44109809
-17.70272064 -8.91427612 1.59692335 -0.82423192 -0.89848179 0.69298619
-18.29306412 -8.37578297 1.52041245 -0.85171813 -0.84420633 0.65978426
-19.75492477 -8.20401478 1.50551808 -0.91978180 -0.82689363 0.65332079
-18.20992470 -8.14569283 2.18335271 -0.84784716 -0.82101524 0.94746774
-19.60141373 -9.64666462 1.02604783 -0.91263437 -0.97230023 0.44525430
-17.69067955 -9.01300621 1.59988868 -0.82367134 -0.90843290 0.69427299
-18.16112137 -8.41923237 1.51203156 -0.84557492 -0.84858567 0.65614736
-19.49924660 -8.20553970 1.48743594 -0.90787750 -0.82704729 0.64547408
-18.12582016 -8.24517536 2.17919016 -0.84393132 -0.83104223 0.94566137
-20.02793503 -9.08287048 0.91031802 -0.93249303 -0.91547465 0.39503327
-17.70444489 -9.16067696 1.60686600 -0.82431221 -0.92331684 0.69730085
-18.10966682 -8.53402233 1.51219583 -0.84317923 -0.86015552 0.65621865
-19.23291969 -8.23584461 1.46950710 -0.89547741 -0.83010179 0.63769382
-17.97804832 -8.31480026 2.16693401 -0.83705109 -0.83805984 0.94034278
-20.08118248 -9.25945473 0.91612715 -0.93497223 -0.93327278 0.39755413
-17.69765854 -9.29866219 1.61192465 -0.82399625 -0.93722457 0.69949603
-18.04310036 -8.64162540 1.51104558 -0.84007990 -0.87100095 0.65571946
-18.99074554 -8.27350712 1.45357037 -0.88420188 -0.83389783 0.63077807
-20.97390938 -8.20899582 1.45267498 -0.97653723 -0.82739562 0.63038951
-20.17823601 -9.45822048 0.92431706 -0.93949097 -0.95330667 0.40110815
-17.74430084 -9.46604919 1.62239075 -0.82616788 -0.95409572 0.70403779
-18.00279236 -8.76178646 1.51236022 -0.83820319 -0.88311213 0.65628999
-18.77437782 -8.31979084 1.43977892 -0.87412792 -0.83856285 0.62479323
-20.64012909 -8.22857475 1.43125606 -0.96099657 -0.82936901 0.62109476
-17.79478645 -9.63723850 1.63338006 -0.82851851 -0.97135013 0.70880663
-17.97419930 -8.88795280 1.51482522 -0.83687186 -0.89582860 0.65735966
-18.57090569 -8.36943245 1.42706013 -0.86465430 -0.84356624 0.61927390
-20.27550697 -8.23155975 1.40744162 -0.94401991 -0.82966989 0.61076045
-17.55257225 -8.48953629 2.13085938 -0.81724107 -0.85567170 0.92468822
-20.93629456 -8.20655155 2.23638749 -0.97478592 -0.82714927 0.97048223
-17.97135162 -8.99213791 1.51844049 -0.83673930 -0.90632957 0.65892851
-18.52944565 -8.45602322 1.42690682 -0.86272395 -0.85229385 0.61920738
-19.98179245 -8.22248554 1.38799548 -0.93034464 -0.82875532 0.60232180
-17.50958824 -8.60489941 2.13224673 -0.81523979 -0.86729932 0.92529023
-18.53587341 -8.21743870 2.14163828 -0.86302322 -0.82824659 0.92936569
-17.98738861 -9.14183044 1.52517796 -0.83748597 -0.92141730 0.66185224
-18.46510124 -8.56723309 1.42598748 -0.85972810 -0.86350286 0.61880845
-19.70699120 -8.25481892 1.37094498 -0.91755003 -0.83201420 0.59492272
-17.48540878 -8.72979927 2.13617802 -0.81411397 -0.87988812 0.92699623
-18.11261940 -8.16590500 2.09581542 -0.84331667 -0.82305247 0.90948081
-17.99870872 -9.29025269 1.53158689 -0.83801305 -0.93637699 0.66463339
-18.44335747 -8.69842625 1.42874575 -0.85871571 -0.87672597 0.62000543
-19.01214218 -8.10527420 1.32162511 -0.88519812 -0.81694138 0.57352030
-17.46212006 -8.85563087 2.14034057 -0.81302965 -0.89257085 0.92880255
-18.00886917 -9.43917656 1.53799582 -0.83848614 -0.95138723 0.66741455
-18.44226074 -8.84004879 1.43334281 -0.85866463 -0.89100033 0.62200028
-18.84548569 -8.17466736 1.31274760 -0.87743866 -0.82393563 0.56966794
-21.09643745 -8.25273514 1.34073150 -0.98224211 -0.83180422 0.58181155
-17.43617439 -8.98060513 2.14427161 -0.81182164 -0.90516716 0.93050843
-17.82851791 -8.30872440 2.07346296 -0.83008903 -0.83744740 0.89978099
-19.52608871 -8.22695732 2.09921646 -0.90912730 -0.82920599 0.91095674
-18.09004593 -9.62691498 1.55114233 -0.84226567 -0.97030962 0.67311949
-18.44548416 -8.98462486 1.43839967 -0.85881472 -0.90557235 0.62419474
-20.76987457 -8.27554607 1.32144880 -0.96703744 -0.83410335 0.57344383
-17.41463089 -9.10836029 2.14889669 -0.81081861 -0.91804379 0.93251550
-17.69338036 -8.38135529 2.06318092 -0.82379705 -0.84476799 0.89531904
-19.19055557 -8.22826958 2.06665683 -0.89350498 -0.82933825 0.89682746
-21.06536484 -8.14333725 2.13525414 -0.98079538 -0.82077783 0.92659533
-18.44404602 -9.12781715 1.44315016 -0.85874778 -0.92000490 0.62625623
-20.43647385 -8.29157448 1.30164492 -0.95151448 -0.83571887 0.56484991
-17.44530678 -9.22926426 2.15860915 -0.81224686 -0.93022984 0.93673021
-17.64473152 -8.46033382 2.06206322 -0.82153201 -0.85272837 0.89483404
-18.79568291 -8.16444206 2.02569461 -0.87511986 -0.82290500 0.87905186
-18.44181824 -9.23520851 1.44667459 -0.85864407 -0.93082899 0.62778562
-17.58051109 -8.56579685 2.06072211 -0.81854194 -0.86335808 0.89425206
-18.62388992 -8.22944069 2.01183057 -0.86712122 -0.82945633 0.87303555
-20.73993111 -8.28054428 2.10981011 -0.96564329 -0.83460712 0.91555387
-18.47047615 -9.39528465 1.45418322 -0.85997838 -0.94696331 0.63104403
-17.52812386 -8.67697239 2.06094551 -0.81610280 -0.87456363 0.89434904
-18.12533188 -8.14617920 1.96015513 -0.84390855 -0.82106429 0.85061097
-18.51024246 -9.56250381 1.46276462 -0.86182988 -0.96381754 0.63476789
-17.56731606 -8.83435535 2.07279253 -0.81792754 -0.89042646 0.89949006
-18.01768684 -8.23433113 1.95364320 -0.83889663 -0.82994920 0.84778512
-18.57157898 -9.74265575 1.47333801 -0.86468565 -0.98197526 0.63935626
-21.39106369 -8.33907795 1.22974634 -0.99595982 -0.84050679 0.53364944
-17.66890526 -9.02518272 2.09268618 -0.82265753 -0.90966022 0.90812290
-17.85731697 -8.29720306 1.94103944 -0.83142990 -0.83628619 0.84231567
-19.42162323 -8.18067360 1.98319185 -0.90426338 -0.82454103 0.86060774
-19.05551338 -8.40069771 1.22138691 -0.88721746 -0.84671754 0.53002185
-17.67180061 -9.16719818 2.10028601 -0.82279235 -0.92397416 0.91142088
-17.71846390 -8.36855698 1.93095636 -0.82496494 -0.84347802 0.83794010
-19.11388397 -8.19253826 1.95514345 -0.88993520 -0.82573688 0.84843612
-21.28426743 -8.19119167 1.98191559 -0.99098742 -0.82560116 0.86005390
-17.61609268 -9.24389553 2.09872127 -0.82019860 -0.93170458 0.91074181
-17.47596359 -8.35523033 1.90721929 -0.81367421 -0.84213483 0.82763940
-18.83422852 -8.17766571 1.92869782 -0.87691450 -0.82423782 0.83696002
-20.86870575 -8.14476395 1.94433045 -0.97163904 -0.82092166 0.84374380
-17.61376381 -9.38436031 2.10587406 -0.82009017 -0.94586217 0.91384578
-17.55557251 -8.52904797 1.92276394 -0.81738079 -0.85965413 0.83438498
-18.70423698 -8.26119328 1.92008293 -0.87086219 -0.83265668 0.83322155
-20.49130630 -8.14654160 1.91174436 -0.95406741 -0.82110083 0.82960308
-17.47757721 -9.45316315 2.09603906 -0.81374937 -0.95279694 0.90957791
-17.51234436 -8.64445496 1.92402434 -0.81536812 -0.87128615 0.83493197
-18.17477608 -8.16362667 1.86739206 -0.84621066 -0.82282281 0.81035632
-20.11841583 -8.14539433 1.87952852 -0.93670577 -0.82098514 0.81562299
-18.97017860 -9.76098728 1.36869037 -0.88324434 -0.98382294 0.59394431
-17.62503815 -9.67682457 2.12263846 -0.82061505 -0.97534007 0.92112070
-18.01095200 -8.22628784 1.85497069 -0.83858305 -0.82913852 0.80496609
-19.79240417 -8.15881824 1.85194135 -0.92152679 -0.82233816 0.80365151
-18.98808289 -9.92148781 1.37503147 -0.88407791 -1.00000000 0.59669602
-17.85788536 -8.29225445 1.84375131 -0.83145636 -0.83578742 0.80009741
-19.47254181 -8.17077827 1.82490969 -0.90663415 -0.82354367 0.79192108
-19.21728134 -8.44882107 1.11258698 -0.89474934 -0.85156792 0.48280805
-17.31271553 -8.95567131 1.92003310 -0.80607343 -0.90265405 0.83319998
-17.71369934 -8.36087990 1.83353376 -0.82474309 -0.84270424 0.79566348
-19.17897224 -8.18996811 1.80047011 -0.89296567 -0.82547784 0.78131551
-19.88834000 -9.79656887 1.30920160 -0.92599356 -0.98740923 0.56812912
-17.51540565 -9.16507816 1.94923186 -0.81551063 -0.92376047 0.84587079
-17.62026405 -8.41846943 1.82752335 -0.82039279 -0.84850878 0.79305530
-18.88417816 -8.16980934 1.77454937 -0.87924016 -0.82344598 0.77006716
-17.41002655 -9.24980259 1.94356012 -0.81060421 -0.93229997 0.84340954
-17.55449677 -8.52291679 1.82612097 -0.81733072 -0.85903615 0.79244673
-18.62277222 -8.19625568 1.75325727 -0.86706918 -0.82611156 0.76082742
-19.19034004 -9.71571445 1.26607597 -0.89349496 -0.97925985 0.54941469
-17.50951958 -8.63745689 1.82712269 -0.81523657 -0.87058079 0.79288143
-18.51817131 -8.28956127 1.74788797 -0.86219901 -0.83551592 0.75849742
-19.04021454 -9.79038334 1.25956154 -0.88650513 -0.98678583 0.54658777
-17.50712013 -9.58511257 1.96939790 -0.81512487 -0.96609628 0.85462183
-18.09762383 -8.23863411 1.71030283 -0.84261847 -0.83038294 0.74218732
-17.92797661 -8.29793167 1.69826818 -0.83471978 -0.83635962 0.73696488
-17.48320961 -9.00351048 1.84134722 -0.81401157 -0.90747583 0.79905415
-17.78223228 -8.33257961 1.68734443 -0.82793397 -0.83985180 0.73222452
-19.89869499 -9.73519993 1.18169320 -0.92647570 -0.98122382 0.51279676
-17.81946564 -8.48686504 1.69660187 -0.82966757 -0.85540247 0.73624176
-19.38640594 -9.63651562 1.15171933 -0.90262371 -0.97127730 0.49978957
-17.81421089 -8.62203407 1.70160091 -0.82942289 -0.86902630 0.73841113
-19.24524117 -9.71771431 1.14636695 -0.89605111 -0.97946137 0.49746689
-17.49947357 -9.43361759 1.86298454 -0.81476885 -0.95082688 0.80844367
-17.57195473 -8.64171124 1.68216026 -0.81814355 -0.87100959 0.72997487
-17.49568558 -9.57400799 1.86939561 -0.81459248 -0.96497703 0.81122577
-17.56721687 -8.77681637 1.68734443 -0.81792295 -0.88462704 0.73222452
-17.59513855 -9.77280140 1.88782740 -0.81922299 -0.98501372 0.81922424
-17.54548264 -8.90410900 1.69086230 -0.81691098 -0.89745700 0.73375112
-17.53346062 -9.00212288 1.69400978 -0.81635123 -0.90733600 0.73511696
-17.52779007 -9.13875675 1.69937909 -0.81608725 -0.92110747 0.73744696
-17.53165627 -9.28125381 1.70585930 -0.81626725 -0.93546999 0.74025905
-17.54319763 -9.42886353 1.71326518 -0.81680459 -0.95034772 0.74347287
-17.64977455 -9.62934303 1.73085427 -0.82176679 -0.97055435 0.75110567
