5.55874968 -0.32271576 1.29062450 0.78883821 -0.25419825 0.61796039
5.82385588 0.07989330 1.73344505 0.82645923 0.06293073 0.82998616
5.19786453 -0.19620486 1.48944604 0.73762524 -0.15454756 0.71315765
6.29654360 0.37564257 0.92937672 0.89353800 0.29588789 0.44499236
4.91308165 0.64133185 1.02542293 0.69721192 0.50516731 0.49097997
5.05401421 0.41209430 1.00459027 0.71721154 0.32460037 0.48100516
3.95161462 0.91645306 1.57489753 0.56077081 0.72187603 0.75407243
3.97622585 0.71855384 1.53926504 0.56426334 0.56599385 0.73701131
5.10989189 0.08167060 0.96396446 0.72514111 0.06433068 0.46155322
5.33481216 -0.18077098 0.95930266 0.75705940 -0.14239053 0.45932111
3.66618538 0.48691323 1.59047651 0.52026576 0.38353410 0.76153177
3.71935821 0.30829015 1.57163727 0.52781147 0.24283543 0.75251138
4.22504520 -0.03321414 1.48627198 0.59957314 -0.02616227 0.71163785
3.79632235 0.04056128 1.55105662 0.53873336 0.03194950 0.74265724
3.85404944 -0.14603320 1.53667903 0.54692543 -0.11502811 0.73577315
4.44363880 1.14364684 1.51894319 0.63059360 0.90083313 0.72728109
4.37545490 0.89698952 1.44669509 0.62091768 0.70654494 0.69268817
6.14887333 0.37469044 1.55906367 0.87258220 0.29513791 0.74649107
5.31090879 0.72215146 1.70091283 0.75366724 0.56882763 0.81440949
5.35550594 0.45551911 1.65360391 0.75999600 0.35880542 0.79175758
6.13553953 -0.00237777 1.49235356 0.87069005 -0.00187293 0.71454978
5.50432968 -0.28466091 1.27719676 0.78111547 -0.22422303 0.61153114
5.83854485 0.11684348 1.73809361 0.82854372 0.09203582 0.83221191
5.19515896 -0.16340636 1.48832107 0.73724127 -0.12871268 0.71261901
6.28419304 0.41457838 0.92786705 0.89178532 0.32655704 0.44426951
4.90895510 0.67218882 1.02542293 0.69662631 0.52947283 0.49097997
4.99860859 0.43942225 0.99375278 0.70934898 0.34612617 0.47581607
3.93494320 0.93862128 1.57046831 0.55840498 0.73933762 0.75195169
3.96979928 0.74318922 1.53853858 0.56335139 0.58539879 0.73666346
5.09750462 0.11346612 0.96166420 0.72338325 0.08937553 0.46045184
5.33780813 -0.14730975 0.95966864 0.75748456 -0.11603364 0.45949635
3.63950086 0.50652784 1.58000612 0.51647896 0.39898422 0.75651848
3.71551752 0.33150008 1.57084584 0.52726644 0.26111755 0.75213242
4.22328854 -0.00667301 1.48559415 0.59932387 -0.00525623 0.71131331
3.80521631 0.06461927 1.55491412 0.53999555 0.05089961 0.74450421
3.87154698 -0.12242904 1.54347634 0.54940844 -0.09643548 0.73902774
4.33255482 0.91677475 1.43409789 0.61482978 0.72212940 0.68665653
6.14833021 0.41344085 1.55956459 0.87250513 0.32566103 0.74673092
5.32509279 0.75825983 1.70707607 0.75568008 0.59726965 0.81736046
5.39435482 0.49282160 1.66679287 0.76550901 0.38818803 0.79807258
5.17758846 -0.23394004 1.19894505 0.73474789 -0.18427098 0.57406366
5.80708933 0.15261401 1.72879648 0.82407987 0.12021172 0.82776034
5.24596310 -0.13221177 1.50294530 0.74445087 -0.10414119 0.71962118
6.31302214 0.45623341 0.93269795 0.89587647 0.35936809 0.44658259
4.92591763 0.70615906 1.03002417 0.69903344 0.55623066 0.49318308
5.02697134 0.47363546 1.00017500 0.71337390 0.37307540 0.47889107
3.94880176 0.96829534 1.57858849 0.56037164 0.76271141 0.75583971
3.97786927 0.77053362 1.54362369 0.56449658 0.60693753 0.73909825
5.09865284 0.14555608 0.96204758 0.72354615 0.11465229 0.46063539
5.31504059 -0.11317608 0.95527744 0.75425363 -0.08914706 0.45739380
3.64348674 0.53048038 1.58322775 0.51704460 0.41785127 0.75806099
3.72067857 0.35549766 1.57401156 0.52799881 0.28002006 0.75364822
4.23829985 0.02000594 1.49101639 0.60145408 0.01575837 0.71390951
3.78629088 0.08799893 1.54719901 0.53730983 0.06931540 0.74081016
3.85558033 -0.09759153 1.53667903 0.54714262 -0.07687135 0.73577315
6.19969273 0.45586231 1.57359040 0.87979394 0.35907575 0.75344658
5.37476873 0.80003101 1.72494936 0.76272959 0.63017219 0.82591832
5.31706429 0.51974791 1.64341247 0.75454080 0.40939748 0.78687787
4.74175549 0.05313233 1.14556336 0.67289913 0.04185152 0.54850411
5.18284416 -0.20157036 1.19987106 0.73549372 -0.15877388 0.57450700
5.81175327 0.18930475 1.73053968 0.82474172 0.14911246 0.82859504
5.27355289 -0.09986033 1.51081991 0.74836612 -0.07865845 0.72339159
6.32777452 0.49722710 0.93541533 0.89796996 0.39165819 0.44788367
4.92331648 0.73739296 1.03044248 0.69866431 0.58083314 0.49338338
5.04924965 0.50765777 1.00539315 0.71653539 0.39987424 0.48138958
3.92618585 0.98229086 1.57120657 0.55716223 0.77373546 0.75230515
3.97968268 0.79033166 1.54580307 0.56475389 0.62253213 0.74014181
5.10575676 0.16987354 0.96358109 0.72455430 0.13380678 0.46136966
5.32534409 -0.08832896 0.95710713 0.75571579 -0.06957537 0.45826986
3.66446042 0.55131370 1.59369814 0.52002096 0.43426135 0.76307428
3.72810459 0.37389377 1.57796884 0.52905267 0.29451039 0.75554299
4.22686958 0.03981749 1.48694968 0.59983206 0.03136363 0.71196234
3.79136658 0.10602476 1.54951358 0.53803009 0.08351409 0.74191839
3.87080765 -0.07980471 1.54272115 0.54930353 -0.06286095 0.73866612
4.59445000 0.91262460 1.25854087 0.65199512 0.71886045 0.60259855
4.19424820 0.93642265 1.39063752 0.59520274 0.73760581 0.66584736
5.45301390 0.71239674 1.43896127 0.77383327 0.56114399 0.68898517
6.20519924 0.48565158 1.57559407 0.88057536 0.38254032 0.75440592
5.33522844 0.81972557 1.71323931 0.75711846 0.64568526 0.82031149
5.32025242 0.54536015 1.64521098 0.75499320 0.42957184 0.78773904
5.17984772 -0.17699648 1.19894505 0.73506850 -0.13941742 0.57406366
5.85286379 0.21840586 1.74332333 0.83057570 0.17203495 0.83471590
5.23942375 -0.07438380 1.50069547 0.74352288 -0.05859098 0.71854395
6.32536125 0.52704042 0.93541533 0.89762747 0.41514167 0.44788367
5.00976372 0.52769589 0.99776667 0.71093196 0.41565797 0.47773796
4.07276535 1.04701817 1.63395298 0.57796323 0.82472020 0.78234857
3.96732926 0.81385982 1.54289722 0.56300086 0.64106494 0.73875046
5.08693886 0.20118174 0.96013069 0.72188383 0.15846777 0.45971757
5.30023527 -0.05450638 0.95235002 0.75215256 -0.04293384 0.45599213
3.66634488 0.57520807 1.59611440 0.52028835 0.45308259 0.76423120
3.71654487 0.39638636 1.57401156 0.52741224 0.31222746 0.75364822
4.22841740 0.06641334 1.48762751 0.60005170 0.05231277 0.71228689
3.78693795 0.12969826 1.54797053 0.53740168 0.10216133 0.74117959
3.84345937 -0.05493831 1.53139222 0.54542255 -0.04327406 0.73324174
5.62305927 0.47756022 1.42531776 0.79796433 0.37616688 0.68245256
5.31102800 0.57817948 1.64341247 0.75368416 0.45542312 0.78687787
5.85711050 0.25544599 1.74506652 0.83117837 0.20121089 0.83555061
5.23978758 -0.04146227 1.50069547 0.74357450 -0.03265920 0.71854395
6.31601572 0.56626248 0.93450958 0.89630127 0.44603628 0.44745001
4.92648888 0.79339498 1.03295231 0.69911450 0.62494510 0.49458510
5.01803732 0.56042027 1.00017500 0.71210611 0.44143447 0.47889107
3.98221159 0.84291542 1.55088830 0.56511277 0.66395158 0.74257660
5.09145594 0.23343292 0.96128082 0.72252488 0.18387154 0.46026826
5.29850721 -0.02118776 0.95198411 0.75190735 -0.01668927 0.45581692
3.66626859 0.59884292 1.59772515 0.52027756 0.47169939 0.76500243
3.71398091 0.41973010 1.57401156 0.52704835 0.33061498 0.75364822
4.22603559 0.09292936 1.48694968 0.59971368 0.07319903 0.71196234
3.77130246 0.15281247 1.54179835 0.53518283 0.12036804 0.73822427
3.86594963 -0.03108379 1.54045534 0.54861414 -0.02448422 0.73758125
4.45954800 1.05327213 1.48511660 0.63285124 0.82964635 0.71108466
5.62766314 0.51355737 1.42732143 0.79861766 0.40452129 0.68341190
5.31677198 0.61259401 1.64640999 0.75449932 0.48253092 0.78831309
5.66986561 -0.12435137 1.31516504 0.80460656 -0.09794968 0.62971061
5.87450027 0.29326227 1.75087726 0.83364612 0.23099820 0.83833277
5.33590746 -0.00906797 1.52881908 0.75721478 -0.00714270 0.73200971
6.35367393 0.60977042 0.94085014 0.90164530 0.48030683 0.45048591
4.94453716 0.82830453 1.03797185 0.70167571 0.65244281 0.49698851
5.04751110 0.59570980 1.00699866 0.71628869 0.46923149 0.48215830
3.98594928 0.86986071 1.55452061 0.56564319 0.68517596 0.74431580
5.08204937 0.26497850 0.95974731 0.72118998 0.20871951 0.45953402
5.31033325 0.01208561 0.95417970 0.75358558 0.00951965 0.45686820
3.62637115 0.61554021 1.58161700 0.51461571 0.48485160 0.75728977
3.70762038 0.44264171 1.57242870 0.52614576 0.34866211 0.75289035
3.77211046 0.17660131 1.54256988 0.53529751 0.13910614 0.73859370
3.85310555 -0.00670188 1.53516853 0.54679143 -0.00527897 0.73504990
4.47315502 1.08610845 1.49204504 0.63478225 0.85551101 0.71440202
5.57227612 0.54401594 1.41379666 0.79075772 0.42851302 0.67693615
5.32039785 0.64688033 1.64880788 0.75501382 0.50953776 0.78946126
6.44282055 -0.10357840 1.49898708 0.91429603 -0.08158711 0.71772593
5.84388685 0.32845634 1.74216115 0.82930177 0.25872004 0.83415949
5.85214424 0.02485714 1.68012404 0.83047360 0.01957959 0.80445564
6.39890337 0.65455359 0.94839847 0.90806377 0.51558185 0.45410010
4.95078802 0.86141378 1.04048169 0.70256281 0.67852247 0.49819022
5.03783274 0.62671006 1.00579453 0.71491522 0.49364993 0.48158175
3.98222518 0.89528751 1.55524707 0.56511474 0.70520425 0.74466366
5.07832527 0.29678217 0.95936394 0.72066152 0.23377077 0.45935044
5.31408501 0.04546956 0.95491153 0.75411803 0.03581567 0.45721862
3.66025519 0.64519376 1.59853065 0.51942420 0.50820923 0.76538813
3.72117853 0.46790183 1.57955182 0.52806979 0.36855909 0.75630093
3.76724219 0.20008294 1.54102683 0.53460664 0.15760227 0.73785490
3.85677552 0.01750514 1.53667903 0.54731226 0.01378853 0.73577315
4.50496197 1.12367034 1.50527215 0.63929594 0.88509792 0.72073531
5.33755732 0.55582696 1.35368609 0.75744891 0.43781638 0.64815480
5.34084415 0.68335146 1.65660143 0.75791538 0.53826547 0.79319286
6.63011217 -0.06551366 1.54343784 0.94087446 -0.05160410 0.73900932
5.85316515 0.36592403 1.74564767 0.83061850 0.28823274 0.83582884
5.89217663 0.06191088 1.69193590 0.83615458 0.04876625 0.81011122
6.43792057 0.69930708 0.95504099 0.91360068 0.55083346 0.45728058
5.03573942 0.65859741 1.00619590 0.71461815 0.51876712 0.48177394
3.97106886 0.91905743 1.55306768 0.56353152 0.72392744 0.74362016
5.05873585 0.32747221 0.95591360 0.71788156 0.25794485 0.45769840
5.27437162 0.07842477 0.94759297 0.74848229 0.06177399 0.45371443
3.64173698 0.66546720 1.59208727 0.51679629 0.52417833 0.76230299
3.71998739 0.49150401 1.58034325 0.52790076 0.38715020 0.75667989
3.76038671 0.22339101 1.53871226 0.53363377 0.17596167 0.73674667
3.85288548 0.04171693 1.53516853 0.54676020 0.03285978 0.73504990
4.50701761 1.15426791 1.50842142 0.63958764 0.90919918 0.72224319
5.29545307 0.58524561 1.34366775 0.75147396 0.46098900 0.64335793
5.32509327 0.71541387 1.65300441 0.75568014 0.56352055 0.79147059
7.04675531 -0.02662957 1.64252579 1.00000000 -0.02097571 0.78645331
5.94540596 0.09964783 1.70768511 0.84370828 0.07849108 0.81765211
5.07617235 0.69617039 1.01542783 0.72035599 0.54836273 0.48619425
3.99211121 0.94363552 1.56323814 0.56651765 0.74328727 0.74848980
5.06692457 0.35202664 0.95783049 0.71904361 0.27728599 0.45861623
5.29753542 0.10364971 0.95198411 0.75176948 0.08164328 0.45581692
3.67630577 0.68991721 1.60900092 0.52170193 0.54343724 0.77040136
3.72491431 0.50998569 1.58350897 0.52859992 0.40170792 0.75819564
3.76113296 0.24123691 1.53948379 0.53373969 0.19001862 0.73711604
3.86375713 0.05998670 1.53970015 0.54830301 0.04725061 0.73721963
4.53830242 1.18492532 1.52101862 0.64402723 0.93334752 0.72827482
5.31187963 0.61233747 1.34867692 0.75380504 0.48232886 0.64575636
5.34624338 0.74382532 1.66079795 0.75868160 0.58589983 0.79520220
5.86811209 0.12627798 1.68518627 0.83273959 0.09946723 0.80687946
6.05868769 0.72678375 0.89797568 0.85978401 0.57247645 0.42995730
3.97341347 0.96568257 1.55815291 0.56386423 0.76065338 0.74605501
5.06852579 0.38416830 0.95859718 0.71927088 0.30260348 0.45898333
5.29874563 0.13697611 0.95235002 0.75194120 0.10789398 0.45599213
3.64317560 0.70726275 1.59611440 0.51700044 0.55710006 0.76423120
3.71981692 0.53312910 1.58271754 0.52787656 0.41993764 0.75781667
3.77058268 0.26570153 1.54411292 0.53508067 0.20928903 0.73933250
3.85034227 0.08404760 1.53441334 0.54639930 0.06620301 0.73468828
4.59134674 1.22935963 1.54180396 0.65155470 0.96834773 0.73822695
5.33677197 0.64909828 1.35619068 0.75733751 0.51128477 0.64935398
5.38869333 0.78409398 1.67578542 0.76470560 0.61761880 0.80237830
6.18867540 0.36764881 1.50829244 0.87823051 0.28959134 0.72218144
5.85377169 0.16281879 1.68124890 0.83070457 0.12824987 0.80499423
6.49551964 0.81912208 0.96591055 0.92177457 0.64520991 0.46248502
5.07208920 0.75250232 1.01623070 0.71977657 0.59273458 0.48657867
4.12655735 1.02956319 1.62208140 0.58559680 0.81097114 0.77666438
5.08165741 0.41735476 0.96166420 0.72113436 0.32874396 0.46045184
5.31153870 0.17065552 0.95491153 0.75375664 0.13442273 0.45721862
3.64583158 0.73161942 1.59933603 0.51737738 0.57628542 0.76577377
3.72911930 0.55832583 1.58825767 0.52919662 0.43978471 0.76046938
3.75780463 0.28848043 1.53948379 0.53326738 0.22723162 0.73711604
3.84603548 0.10815366 1.53290284 0.54578817 0.08519098 0.73396504
5.41905546 0.69335341 1.37873220 0.76901430 0.54614389 0.66014701
5.38366032 0.81793642 1.67578542 0.76399136 0.64427602 0.80237830
6.11460400 0.40158203 1.49042165 0.86771905 0.31632003 0.71362478
5.41214657 0.46507901 1.61432469 0.76803386 0.36633560 0.77295041
5.91402149 0.20147578 1.69924808 0.83925456 0.15869939 0.81361234
5.03044987 0.77880758 1.00860429 0.71386755 0.61345482 0.48292708
5.07307100 0.44873303 0.96051407 0.71991587 0.35346013 0.45990115
5.28481579 0.20314173 0.95015442 0.74996442 0.16001163 0.45494086
3.63400054 0.75298721 1.59611440 0.51569843 0.59311652 0.76423120
3.71100760 0.57955676 1.58192611 0.52662641 0.45650798 0.75743777
3.75591803 0.31208554 1.53948379 0.53299963 0.24582501 0.73711604
3.85083342 0.13247843 1.53516853 0.54646903 0.10435123 0.73504990
6.19985628 0.82990503 1.58360875 0.87981719 0.65370351 0.75824344
5.36710072 0.84999818 1.67218840 0.76164144 0.66953057 0.80065602
5.38244820 0.49651372 1.60618961 0.76381940 0.39109626 0.76905531
5.94332600 0.23976335 1.70824754 0.84341311 0.18885791 0.81792140
5.04674816 0.81374544 1.01301956 0.71618044 0.64097482 0.48504114
5.09554577 0.48310849 0.96549791 0.72310525 0.38053715 0.46228743
5.28932858 0.23658392 0.95125222 0.75060481 0.18635353 0.45546651
3.63992620 0.77816027 1.60094678 0.51653934 0.61294496 0.76654500
3.70729280 0.60286212 1.58192611 0.52609926 0.47486526 0.75743777
4.29078007 0.09171298 1.46424937 0.60890150 0.07224091 0.70109326
3.77960038 0.33811802 1.55028510 0.53636038 0.26633039 0.74228781
3.83511877 0.15614688 1.52912652 0.54423898 0.12299451 0.73215693
6.32304907 0.88644487 1.61717045 0.89729935 0.69823903 0.77431303
5.34876204 0.52720386 1.59689248 0.75903898 0.41527042 0.76460373
5.90143490 0.27536142 1.69643569 0.83746839 0.21689798 0.81226575
5.07679272 0.51347256 0.96243095 0.72044402 0.40445447 0.46081895
5.28970194 0.26990551 0.95161819 0.75065780 0.21260044 0.45564172
3.64210749 0.80263001 1.60416853 0.51684886 0.63221937 0.76808757
3.71974587 0.62881112 1.58904922 0.52786648 0.49530488 0.76084834
4.30333185 0.11897358 1.46886790 0.61068273 0.09371367 0.70330465
3.79392362 0.36353129 1.55722868 0.53839296 0.28634804 0.74561244
3.85626578 0.18116632 1.53818953 0.54723990 0.14270194 0.73649639
6.31735468 0.92615598 1.61717045 0.89649129 0.72951889 0.77431303
5.35105133 0.56142110 1.59863567 0.75936389 0.44222280 0.76543844
5.86316681 0.31063241 1.68574870 0.83203781 0.24468039 0.80714875
5.07821894 0.53781962 0.96319771 0.72064644 0.42363229 0.46118608
5.27855301 0.29432002 0.94978851 0.74907565 0.23183137 0.45476568
3.63650107 0.81937194 1.60336304 0.51605326 0.64540672 0.76770192
3.72398639 0.64755267 1.59221494 0.52846825 0.51006734 0.76236415
4.30083609 0.13919900 1.46820807 0.61032856 0.10964493 0.70298874
3.75363493 0.37732223 1.54102683 0.53267562 0.29721093 0.73785490
3.85351920 0.19925059 1.53743434 0.54685014 0.15694664 0.73613477
5.41653919 0.82310295 1.38273954 0.76865721 0.64834559 0.66206580
4.31883717 0.98340714 1.39953148 0.61288309 0.77461475 0.67010587
5.67442751 0.50574762 1.38319683 0.80525392 0.39836964 0.66228473
5.35214949 0.58706272 1.59979784 0.75951970 0.46242031 0.76599485
5.85780478 0.33805051 1.68462372 0.83127689 0.26627722 0.80661011
5.08838797 0.57130349 0.96588129 0.72208947 0.45000702 0.46247101
5.30800629 0.32930803 0.95564342 0.75325537 0.25939089 0.45756903
3.65443444 0.84770769 1.61383343 0.51859820 0.66772634 0.77271521
3.73250937 0.67315227 1.59775507 0.52967775 0.53023171 0.76501679
4.30742407 0.16647509 1.47084725 0.61126345 0.13112988 0.70425236
3.78052878 0.40419498 1.55337107 0.53649211 0.31837821 0.74376541
3.85589004 0.22365388 1.53894484 0.54718661 0.17616874 0.73685801
6.33740568 1.00029457 1.62518525 0.89933670 0.78791672 0.77815056
5.36735630 0.62295735 1.60560858 0.76167768 0.49069396 0.76877707
5.81341839 0.37229785 1.67224944 0.82497805 0.29325333 0.80068523
5.09833574 0.60493630 0.96856493 0.72350115 0.47649905 0.46375597
5.27640009 0.36075386 0.95015442 0.74877018 0.28416029 0.45494086
3.64370108 0.86934876 1.61141717 0.51707500 0.68477273 0.77155828
3.72459149 0.69593561 1.59617221 0.52855408 0.54817784 0.76425892
4.29120111 0.19292901 1.46556902 0.60896128 0.15196723 0.70172513
3.74859715 0.42446077 1.54102683 0.53196073 0.33434126 0.73785490
3.84146786 0.24711275 1.53365803 0.54513997 0.19464692 0.73432666
5.47841024 0.90280008 1.40177453 0.77743727 0.71112180 0.67117989
4.48166656 1.08074880 1.45808208 0.63599008 0.85128927 0.69814032
5.34245110 0.65403193 1.59921682 0.75814342 0.51517093 0.76571667
5.51222372 0.38884777 1.58450377 0.78223574 0.30628943 0.75867194
5.10806179 0.63871664 0.97124851 0.72488141 0.50310731 0.46504086
5.30933332 0.39639938 0.95674115 0.75344372 0.31223771 0.45809463
3.99369574 0.88566929 1.52076256 0.56674248 0.69762814 0.72815222
3.65414715 0.89623660 1.61866593 0.51855743 0.70595187 0.77502906
3.73278165 0.72169703 1.60171235 0.52971637 0.56846970 0.76691157
4.30122042 0.22041376 1.46952772 0.61038309 0.17361654 0.70362061
3.76965833 0.45098236 1.55105662 0.53494954 0.35523191 0.74265724
3.84353518 0.27148584 1.53516853 0.54543334 0.21384524 0.73504990
4.83480453 0.83037794 1.23446691 0.68610364 0.65407598 0.59107178
4.45818472 1.10469425 1.45253515 0.63265783 0.87015074 0.69548440
5.34203053 0.68808973 1.60037887 0.75808370 0.54199773 0.76627308
5.45224714 0.41927305 1.56762958 0.77372450 0.33025497 0.75059247
5.11172819 0.67185259 0.97278202 0.72540170 0.52920800 0.46577513
5.30673790 0.42975086 0.95674115 0.75307536 0.33850816 0.45809463
4.00989485 0.91584736 1.52929831 0.56904131 0.72139895 0.73223919
3.66085315 0.92237622 1.62430382 0.51950908 0.72654164 0.77772850
3.72637033 0.74478608 1.60092092 0.52880657 0.58665657 0.76653260
4.29409409 0.24713589 1.46754837 0.60937184 0.19466516 0.70267284
3.77223873 0.47538024 1.55337107 0.53531569 0.37444973 0.74376541
3.83990645 0.29549763 1.53441334 0.54491836 0.23275895 0.73468828
4.70740509 0.83950216 1.20240808 0.66802448 0.66126299 0.57572174
4.45115566 1.13268387 1.45253515 0.63166028 0.89219773 0.69548440
6.25239992 0.39162874 1.45638847 0.88727361 0.30847996 0.69732940
5.33570623 0.72137731 1.59979784 0.75718623 0.56821787 0.76599485
5.35575628 0.44607100 1.54006851 0.76003152 0.35136330 0.73739606
5.14627504 0.70947075 0.98044950 0.73030418 0.55883926 0.46944636
5.31764889 0.46423012 0.95930266 0.75462377 0.36566696 0.45932111
3.99679112 0.93927747 1.52645302 0.56718177 0.73985445 0.73087686
3.67091393 0.94957125 1.63155246 0.52093679 0.74796271 0.78119922
3.74142575 0.77216297 1.60962689 0.53094304 0.60822093 0.77070111
4.30753469 0.27500272 1.47282660 0.61127919 0.21661542 0.70520014
3.77283311 0.49957636 1.55491412 0.53540003 0.39350864 0.74450421
3.84720564 0.32033819 1.53818953 0.54595417 0.25232548 0.73649639
4.45682240 1.16405141 1.45684946 0.63246447 0.91690546 0.69755012
6.25369835 0.43116078 1.45731461 0.88745785 0.33961874 0.69777286
5.33674955 0.75571448 1.60154104 0.75733429 0.59526473 0.76682955
5.37197018 0.48135397 1.54569316 0.76233244 0.37915516 0.74008918
5.30365038 0.48824710 0.95710713 0.75263721 0.38458475 0.45826986
4.00139809 0.96032739 1.53000963 0.56783551 0.75643516 0.73257977
3.68053937 0.97066975 1.63799572 0.52230269 0.76458168 0.78428429
3.73774552 0.78978539 1.60962689 0.53042078 0.62210184 0.77070111
4.30242252 0.29505780 1.47150707 0.61055368 0.23241252 0.70456833
3.76313043 0.51630741 1.55182815 0.53402317 0.40668744 0.74302661
3.83642530 0.33770087 1.53441334 0.54442436 0.26600182 0.73468828
4.52654409 0.85946035 1.15732515 0.64235860 0.67698377 0.55413574
4.39717674 0.94299209 1.37783456 0.62400019 0.74278045 0.65971726
6.13320494 0.45228857 1.42906988 0.87035871 0.35626078 0.68424910
5.39368868 0.78995526 1.62013543 0.76541448 0.62223566 0.77573264
5.36964226 0.50666332 1.54569316 0.76200211 0.39909095 0.74008918
5.31418037 0.52285653 0.95966864 0.75413156 0.41184607 0.45949635
3.99165988 0.98453659 1.52858698 0.56645358 0.77550441 0.73189861
3.69377828 0.99913722 1.64685535 0.52418143 0.78700507 0.78852636
3.73989630 0.81478035 1.61279273 0.53072602 0.64179003 0.77221692
4.31931782 0.32340598 1.47810495 0.61295128 0.25474194 0.70772743
3.77076221 0.54157394 1.55645716 0.53510618 0.42658949 0.74524301
3.84529543 0.36278445 1.53894484 0.54568315 0.28575975 0.73685801
4.37438059 0.96697116 1.37243903 0.62076521 0.76166838 0.65713382
6.12830210 0.49066660 1.42860687 0.86966294 0.38649055 0.68402737
5.37538385 0.82175505 1.61606789 0.76281685 0.64728385 0.77378511
5.37399387 0.54113197 1.54794312 0.76261961 0.42624137 0.74116647
5.29905272 0.55505180 0.95747304 0.75198478 0.43720582 0.45844507
3.72932029 0.83708441 1.61041832 0.52922517 0.65935856 0.77108002
3.73628902 0.56043541 1.54334140 0.53021407 0.44144639 0.73896313
3.83925295 0.38658619 1.53743434 0.54482561 0.30450803 0.73613477
6.31560898 0.87692088 1.55224490 0.89624357 0.69073713 0.74322617
6.10958624 0.52787352 1.42490268 0.86700702 0.41579789 0.68225378
5.37430620 0.57528108 1.54906809 0.76266396 0.45314011 0.74170512
5.33065128 0.59210932 0.96405977 0.75646889 0.46639544 0.46159884
3.74548817 0.86534762 1.61991572 0.53151953 0.68162107 0.77562743
3.75273013 0.58714485 1.55182815 0.53254724 0.46248502 0.74302661
3.83859062 0.41088852 1.53818953 0.54473162 0.32365060 0.73649639
6.28693724 0.91316402 1.54644895 0.89217478 0.71928531 0.74045104
5.59647226 0.52069026 1.30312634 0.79419136 0.41013974 0.62394637
5.37058544 0.60903722 1.54906809 0.76213592 0.47972929 0.74170512
5.32487202 0.62536895 0.96369386 0.75564879 0.49259356 0.46142364
3.73997712 0.88886398 1.61991572 0.53073746 0.70014453 0.77562743
3.76170397 0.61285716 1.55722868 0.53382069 0.48273820 0.74561244
3.83777428 0.43519780 1.53894484 0.54461581 0.34279865 0.73685801
4.52993345 1.09046412 1.42879188 0.64283961 0.85894191 0.68411595
5.41490364 0.53878605 1.26052773 0.76842511 0.42439353 0.60354990
5.36283970 0.64232725 1.54794312 0.76103675 0.50595134 0.74116647
5.34035969 0.66115564 0.96735311 0.75784659 0.52078217 0.46317571
3.73967814 0.91362470 1.62229013 0.53069502 0.71964818 0.77676433
3.77050257 0.63870531 1.56262934 0.53506935 0.50309837 0.74819833
3.82944441 0.45867088 1.53667903 0.54343373 0.36128804 0.73577315
4.53226328 1.12115538 1.43178940 0.64317024 0.88311690 0.68555123
5.32043791 0.56351221 1.23876536 0.75501955 0.44386995 0.59312987
5.34536266 0.67437875 1.54400575 0.75855660 0.53119785 0.73928124
5.33805084 0.69494331 0.96771908 0.75751895 0.54739618 0.46335095
3.73743153 0.93797898 1.62387300 0.53037626 0.73883170 0.77752221
4.31829786 0.46006680 1.48206365 0.61280656 0.36238757 0.70962286
3.78820205 0.66633445 1.57188761 0.53758103 0.52486145 0.75263125
3.83935666 0.48427746 1.54196584 0.54484034 0.38145792 0.73830450
4.52327824 1.14914846 1.43118989 0.64189517 0.90516663 0.68526417
5.32646370 0.59797883 1.24108052 0.75587463 0.47101876 0.59423840
5.36767006 0.71138126 1.55188036 0.76172221 0.56034410 0.74305165
5.34251499 0.72111309 0.96918279 0.75815248 0.56800973 0.46405178
4.11941004 0.95543069 1.53460348 0.58458251 0.75257814 0.73477936
3.74366045 0.95825726 1.62862170 0.53126019 0.75480455 0.77979594
3.78320599 0.68384069 1.57111609 0.53687203 0.53865087 0.75226182
3.84989452 0.50397986 1.54725266 0.54633576 0.39697722 0.74083585
4.53445482 1.17468524 1.43658543 0.64348125 0.92528158 0.68784755
5.32358694 0.62307245 1.24108052 0.75546640 0.49078462 0.59423840
5.35094118 0.73488998 1.54794312 0.75934821 0.57886159 0.74116647
5.33787870 0.75466663 0.96918279 0.75749457 0.59443933 0.46405178
4.10967398 0.98044205 1.53321099 0.58320087 0.77227920 0.73411262
3.80160618 0.99822223 1.65711391 0.53948319 0.78628439 0.79343820
3.80963612 0.71353412 1.58423185 0.54062271 0.56203991 0.75854176
3.85215974 0.52888626 1.54951847 0.54665720 0.41659561 0.74192077
4.55836916 1.21134806 1.44677687 0.64687490 0.95416033 0.69272733
5.35820484 0.66112870 1.25034106 0.76037902 0.52076095 0.59867239
5.35762310 0.77009177 1.55131793 0.76029646 0.60658950 0.74278235
5.38363266 0.79547393 0.97869694 0.76398748 0.62658262 0.46860725
4.27480125 1.04739392 1.59865916 0.60663396 0.82501614 0.76544964
3.83077908 1.03145754 1.67294288 0.54362309 0.81246334 0.80101722
3.81774497 0.73998058 1.58963251 0.54177344 0.58287138 0.76112765
3.85242963 0.55358714 1.55102897 0.54669553 0.43605211 0.74264395
4.54882479 1.23947144 1.44617736 0.64552045 0.97631270 0.69244027
6.01414680 0.77792871 1.40869665 0.85346329 0.61276251 0.67449421
5.37546730 0.80707365 1.55806756 0.76282871 0.63571954 0.74601412
3.78952503 0.75911814 1.57960272 0.53776878 0.59794575 0.75632530
3.85070801 0.57804692 1.55178428 0.54645121 0.45531872 0.74300563
4.54646730 1.26954353 1.44797587 0.64518595 1.00000000 0.69330138
6.37369251 0.86394209 1.49620891 0.90448612 0.68051398 0.71639574
5.37977648 0.84228146 1.56087995 0.76344025 0.66345221 0.74736071
3.74677658 0.77486408 1.56340086 0.53170240 0.61034858 0.74856776
3.82868910 0.59946144 1.54423165 0.54332656 0.47218660 0.73938936
6.36813879 0.90397185 1.49620891 0.90369803 0.71204478 0.71639574
3.79951429 0.81101841 1.58808947 0.53918636 0.63882679 0.76038879
3.83948159 0.62581271 1.55027366 0.54485810 0.49294308 0.74228233
6.33444357 1.06975758 1.84774065 0.89891636 0.84263164 0.88471168
3.79204893 0.82810789 1.58654642 0.53812695 0.65228790 0.75964999
3.83831787 0.64419580 1.55102897 0.54469293 0.50742316 0.74264395
4.78963137 0.73878390 1.11884117 0.67969316 0.58192879 0.53570932
3.79216528 0.85316080 1.58886099 0.53814346 0.67202169 0.76075822
3.85793304 0.67230970 1.56084728 0.54747653 0.52956808 0.74734509
4.79066181 0.76976514 1.12023020 0.67983937 0.60633224 0.53637439
5.31686115 0.96143699 1.54850554 0.75451195 0.75730920 0.74143577
3.80647945 0.88165355 1.59734774 0.54017478 0.69446498 0.76482177
3.84633660 0.69525671 1.55782628 0.54583085 0.54764307 0.74589860
4.81453657 0.80454069 1.12717569 0.68322742 0.63372439 0.53969991
5.04265022 0.94565332 1.46863461 0.71559888 0.74487662 0.70319295
4.31857014 0.72261047 1.49459958 0.61284518 0.56918919 0.71562517
3.80803561 0.90730071 1.60043383 0.54039562 0.71466690 0.76629937
3.84735823 0.72040421 1.56009209 0.54597586 0.56745136 0.74698347
4.47470999 0.87059534 1.30101800 0.63500291 0.68575460 0.62293690
4.30091333 0.74752796 1.48998106 0.61033952 0.58881634 0.71341377
3.87922668 0.95048356 1.63360906 0.55049831 0.74868137 0.78218395
3.84821558 0.74559194 1.56235790 0.54609752 0.58729136 0.74806833
4.77913475 0.86059844 1.12115633 0.67820358 0.67788023 0.53681785
4.30171013 0.77551544 1.49196041 0.61045259 0.61086166 0.71436155
3.85981441 0.77294433 1.56915522 0.54774350 0.60883641 0.75132298
4.46529722 0.92713779 1.30158043 0.63366711 0.73029226 0.62320620
4.28500175 0.79343247 1.48734188 0.60808152 0.62497461 0.71215016
3.85612917 0.79112464 1.56915522 0.54722053 0.62315679 0.75132298
4.46087885 0.94816959 1.30158043 0.63304013 0.74685866 0.62320620
4.29663515 0.82346088 1.49327993 0.60973239 0.64862752 0.71499330
3.84019995 0.81309235 1.56462359 0.54496002 0.64046037 0.74915320
4.31732798 0.85545874 1.50251698 0.61266893 0.67383176 0.71941608
3.86399674 0.84337443 1.57670772 0.54833698 0.66431314 0.75493914
4.23781109 0.86776626 1.47612548 0.60138476 0.68352622 0.70677966
3.85138583 0.86604798 1.57368672 0.54654741 0.68217272 0.75349265
4.22118092 0.89208591 1.47216678 0.59902477 0.70268244 0.70488417
3.85490012 0.89227134 1.57746303 0.54704612 0.70282847 0.75530082
3.86004019 0.91899264 1.58199453 0.54777557 0.72387642 0.75747055
3.87368393 0.94145405 1.58954716 0.54971170 0.74156892 0.76108676
4.05592060 0.93138707 1.41872418 0.57557279 0.73363936 0.67929548
3.87129021 0.96665335 1.59105766 0.54937202 0.76141804 0.76181000
4.36455154 1.02955019 1.53154755 0.61937040 0.81096095 0.73331612
3.97470927 1.01845539 1.63712835 0.56404817 0.80222172 0.78386897
3.99333858 1.04987776 1.64770198 0.56669182 0.82697266 0.78893173
4.54356718 -0.90086883 1.53370214 0.64477438 -0.70960057 0.73434776
4.55099964 -0.87265170 1.53434372 0.64582908 -0.68737435 0.73465496
4.56571341 -0.84572417 1.53755224 0.64791709 -0.66616398 0.73619121
4.55040932 -0.81344396 1.53049362 0.64574534 -0.64073735 0.73281151
4.16749907 -0.79350704 1.64871693 0.59140682 -0.62503332 0.78941768
4.34708166 -0.72181034 1.45734096 0.61689126 -0.56855893 0.69778550
4.05046511 -0.75205970 1.59999609 0.57479858 -0.59238589 0.76608980
4.30551910 -0.69428909 1.44194043 0.61099315 -0.54688090 0.69041157
3.98918581 -0.71511847 1.57342112 0.56610250 -0.56328785 0.75336552
4.31916285 -0.66862857 1.44514894 0.61292928 -0.52666849 0.69194788
3.98993397 -0.68942517 1.57194471 0.56620866 -0.54304963 0.75265861
4.32702875 -0.64201605 1.44643223 0.61404556 -0.50570619 0.69256228
3.97767091 -0.66168034 1.56530094 0.56446844 -0.52119547 0.74947751
4.36100388 -0.61893624 1.45669925 0.61886692 -0.48752660 0.69747823
3.99093461 -0.63809615 1.56899190 0.56635070 -0.50261855 0.75124478
4.40237188 -0.59643757 1.46953309 0.62473744 -0.46980473 0.70362318
3.98934889 -0.61218989 1.56677735 0.56612563 -0.48221260 0.75018442
3.96459055 -0.58942360 1.55570447 0.56261218 -0.46427995 0.74488264
3.97374034 -0.56525922 1.55791903 0.56391066 -0.44524604 0.74594301
4.56253719 -0.65119338 1.27436507 0.64746636 -0.51293504 0.61017531
3.96615481 -0.53883529 1.55348980 0.56283420 -0.42443231 0.74382228
4.85181952 -0.55041921 1.07444227 0.68851823 -0.43355680 0.51445079
3.97868514 -0.51505113 1.55718088 0.56461239 -0.40569788 0.74558955
4.89592409 -0.52411503 1.08374298 0.69477707 -0.41283739 0.51890403
3.95046091 -0.48634157 1.54463148 0.56060708 -0.38308379 0.73958081
4.59501457 -0.56758308 1.28037679 0.65207523 -0.44707650 0.61305374
3.94789672 -0.46089241 1.54241693 0.56024319 -0.36303788 0.73852050
5.33643627 -0.62186462 1.49133468 0.75728983 -0.48983324 0.71406192
4.66024637 -0.99004447 1.50800419 0.66133225 -0.77984285 0.72204340
4.87298679 -0.45992336 1.07709968 0.69152206 -0.36227459 0.51572317
3.95926619 -0.44327024 1.54610789 0.56185663 -0.34915718 0.74028772
4.03647804 -0.65375984 1.55815291 0.57281369 -0.51495659 0.74605501
5.40625477 -0.60393584 1.51046300 0.76719773 -0.47571102 0.72322071
4.57162952 -0.94913983 1.47718799 0.64875668 -0.74762291 0.70728838
4.87704325 -0.43712097 1.07754254 0.69209772 -0.34431350 0.51593524
3.93608046 -0.41578415 1.53577316 0.55856633 -0.32750681 0.73533940
4.09570074 -0.63725048 1.57994676 0.58121794 -0.50195247 0.75649005
3.66524601 -0.74644643 1.60900092 0.52013242 -0.58796442 0.77040136
5.51138639 -0.58025974 1.53942871 0.78211689 -0.45706171 0.73708969
4.57750320 -0.92039692 1.47718799 0.64959019 -0.72498256 0.70728838
4.87191629 -0.40585387 1.07577097 0.69137013 -0.31968486 0.51508701
3.93861508 -0.39104500 1.53577316 0.55892605 -0.30802017 0.73533940
4.05174112 -0.60412145 1.56105876 0.57497966 -0.47585723 0.74744630
3.78493524 -0.74543601 1.66054726 0.53711742 -0.58716851 0.79508215
5.46895790 -0.54124218 1.52631223 0.77609593 -0.42632818 0.73080945
4.57011127 -0.88913125 1.47287381 0.64854121 -0.70035505 0.70522273
4.88020611 -0.37565973 1.07709968 0.69254655 -0.29590142 0.51572317
3.94654942 -0.36677790 1.53798783 0.56005198 -0.28890532 0.73639977
4.04623985 -0.57729000 1.55742645 0.57419902 -0.45472249 0.74570715
3.76794291 -0.71764433 1.65088236 0.53470606 -0.56527746 0.79045451
5.10240078 -0.47399172 1.42083323 0.72407806 -0.37335601 0.68030530
4.56063604 -0.85765147 1.46794319 0.64719659 -0.67555892 0.70286191
4.85522509 -0.34317794 1.07089913 0.68900150 -0.27031600 0.51275432
3.94507074 -0.34167218 1.53651142 0.55984217 -0.26912993 0.73569286
4.04056215 -0.55055159 1.55379415 0.57339329 -0.43366107 0.74396795
3.72732306 -0.68591428 1.63074708 0.52894175 -0.54028416 0.78081357
5.07843494 -0.43970698 1.41318190 0.72067708 -0.34635046 0.67664182
4.56406116 -0.82864773 1.46732688 0.64768267 -0.65271312 0.70256680
4.86701965 -0.31325084 1.07311368 0.69067526 -0.24674289 0.51381463
4.02547503 -0.52266151 1.54652953 0.57125229 -0.41169247 0.74048960
3.74599242 -0.66496402 1.63719034 0.53159112 -0.52378196 0.78389865
5.03505802 -0.40427962 1.40006530 0.71452147 -0.31844488 0.67036146
4.55604839 -0.79771543 1.46301270 0.64654559 -0.62834823 0.70050114
4.88057709 -0.28329399 1.07577097 0.69259918 -0.22314633 0.51508701
4.94955206 -0.53537589 1.06735492 0.70238739 -0.42170739 0.51105732
3.94673491 -0.29814360 1.53577316 0.56007832 -0.23484315 0.73533940
4.02050161 -0.50272423 1.54362369 0.57054651 -0.39598817 0.73909825
3.74908447 -0.64730418 1.63719034 0.53202987 -0.50987160 0.78389865
5.10982847 -0.38576221 1.42083323 0.72513211 -0.30385900 0.68030530
4.57101965 -0.77810311 1.46671057 0.64867014 -0.61289990 0.70227170
5.75450134 -0.44125530 0.97168857 0.81661719 -0.34757003 0.46525156
4.86237764 -0.25933436 1.07134211 0.69001651 -0.20427370 0.51296639
4.94231224 -0.51100194 1.06519413 0.70135999 -0.40250841 0.51002270
3.93369031 -0.27238911 1.52986765 0.55822718 -0.21455674 0.73251176
4.01433468 -0.47630861 1.53999150 0.56967133 -0.37518099 0.73735917
3.74584770 -0.62257349 1.63396871 0.53157055 -0.49039161 0.78235614
5.16206646 -0.35690281 1.43504286 0.73254514 -0.28112689 0.68710899
4.61520433 -0.99095434 1.44797587 0.65494037 -0.78055954 0.69330138
5.72177362 -0.40272564 0.96550828 0.81197280 -0.31722081 0.46229240
4.88534546 -0.22969669 1.07621384 0.69327587 -0.18092857 0.51529902
4.98039627 -0.48347700 1.07297266 0.70676446 -0.38082743 0.51374716
3.94460273 -0.24820369 1.53355861 0.55977577 -0.19550624 0.73427904
4.02465105 -0.45194551 1.54289722 0.57113534 -0.35599056 0.73875046
4.32775545 -0.78930253 1.63812804 0.61414868 -0.62172151 0.78434765
3.74244833 -0.59790903 1.63074708 0.53108817 -0.47096381 0.78081357
5.16804790 -0.32468796 1.43613589 0.73339397 -0.25575173 0.68763232
4.42432737 -0.69674397 1.41555583 0.62785316 -0.54881454 0.67777848
4.60454321 -0.95836496 1.44258034 0.65342742 -0.75488943 0.69071800
4.86135483 -0.19807056 1.07045627 0.68987137 -0.15601714 0.51254225
3.93308997 -0.22274566 1.52839124 0.55814201 -0.17545335 0.73180485
3.99730301 -0.70470923 1.50867045 0.56725442 -0.55508870 0.72236240
3.73526549 -0.57277650 1.62591457 0.53006887 -0.45116729 0.77849978
4.60673618 -0.92864478 1.44138145 0.65373862 -0.73147929 0.69014394
5.68703413 -0.32866073 0.95864135 0.80704296 -0.25888103 0.45900446
4.87809896 -0.16799408 1.07399940 0.69224751 -0.13232636 0.51423877
4.10678244 -0.69689196 1.54921484 0.58279055 -0.54893112 0.74177533
3.75329161 -0.55134678 1.63235784 0.53262693 -0.43428743 0.78158486
3.82852578 -0.75844103 1.64524209 0.54330337 -0.59741241 0.78775394
4.63937521 -0.23508215 1.28474891 0.65837044 -0.18517061 0.61514717
5.54515600 -0.55591297 1.50392795 0.78690910 -0.43788412 0.72009164
4.60312414 -0.89781469 1.43838394 0.65322608 -0.70719486 0.68870872
5.72637987 -0.29471329 0.96516496 0.81262648 -0.23214115 0.46212801
4.86345959 -0.13696693 1.07045627 0.69017005 -0.10788675 0.51254225
3.92629147 -0.17294379 1.52470028 0.55717719 -0.13622518 0.73003763
4.08338594 -0.66669279 1.53854525 0.57947040 -0.52514368 0.73666668
3.73672557 -0.52505893 1.62349832 0.53027606 -0.41358086 0.77734286
3.79537129 -0.72691596 1.62862170 0.53859842 -0.57258058 0.77979594
4.62922668 -0.20546642 1.28146982 0.65693027 -0.16184275 0.61357707
4.59181356 -0.86562032 1.43298841 0.65162098 -0.68183589 0.68612528
5.66709185 -0.25618821 0.95452118 0.80421293 -0.20179553 0.45703170
4.89347506 -0.10692396 1.07709968 0.69442952 -0.08422237 0.51572317
3.93449378 -0.15469344 1.52765310 0.55834121 -0.12184966 0.73145145
4.06985378 -0.64489210 1.53214347 0.57755005 -0.50797164 0.73360145
3.71737432 -0.50460744 1.61383343 0.52752995 -0.39747155 0.77271521
3.78793216 -0.70694369 1.62387300 0.53754276 -0.55684870 0.77752221
4.65898371 -0.18466666 1.28966773 0.66115302 -0.14545910 0.61750233
5.07093191 -0.07461309 1.68257415 0.71961230 -0.05877159 0.80562878
4.59021616 -0.84291399 1.43118989 0.65139431 -0.66395044 0.68526417
5.64067078 -0.22846290 0.94971436 0.80046356 -0.17995673 0.45473015
4.84712029 -0.08325538 1.06647027 0.68785137 -0.06557899 0.51063377
3.92238164 -0.12960710 1.52248573 0.55662239 -0.10208952 0.72897726
4.06272936 -0.61767703 1.52787566 0.57653904 -0.48653474 0.73155802
3.72228813 -0.48146567 1.61463881 0.52822727 -0.37924314 0.77310085
3.77785182 -0.68044835 1.61754143 0.53611225 -0.53597873 0.77449065
4.76389790 -0.15839928 1.31917989 0.67604136 -0.12476869 0.63163292
4.61044025 -0.81678438 1.43598592 0.65426427 -0.64336854 0.68756056
5.64396429 -0.19307752 0.95005769 0.80093092 -0.15208420 0.45489454
4.89825535 -0.05313813 1.07798541 0.69510794 -0.04185609 0.51614726
3.94170213 -0.10536047 1.52986765 0.55936414 -0.08299083 0.73251176
3.72342157 -0.45785493 1.61383343 0.52838808 -0.36064532 0.77271521
3.79109263 -0.65831721 1.62149858 0.53799123 -0.51854640 0.77638537
5.26680231 -0.13985510 1.46182251 0.74740815 -0.11016172 0.69993126
4.60044575 -0.78516656 1.43118989 0.65284598 -0.61846370 0.68526417
5.61158037 -0.15679763 0.94422078 0.79633534 -0.12350710 0.45209980
4.80877686 -0.02232360 1.05761242 0.68241006 -0.01758396 0.50639254
3.92741776 -0.08036487 1.52396214 0.55733705 -0.06330217 0.72968417
4.11833858 -0.57303816 1.54636955 0.58443046 -0.45137340 0.74041301
3.70984983 -0.43263179 1.60658467 0.52646214 -0.34077743 0.76924443
3.76438451 -0.62917274 1.60804403 0.53420109 -0.49558973 0.76994318
5.28681326 -0.10707585 1.46728766 0.75024790 -0.08434200 0.70254803
5.62427473 -0.12174928 0.94628090 0.79813677 -0.09590004 0.45308620
3.72523975 -0.41064867 1.61222255 0.52864611 -0.32346168 0.77194393
3.78819442 -0.60881984 1.61674988 0.53757995 -0.47955808 0.77411163
5.27199173 -0.07370015 1.46291554 0.74814457 -0.05805248 0.70045465
5.29040623 -0.33693859 1.42887461 0.75075775 -0.26540136 0.68415558
4.67531252 -0.61071277 1.22878242 0.66347027 -0.48104909 0.58835000
4.46869326 -0.70437843 1.38622749 0.63414907 -0.55482811 0.66373581
5.59143591 -0.08601535 0.94044399 0.79347664 -0.06775297 0.45029145
3.92625880 -0.03100139 1.52322388 0.55717260 -0.02441932 0.72933072
4.17834139 -0.74224603 1.54017353 0.59294546 -0.58465582 0.73744631
3.72045898 -0.38651732 1.60900092 0.52796769 -0.30445376 0.77040136
3.77380729 -0.58210933 1.60883546 0.53553832 -0.45851859 0.77032214
5.31852341 -0.04075123 1.47603202 0.75474787 -0.03209912 0.70673490
5.59580660 -0.05090338 0.94113070 0.79409689 -0.04009581 0.45062023
4.98280478 -0.49738821 1.03671694 0.70710623 -0.39178509 0.49638763
3.91706729 -0.01251761 1.51953292 0.55586821 -0.00985993 0.72756344
4.19656038 -0.72517246 1.54574358 0.59553087 -0.57120723 0.74011332
3.71130300 -0.36795676 1.60416853 0.52666837 -0.28983390 0.76808757
3.76924825 -0.56319481 1.60566962 0.53489131 -0.44361994 0.76880634
5.60531425 -0.01543728 1.55746400 0.79544616 -0.01215971 0.74572510
5.58613253 -0.02452591 0.93941396 0.79272407 -0.01931868 0.44979826
5.84040403 -0.31043786 0.95456696 0.82880753 -0.24452715 0.45705363
4.98898888 -0.47425622 1.03755355 0.70798385 -0.37356436 0.49678820
3.91706872 0.01209414 1.51953292 0.55586839 0.00952637 0.72756344
4.15113401 -0.47810519 1.55419397 0.58908445 -0.37659612 0.74415940
4.19733810 -0.69815761 1.54435110 0.59564126 -0.54992807 0.73944658
3.72083640 -0.34526774 1.60739017 0.52802122 -0.27196211 0.76963013
3.76181149 -0.53788269 1.60092092 0.53383595 -0.42368194 0.76653260
5.92850399 0.02209541 1.64927995 0.84130973 0.01740422 0.78968728
4.56280279 -0.95105809 1.38015163 0.64750409 -0.74913388 0.66082668
5.57435513 0.01050763 0.93735385 0.79105276 0.00827670 0.44881186
4.99771690 -0.44339511 1.03880847 0.70922244 -0.34925553 0.49738908
3.90948105 0.03659713 1.51658010 0.55479163 0.02882700 0.72614962
3.71198416 -0.32099581 1.60255766 0.52676499 -0.25284347 0.76731628
3.76147985 -0.51371950 1.59933805 0.53378892 -0.40464899 0.76577473
5.99942541 0.06030135 1.66950130 0.85137415 0.04749845 0.79936939
5.24777412 -0.08825462 1.70619762 0.74470788 -0.06951681 0.81693989
4.54803562 -0.91829473 1.37375975 0.64540845 -0.72332668 0.65776616
5.56826830 0.04546205 0.93632382 0.79018897 0.03580976 0.44831866
4.96335793 -0.40908390 1.03086078 0.70434660 -0.32222912 0.49358365
3.93519115 0.06170268 1.52691483 0.55844015 0.04860226 0.73109794
3.71027660 -0.29739395 1.60094678 0.52652270 -0.23425266 0.76654500
3.76099324 -0.48958173 1.59775507 0.53371984 -0.38563603 0.76501679
6.05470991 0.09909579 1.68535042 0.85921955 0.07805624 0.80695808
5.19697809 -0.05454195 1.68919134 0.73749942 -0.04296185 0.80879712
5.52218819 -0.55069691 1.45242107 0.78364974 -0.43377551 0.69542980
4.55371571 -0.88970065 1.37375975 0.64621454 -0.70080358 0.65776616
5.56984282 0.08048305 0.93666714 0.79041243 0.06339527 0.44848305
4.95997810 -0.37746900 1.02960598 0.70386696 -0.29732656 0.49298286
3.92543530 0.08617473 1.52322388 0.55705571 0.06787851 0.72933072
3.69380808 -0.27282768 1.59289277 0.52418566 -0.21490219 0.76268870
3.74577904 -0.46358705 1.58984065 0.53156084 -0.36516041 0.76122731
3.81512356 -0.75337875 1.58963251 0.54140145 -0.59342492 0.76112765
5.93665075 0.13408469 1.65201259 0.84246588 0.10561646 0.79099566
5.32032061 -0.14629072 1.43472981 0.75500292 -0.11523096 0.68695909
5.20481062 -0.02194920 1.69171083 0.73861092 -0.01728905 0.81000346
5.51976728 -0.51547164 1.45086801 0.78330624 -0.40602911 0.69468617
4.57427168 -0.86384672 1.37840831 0.64913160 -0.68043882 0.65999198
5.56725740 0.11542955 0.93632382 0.79004550 0.09092209 0.44831866
4.95054245 -0.34552824 1.02709615 0.70252794 -0.27216730 0.49178112
3.89880800 0.10996777 1.51288915 0.55327708 0.08661993 0.72438234
3.70823932 -0.25040695 1.59853065 0.52623361 -0.19724172 0.76538813
3.74314880 -0.43937072 1.58746624 0.53118759 -0.34608558 0.76009041
3.93045044 -0.74992591 1.63669515 0.55776739 -0.59070516 0.78366154
5.96837997 0.17243877 1.66130340 0.84696853 0.13582738 0.79544419
5.35582542 -0.11372791 1.44431114 0.76004136 -0.08958174 0.69154668
4.58714581 -0.83642918 1.38073266 0.65095860 -0.65884244 0.66110486
5.57036114 0.15052797 0.93701053 0.79048598 0.11856858 0.44864747
5.76250267 -0.12469947 0.94023401 0.81775260 -0.09822386 0.45019090
4.92918777 -0.31302550 1.02207661 0.69949752 -0.24656540 0.48937774
3.90753365 0.12869343 1.51658010 0.55451530 0.10136984 0.72614962
3.68927383 -0.23177755 1.58967102 0.52354223 -0.18256763 0.76114607
3.74335384 -0.42151135 1.58667481 0.53121668 -0.33201805 0.75971144
3.84315062 -0.71499312 1.59811926 0.54537874 -0.56318915 0.76519114
5.97711372 0.20091794 1.66403604 0.84820795 0.15825999 0.79675257
5.35437441 -0.08844885 1.44377875 0.75983542 -0.06966981 0.69129181
5.52702713 -0.45490009 1.45138562 0.78433645 -0.35831782 0.69493401
4.70877981 -0.62968934 1.19439328 0.66821957 -0.49599665 0.57188421
4.59103680 -0.81480354 1.38073266 0.65151072 -0.64180827 0.66110486
5.57352781 0.17691530 0.93769717 0.79093534 0.13935347 0.44897625
5.72359419 -0.09673642 0.93356752 0.81223112 -0.07619780 0.44699892
4.93060827 -0.28979388 1.02207661 0.69969910 -0.22826619 0.48937774
3.91778970 0.15373759 1.52100933 0.55597073 0.12109675 0.72827035
3.69248581 -0.20868598 1.59047651 0.52399802 -0.16437875 0.76153177
3.74227738 -0.39757517 1.58509195 0.53106391 -0.31316388 0.75895357
3.86938095 -0.69463164 1.60737741 0.54910105 -0.54715073 0.76962405
5.99111032 0.23913504 1.66840827 0.85019416 0.18836302 0.79884607
5.53217030 -0.05729353 1.49274969 0.78506631 -0.04512923 0.71473944
4.70112514 -0.59857416 1.19138777 0.66713333 -0.47148770 0.57044518
5.54277754 0.21070014 0.93254697 0.78657156 0.16596527 0.44651029
5.71028614 -0.06057675 0.93123424 0.81034261 -0.04771538 0.44588175
6.27368402 -0.45173559 0.98401463 0.89029402 -0.35582522 0.47115338
4.92061043 -0.25824180 1.01956677 0.69828027 -0.20341311 0.48817602
5.11711597 -0.51813257 1.01944184 0.72616625 -0.40812510 0.48811617
3.90560794 0.17778549 1.51658010 0.55424201 0.14003891 0.72614962
3.69189525 -0.18539968 1.58967102 0.52391422 -0.14603649 0.76114607
3.73739505 -0.37328434 1.58192611 0.53037107 -0.29403037 0.75743777
3.86275029 -0.66847479 1.60274839 0.54816014 -0.52654737 0.76740760
6.01831198 0.27820322 1.67660606 0.85405433 0.21913642 0.80277121
6.22643185 -0.02791101 1.68437517 0.88358849 -0.02198508 0.80649114
5.55315256 0.24608864 0.93460709 0.78804392 0.19384025 0.44749668
5.72435760 -0.02480587 0.93356752 0.81233948 -0.01953920 0.44699892
6.16408157 -0.40529457 0.96580148 0.87474042 -0.31924433 0.46243280
4.91822815 -0.22715548 1.01873016 0.69794226 -0.17892689 0.48777544
5.12027025 -0.48597074 1.01944184 0.72661388 -0.38279170 0.48811617
3.91554832 0.20295656 1.52100933 0.55565268 0.15986577 0.72827035
3.68566990 -0.16191827 1.58644938 0.52303076 -0.12754054 0.75960356
3.74697804 -0.35051820 1.58509195 0.53173095 -0.27609780 0.75895357
3.86869597 -0.64448512 1.60351992 0.54900390 -0.50765103 0.76777703
6.04910040 0.31783742 1.68589699 0.85842353 0.25035566 0.80721980
6.13780260 0.01134110 1.65988970 0.87101120 0.00893321 0.79476732
5.58887720 0.28300411 0.94113070 0.79311359 0.22291800 0.45062023
5.70468044 0.01119320 0.93023425 0.80954713 0.00881671 0.44540295
4.82292604 0.35716856 1.06381297 0.68441796 0.28133619 0.50936139
4.90587664 -0.19575988 1.01580215 0.69618946 -0.15419705 0.48637348
5.09200716 -0.45090038 1.01301956 0.72260308 -0.35516733 0.48504114
3.93460155 0.22884704 1.52912951 0.55835646 0.18025932 0.73215836
3.68844438 -0.13881624 1.58725488 0.52342451 -0.10934342 0.75998920
3.75459313 -0.32747686 1.58746624 0.53281164 -0.25794852 0.76009041
3.85443425 -0.61734164 1.59580469 0.54698002 -0.48627055 0.76408291
6.02778196 0.35464385 1.68043172 0.85539824 0.27934754 0.80460298
6.16845560 0.05005417 1.66840637 0.87536114 0.03942690 0.79884511
5.29364729 -0.30288929 1.38615775 0.75121772 -0.23858126 0.66370243
5.60075569 0.31894833 0.94353408 0.79479921 0.25123072 0.45177099
5.71238565 0.04707322 0.93156755 0.81064057 0.03707886 0.44604135
4.83419037 0.38861570 1.06691313 0.68601650 0.30610663 0.51084578
6.04248857 -0.32151484 0.94535160 0.85748523 -0.25325233 0.45264125
4.90505457 -0.16487408 1.01538384 0.69607276 -0.12986879 0.48617318
3.90527177 0.25162685 1.51805651 0.55419433 0.19820261 0.72685653
3.69473386 -0.11578029 1.58967102 0.52431703 -0.09119836 0.76114607
3.75108671 -0.30340582 1.58509195 0.53231400 -0.23898812 0.75895357
4.49740934 -0.77602422 1.60827208 0.63822412 -0.61126238 0.77005237
3.87283874 -0.59527832 1.60197687 0.54959178 -0.46889162 0.76703823
5.85652971 0.38093594 1.63233769 0.83109593 0.30005741 0.78157520
6.17573023 0.08889607 1.67053556 0.87639344 0.07002208 0.79986459
4.45139170 -0.64724857 1.33076024 0.63169378 -0.50982779 0.63717771
5.56522083 0.35189673 0.93769717 0.78975648 0.27718368 0.44897625
5.70014572 0.08283432 0.92956758 0.80890357 0.06524733 0.44508374
4.80834532 0.41686225 1.06159854 0.68234885 0.32835600 0.50830114
4.84429359 0.17871867 1.03840172 0.68745023 0.14077397 0.49719432
5.95957422 -0.27984965 0.93161184 0.84571892 -0.22043328 0.44606254
4.89621782 -0.13382508 1.01329231 0.69481874 -0.10541197 0.48517174
5.07969379 -0.38547394 1.00940704 0.72085571 -0.30363193 0.48331144
